ply
format ascii 1.0
comment PCL generated
element vertex 1803
property float x
property float y
property float z
element face 0
element camera 0
property float view_px
property float view_py
property float view_pz
property float x_axisx
property float x_axisy
property float x_axisz
property float y_axisx
property float y_axisy
property float y_axisz
property float z_axisx
property float z_axisy
property float z_axisz
property float focal
property float scalex
property float scaley
property float centerx
property float centery
property int viewportx
property int viewporty
property float k1
property float k2
end_header
33.285999 5.6110001 -14.032
33.526001 5.5209999 -13.789
33.526001 5.5809999 -14.035
33.745998 4.7420001 -13.82
33.776001 5.5110002 -14.04
34.015999 -11.847 -14.744
33.785999 -11.607 -14.736
34.245998 -12.147 -14.758
34.476002 -12.287 -14.769
34.716 -12.287 -14.769
34.945999 -12.447 -14.772
35.186001 -12.607 -14.774
35.416 -12.777 -14.787
35.646 -12.957 -14.792
35.886002 -12.967 -14.792
36.125999 -13.057 -14.799
36.366001 -13.047 -14.799
36.596001 -13.066 -14.8
36.835999 -13.167 -14.798
37.066002 -13.316 -14.81
37.306 -13.447 -14.81
37.546001 -13.427 -14.809
37.776001 -13.497 -14.814
38.015999 -13.567 -14.82
38.256001 -13.567 -14.82
38.495998 -13.627 -14.814
38.726002 -13.717 -14.821
38.966 -13.787 -14.827
39.206001 -13.687 -14.819
39.445999 -13.677 -14.818
39.686001 -13.576 -14.82
39.925999 -13.606 -14.823
40.175999 -13.517 -14.816
40.416 -13.477 -14.812
40.655998 -13.407 -14.807
40.896 -13.357 -14.803
41.136002 -13.347 -14.802
41.386002 -13.297 -14.808
41.625999 -13.277 -14.807
41.866001 -13.247 -14.804
42.105999 -13.227 -14.803
42.346001 -13.207 -14.801
42.585999 -13.147 -14.797
42.826 -13.077 -14.791
43.076 -13.007 -14.796
43.316002 -12.927 -14.789
43.566002 -12.837 -14.782
43.806 -12.667 -14.779
44.046001 -12.687 -14.78
44.296001 -12.617 -14.775
44.535999 -12.527 -14.778
44.785999 -12.417 -14.769
45.026001 -12.297 -14.76
45.276001 -12.177 -14.76
45.515999 -12.137 -14.757
45.765999 -11.987 -14.755
46.015999 -11.877 -14.747
46.256001 -11.817 -14.742
46.495998 -11.737 -14.736
46.745998 -11.557 -14.732
46.995998 -11.487 -14.726
47.256001 -11.196 -14.482
47.245998 -11.307 -14.722
51.855999 -2.908 -14.382
51.636002 -2.5780001 -14.366
52.085999 -3.168 -14.392
52.316002 -3.2390001 -14.388
52.556 -3.388 -14.4
52.776001 -3.7479999 -14.418
53.006001 -3.8280001 -14.414
53.236 -4.0380001 -14.421
53.466 -4.2379999 -14.436
53.706001 -4.3080001 -14.432
53.945999 -4.408 -14.44
54.186001 -4.348 -14.435
54.436001 -4.178 -14.432
54.686001 -4.098 -14.425
54.936001 -4.0580001 -14.422
55.186001 -3.868 -14.417
55.445999 -3.638 -14.409
55.695999 -3.4790001 -14.397
55.976002 -2.938 -14.133
55.956001 -3.2980001 -14.393
-22.914 -0.639 -14.534
-23.153999 -0.74900001 -14.533
-22.664 -0.76899999 -14.535
-21.434 -1.359 -14.561
-21.674 -1.539 -14.565
-21.194 -1.1289999 -14.553
-20.954 -1.119 -14.552
-20.714001 -1.0089999 -14.553
-20.474001 -0.759 -14.534
-20.233999 -0.85900003 -14.542
-19.993999 -0.80900002 -14.538
-19.754 -0.56900001 -14.529
-19.504 -0.99900001 -14.553
-19.254 -1.309 -14.557
-19.004 -1.419 -14.566
-18.764 -1.359 -14.561
-18.524 -1.049 -14.547
-18.284 -0.80900002 -14.538
-18.034 -1.179 -14.557
-17.794001 -1.2589999 -14.563
-17.554001 -1.169 -14.556
-17.304001 -1.548 -14.325
-17.304001 -1.2589999 -14.563
-16.664 -9.8879995 -14.911
-16.914 -9.2880001 -14.884
-16.414 -10.288 -14.923
-16.164 -10.508 -14.93
-15.924 -10.578 -14.935
-15.684 -10.778 -14.941
-15.444 -10.878 -14.949
-15.194 -11.118 -14.958
-14.954 -11.228 -14.966
-14.714 -11.368 -14.968
-14.474 -11.468 -14.975
-14.224 -11.528 -14.98
-13.984 -11.598 -14.976
-13.744 -11.648 -14.98
-13.504 -11.648 -14.98
-13.264 -11.628 -14.978
-13.024 -11.608 -14.976
-12.784 -11.628 -14.978
-12.544 -11.618 -14.977
-12.304 -11.628 -14.978
-12.064 -11.568 -14.973
-11.824 -11.698 -14.983
-11.584 -11.698 -14.983
-11.344 -11.698 -14.983
-11.104 -11.608 -14.976
-10.864 -11.638 -14.979
-10.624 -11.448 -14.974
-10.384 -11.438 -14.973
-10.144 -11.358 -14.967
-9.9040003 -11.308 -14.963
-9.6739998 -11.238 -14.967
-9.434 -11.078 -14.955
-9.1940002 -10.898 -14.951
-8.9540005 -10.758 -14.94
-8.7139997 -10.578 -14.935
-8.474 -10.338 -14.927
-8.2440004 -9.9180002 -14.914
-8.0039997 -9.5279999 -14.893
-7.7639999 -9.1789999 -14.875
-7.5240002 -8.9490004 -14.867
-7.2839999 -8.8579998 -14.87
-7.0440001 -8.6890001 -14.857
-6.8039999 -8.368 -14.852
-6.5640001 -8.1389999 -14.834
-6.3239999 -8.0279999 -14.835
-6.0840001 -7.8990002 -14.825
-3.944 1.451 -14.45
-4.1939998 1.541 -14.443
-3.704 1.141 -14.465
-3.454 1.221 -14.458
-3.214 1.191 -14.461
-2.974 1.271 -14.454
-2.724 1.181 -14.461
-0.77399999 2.0020001 -14.186
-0.53399998 1.901 -14.184
-0.53399998 2.471 -14.41
-0.77399999 2.711 -14.401
-0.28400001 1.702 -14.2
-0.28400001 2.3399999 -14.41
-0.044 1.562 -14.201
-0.044 2.1300001 -14.417
0.19599999 1.442 -14.21
0.19599999 2.0109999 -14.426
0.44600001 1.3710001 -14.206
0.44600001 1.87 -14.427
0.68599999 1.222 -14.217
0.68599999 1.761 -14.436
0.926 1.681 -14.442
1.176 1.5700001 -14.441
1.416 1.511 -14.445
2.1459999 1.1210001 -14.466
1.906 1.33 -14.45
2.3959999 1.201 -14.46
2.6359999 1.001 -14.466
2.8759999 0.71100003 -14.478
3.1159999 0.58099997 -14.489
3.3659999 0.52100003 -14.483
3.6059999 0.54000002 -14.482
3.8559999 0.611 -14.486
4.0960002 0.391 -14.493
4.336 0.331 -14.498
4.5760002 0.25099999 -14.494
4.8260002 0.221 -14.497
5.066 0.15099999 -14.502
5.3060002 0.141 -14.503
5.5560002 0.141 -14.503
5.796 -0.059 -14.509
6.0359998 -0.17900001 -14.518
6.2859998 -0.039000001 -14.507
6.526 -0.018999999 -14.506
6.7659998 -0.068999998 -14.51
7.006 -0.169 -14.517
7.256 -0.17900001 -14.518
7.4959998 -0.30899999 -14.518
7.7360001 -0.289 -14.517
7.9860001 -0.199 -14.52
8.2259998 -0.20900001 -14.521
8.4659996 -0.20900001 -14.521
8.7159996 -0.139 -14.515
8.9560003 -0.12899999 -14.514
9.2060003 -0.109 -14.513
9.4460001 -0.089000002 -14.511
9.6859999 0.021 -14.503
9.9359999 0.061000001 -14.509
10.176 -0.018999999 -14.506
10.426 0.131 -14.504
10.676 0.55000001 -14.481
29.506001 9.5699997 -14.122
29.285999 10.319 -14.083
29.726 8.8299999 -14.15
29.955999 8.3400002 -14.169
30.186001 7.9400001 -14.18
30.416 7.5599999 -14.2
30.656 7.3600001 -14.206
30.896 7.1599998 -14.212
31.136 7.0100002 -14.223
31.375999 6.8400002 -14.227
31.606001 6.6300001 -14.233
31.846001 6.4299998 -14.249
32.085999 6.2600002 -14.252
32.326 6.0999999 -14.255
32.566002 5.9699998 -14.265
32.806 5.8499999 -14.264
33.046001 5.6999998 -14.276
33.285999 5.6599998 -14.279
33.535999 5.6900001 -14.277
33.776001 5.6110001 -14.283
34.035999 -11.438 -14.973
33.806 -11.208 -14.965
34.256001 -11.848 -14.985
34.486 -12.118 -14.996
34.716 -12.238 -15.006
34.956001 -12.278 -15.009
35.186001 -12.498 -15.016
35.425999 -12.628 -15.017
35.655998 -12.688 -15.021
35.886002 -12.858 -15.025
36.125999 -13.058 -15.04
36.355999 -13.098 -15.033
36.596001 -13.168 -15.039
36.835999 -13.158 -15.038
37.076 -13.218 -15.043
37.306 -13.388 -15.046
37.546001 -13.448 -15.051
37.776001 -13.478 -15.053
38.015999 -13.508 -15.056
38.256001 -13.488 -15.054
38.495998 -13.588 -15.052
38.726002 -13.668 -15.058
38.966 -13.618 -15.054
39.206001 -13.618 -15.054
39.456001 -13.548 -15.059
39.686001 -13.578 -15.061
39.925999 -13.548 -15.059
40.166 -13.558 -15.06
40.416 -13.458 -15.052
40.655998 -13.438 -15.05
40.896 -13.408 -15.048
41.136002 -13.358 -15.044
41.375999 -13.328 -15.042
41.625999 -13.268 -15.047
41.855999 -13.278 -15.048
42.096001 -13.258 -15.046
42.346001 -13.238 -15.044
42.585999 -13.228 -15.044
42.826 -13.188 -15.041
43.066002 -13.058 -15.03
43.316002 -13.008 -15.036
43.556 -12.868 -15.025
43.806 -12.778 -15.018
44.046001 -12.788 -15.019
44.285999 -12.748 -15.026
44.526001 -12.658 -15.019
44.776001 -12.498 -15.016
45.026001 -12.298 -15.001
45.276001 -12.168 -15
45.515999 -12.138 -14.998
45.765999 -12.009 -14.988
46.006001 -11.938 -14.992
46.256001 -11.838 -14.984
46.495998 -11.749 -14.977
46.745998 -11.608 -14.976
46.995998 -11.499 -14.968
47.245998 -11.308 -14.963
51.866001 -2.779 -14.613
51.625999 -2.6689999 -14.614
52.085999 -3.049 -14.624
52.316002 -3.2590001 -14.64
52.556 -3.289 -14.633
52.785999 -3.4890001 -14.648
53.015999 -3.6689999 -14.652
53.245998 -3.839 -14.656
53.476002 -4.1389999 -14.669
53.716 -4.1690001 -14.672
53.945999 -4.2989998 -14.682
54.186001 -4.329 -14.674
54.436001 -4.2189999 -14.676
54.686001 -4.1589999 -14.671
54.936001 -4.0190001 -14.67
55.186001 -3.8989999 -14.661
55.436001 -3.7290001 -14.657
55.686001 -3.619 -14.649
55.945999 -3.319 -14.635
-20.714001 -1.15 -14.795
-20.954 -1.27 -14.805
-20.483999 -0.44 -14.769
-20.243999 -0.16 -14.757
-20.004 -0.28999999 -14.758
-19.754 -0.62 -14.774
-19.514 -0.34 -14.762
-18.534 -0.54000002 -14.777
-18.774 -0.97000003 -14.791
-18.304001 -0.20999999 -14.761
-18.063999 0.079999998 -14.749
-18.073999 -0.90600002 -14.585
-17.804001 -0.43000001 -14.769
-17.983999 -0.33399999 -14.711
-17.563999 -0.38999999 -14.766
-16.664 -9.6789999 -15.146
-16.914 -9.2489996 -15.122
-16.414 -10.139 -15.162
-16.164 -10.539 -15.173
-15.924 -10.679 -15.184
-15.684 -10.809 -15.184
-15.444 -10.849 -15.187
-15.194 -11.01 -15.19
-14.954 -11.239 -15.208
-14.714 -11.349 -15.207
-14.464 -11.459 -15.215
-14.224 -11.539 -15.212
-13.984 -11.569 -15.214
-13.744 -11.579 -15.215
-13.504 -11.669 -15.222
-13.264 -11.619 -15.218
-13.024 -11.739 -15.227
-12.784 -11.759 -15.229
-12.544 -11.779 -15.231
-12.304 -11.749 -15.228
-12.064 -11.669 -15.222
-11.824 -11.629 -15.219
-11.584 -11.679 -15.223
-11.344 -11.669 -15.222
-11.104 -11.549 -15.212
-10.864 -11.53 -15.211
-10.624 -11.469 -15.216
-10.384 -11.429 -15.213
-10.144 -11.379 -15.209
-9.9040003 -11.309 -15.204
-9.6739998 -11.129 -15.199
-9.434 -11.069 -15.195
-9.1940002 -10.919 -15.193
-8.9540005 -10.729 -15.188
-8.7139997 -10.549 -15.174
-8.474 -10.409 -15.173
-8.2340002 -9.9490004 -15.157
-8.0039997 -9.4289999 -15.136
-7.7639999 -9.1090002 -15.121
-7.5240002 -8.9899998 -15.111
-7.2839999 -8.8590002 -15.111
-7.0440001 -8.5489998 -15.097
-6.8039999 -8.2889996 -15.086
-6.5640001 -8.1190004 -15.083
-6.3239999 -8.1190004 -15.083
-6.0840001 -8.1599998 -15.076
-0.53399998 2.21 -14.661
-0.77399999 2.49 -14.649
-0.28400001 2.039 -14.665
-0.044 2.0599999 -14.673
0.19599999 2.3499999 -14.66
0.44600001 2.1400001 -14.667
0.68599999 1.72 -14.68
0.926 1.3099999 -14.702
1.176 1.2589999 -14.696
1.416 1.14 -14.705
6.2859998 0.81 -14.721
6.046 0.68000001 -14.721
10.426 0.46000001 -14.729
10.186 0.64999998 -14.724
10.926 1.58 -14.44
11.176 1.701 -14.441
11.176 1.95 -14.672
10.936 2.0799999 -14.671
29.516001 9.8389997 -14.352
29.296 10.429 -14.325
29.736 8.9790001 -14.389
29.966 8.6199999 -14.408
30.195999 8.1890001 -14.421
30.426001 7.7789998 -14.434
30.656 7.4990001 -14.446
30.896 7.2290001 -14.457
31.136 7.0289998 -14.463
31.375999 6.8590002 -14.476
31.606001 6.6589999 -14.482
31.846001 6.5089998 -14.483
32.085999 6.369 -14.494
32.326 6.2189999 -14.496
32.566002 5.9889998 -14.504
32.806 5.8889999 -14.512
33.046001 5.7600002 -14.522
33.285999 5.7090001 -14.516
33.526001 5.6389999 -14.522
33.776001 5.599 -14.525
34.015999 5.5999999 -14.274
34.015999 5.599 -14.525
34.276001 -11.449 -15.215
34.035999 -11.339 -15.206
34.495998 -11.77 -15.22
34.726002 -12.049 -15.232
34.956001 -12.249 -15.247
35.186001 -12.439 -15.252
35.416 -12.629 -15.257
35.655998 -12.679 -15.261
35.896 -12.709 -15.264
36.125999 -12.939 -15.272
36.355999 -13.189 -15.281
36.596001 -13.209 -15.283
36.835999 -13.149 -15.278
37.076 -13.139 -15.277
37.306 -13.259 -15.287
37.546001 -13.379 -15.286
37.776001 -13.469 -15.293
38.015999 -13.599 -15.294
38.245998 -13.699 -15.301
38.486 -13.739 -15.305
38.726002 -13.599 -15.294
38.966 -13.609 -15.294
39.216 -13.529 -15.298
39.456001 -13.499 -15.296
39.695999 -13.529 -15.298
39.936001 -13.489 -15.295
40.175999 -13.439 -15.291
40.405998 -13.539 -15.299
40.646 -13.529 -15.298
40.886002 -13.519 -15.297
41.125999 -13.519 -15.297
41.366001 -13.499 -15.296
41.616001 -13.389 -15.287
41.855999 -13.29 -15.279
42.096001 -13.239 -15.285
42.335999 -13.239 -15.285
42.576 -13.249 -15.286
42.826 -13.169 -15.28
43.066002 -13.169 -15.28
43.306 -13.02 -15.268
43.546001 -13.01 -15.267
43.796001 -12.959 -15.273
44.035999 -12.909 -15.269
44.285999 -12.77 -15.258
44.526001 -12.699 -15.263
44.765999 -12.629 -15.257
45.015999 -12.419 -15.251
45.276001 -12.179 -15.242
45.515999 -12.139 -15.239
45.756001 -12.079 -15.234
46.006001 -11.97 -15.226
46.256001 -11.849 -15.226
46.495998 -11.79 -15.221
46.736 -11.7 -15.214
46.986 -11.629 -15.219
47.236 -11.52 -15.21
47.495998 -11.148 -14.96
47.486 -11.329 -15.205
52.096001 -2.95 -14.867
51.866001 -2.6700001 -14.855
52.316002 -3.22 -14.878
52.556 -3.28 -14.883
52.796001 -3.3900001 -14.881
53.026001 -3.55 -14.894
53.256001 -3.73 -14.898
53.486 -3.9400001 -14.905
53.716 -4.0900002 -14.906
53.945999 -4.27 -14.92
54.186001 -4.3200002 -14.924
54.425999 -4.3400002 -14.926
54.675999 -4.2199998 -14.917
54.925999 -4.0900002 -14.906
55.186001 -3.9000001 -14.901
55.436001 -3.75 -14.9
55.686001 -3.6199999 -14.889
55.945999 -3.3599999 -14.879
-19.274 -0.38999999 -14.766
-19.284 0.389 -14.975
-19.524 0.119 -14.986
-18.304001 -0.131 -14.996
-18.544001 0.079000004 -14.989
-18.063999 0.33899999 -14.979
-17.823999 0.43900001 -14.981
-16.664 -9.7209997 -15.38
-16.914 -9.3100004 -15.367
-16.414 -10.15 -15.403
-16.164 -10.551 -15.415
-15.924 -10.69 -15.426
-15.684 -10.791 -15.424
-15.444 -10.85 -15.428
-15.194 -11.001 -15.43
-14.954 -11.22 -15.447
-14.714 -11.301 -15.444
-14.464 -11.47 -15.457
-14.224 -11.46 -15.456
-13.984 -11.531 -15.452
-13.744 -11.64 -15.46
-13.504 -11.62 -15.459
-13.264 -11.69 -15.464
-13.024 -11.801 -15.463
-12.784 -11.73 -15.467
-12.544 -11.811 -15.464
-12.304 -11.64 -15.46
-12.064 -11.73 -15.467
-11.824 -11.64 -15.46
-11.584 -11.6 -15.457
-11.344 -11.58 -15.456
-11.104 -11.58 -15.456
-10.864 -11.47 -15.457
-10.624 -11.39 -15.451
-10.384 -11.311 -15.444
-10.144 -11.311 -15.444
-9.9040003 -11.34 -15.447
-9.6739998 -11.17 -15.443
-9.434 -10.96 -15.437
-9.1940002 -10.9 -15.432
-8.9540005 -10.57 -15.416
-8.7139997 -10.481 -15.409
-8.474 -10.19 -15.406
-8.2440004 -9.7010002 -15.378
-8.0039997 -9.3299999 -15.369
-7.7639999 -9.0600004 -15.358
-7.5240002 -8.9809999 -15.351
-7.2839999 -8.8500004 -15.351
-7.0440001 -8.5299997 -15.336
-6.8039999 -8.1610003 -15.317
-6.5640001 -8.151 -15.316
-6.3239999 -8.3299999 -15.33
3.3759999 1.95 -14.672
3.6159999 1.76 -14.677
3.6159999 2.4890001 -14.9
3.3759999 2.5190001 -14.898
29.966 8.658 -14.645
29.736 9.2279997 -14.62
30.195999 8.309 -14.663
30.426001 7.908 -14.674
30.666 7.698 -14.681
30.906 7.4489999 -14.7
31.136 7.178 -14.702
31.375999 7.0289998 -14.713
31.615999 6.7690001 -14.724
31.856001 6.598 -14.727
32.096001 6.4489999 -14.739
32.335999 6.3179998 -14.739
32.566002 6.0679998 -14.749
32.806 5.9889998 -14.755
33.056 5.9190001 -14.761
33.296001 5.8379998 -14.757
33.535999 5.7490001 -14.764
33.776001 5.7189999 -14.766
34.015999 5.6589999 -14.771
34.265999 5.7290001 -14.515
34.265999 5.7490001 -14.764
34.506001 -11.62 -15.459
34.285999 -11.041 -15.433
34.736 -11.88 -15.469
34.966 -12.11 -15.477
35.195999 -12.23 -15.487
35.425999 -12.39 -15.489
35.655998 -12.63 -15.498
35.896 -12.69 -15.503
36.136002 -12.791 -15.501
36.366001 -12.98 -15.516
36.596001 -13.1 -15.515
36.835999 -13.1 -15.515
37.076 -13.11 -15.516
37.316002 -13.19 -15.522
37.546001 -13.311 -15.522
37.776001 -13.42 -15.53
38.015999 -13.5 -15.537
38.256001 -13.581 -15.533
38.486 -13.66 -15.539
38.736 -13.541 -15.53
38.966 -13.581 -15.533
39.206001 -13.61 -15.535
39.445999 -13.591 -15.534
39.686001 -13.551 -15.53
39.925999 -13.571 -15.532
40.166 -13.551 -15.53
40.416 -13.46 -15.533
40.655998 -13.41 -15.529
40.886002 -13.48 -15.535
41.125999 -13.49 -15.536
41.366001 -13.47 -15.534
41.605999 -13.521 -15.528
41.846001 -13.43 -15.531
42.096001 -13.351 -15.525
42.335999 -13.21 -15.524
42.576 -13.24 -15.526
42.826 -13.15 -15.519
43.066002 -13.1 -15.515
43.306 -13.061 -15.512
43.546001 -13.051 -15.511
43.785999 -13.071 -15.513
44.035999 -12.94 -15.513
44.276001 -12.811 -15.502
44.526001 -12.731 -15.496
44.765999 -12.62 -15.497
45.015999 -12.491 -15.487
45.265999 -12.311 -15.483
45.515999 -12.201 -15.474
45.765999 -12.031 -15.471
46.006001 -11.9 -15.471
46.256001 -11.741 -15.458
46.495998 -11.731 -15.457
46.736 -11.791 -15.462
46.976002 -11.751 -15.459
47.226002 -11.64 -15.46
47.476002 -11.471 -15.447
47.745998 -10.92 -15.183
47.726002 -11.241 -15.439
52.105999 -2.721 -15.099
51.875999 -2.5109999 -15.093
52.335999 -3.0009999 -15.111
52.556 -3.2609999 -15.122
52.796001 -3.3110001 -15.126
53.035999 -3.411 -15.124
53.256001 -3.671 -15.134
53.486 -3.8510001 -15.148
53.716 -4.0310001 -15.152
53.945999 -4.211 -15.157
54.195999 -4.2210002 -15.157
54.425999 -4.2709999 -15.161
54.675999 -4.2010002 -15.156
54.925999 -4.0310001 -15.152
55.186001 -3.881 -15.141
55.436001 -3.7809999 -15.143
55.686001 -3.612 -15.129
55.945999 -3.401 -15.123
56.216 -2.9300001 -14.865
56.206001 -3.0209999 -15.113
-16.414 -10.131 -15.643
-16.664 -9.6920004 -15.618
-16.164 -10.522 -15.653
-15.924 -10.701 -15.667
-15.684 -10.851 -15.669
-15.434 -10.931 -15.675
-15.194 -11.101 -15.679
-14.954 -11.181 -15.685
-14.714 -11.282 -15.683
-14.464 -11.441 -15.695
-14.224 -11.592 -15.697
-13.984 -11.562 -15.695
-13.744 -11.661 -15.703
-13.504 -11.741 -15.709
-13.264 -11.752 -15.7
-13.024 -11.731 -15.708
-12.784 -11.621 -15.7
-12.544 -11.651 -15.702
-12.304 -11.681 -15.704
-12.064 -11.661 -15.703
-11.824 -11.542 -15.693
-11.584 -11.492 -15.689
-11.344 -11.562 -15.695
-11.104 -11.582 -15.697
-10.864 -11.481 -15.699
-10.624 -11.431 -15.695
-10.394 -11.252 -15.681
-10.154 -11.221 -15.688
-9.9040003 -11.252 -15.681
-9.6739998 -11.161 -15.683
-9.434 -10.951 -15.677
-9.1940002 -10.861 -15.67
-8.9540005 -10.591 -15.659
-8.7139997 -10.431 -15.656
-8.474 -10.101 -15.64
-8.2440004 -9.6709995 -15.626
-8.0039997 -9.2419996 -15.603
-7.7639999 -9.052 -15.598
-7.5240002 -8.9420004 -15.589
-7.2839999 -8.8610001 -15.593
-7.0440001 -8.552 -15.578
-6.8039999 -8.2119999 -15.562
-6.5640001 -8.0909996 -15.562
29.976 8.868 -14.89
29.756001 9.6269999 -14.85
30.205999 8.4680004 -14.901
30.436001 8.0380001 -14.915
30.666 7.678 -14.933
30.906 7.5279999 -14.935
31.136 7.2280002 -14.948
31.375999 7.0669999 -14.951
31.615999 6.888 -14.965
31.856001 6.6880002 -14.971
32.096001 6.5580001 -14.981
32.335999 6.4679999 -14.978
32.576 6.2280002 -14.987
32.816002 6.118 -14.996
33.056 6.0780001 -14.999
33.296001 6.0180001 -14.994
33.535999 5.888 -15.004
33.776001 5.7670002 -15.003
34.026001 5.7280002 -15.006
34.265999 5.6880002 -15.009
34.506001 5.5780001 -14.767
34.515999 5.7579999 -15.004
34.736 -11.752 -15.7
34.535999 -10.921 -15.675
34.966 -12.082 -15.716
35.195999 -12.151 -15.721
35.436001 -12.252 -15.719
35.666 -12.502 -15.729
35.896 -12.622 -15.738
36.136002 -12.732 -15.737
36.375999 -12.772 -15.74
36.605999 -12.971 -15.756
36.835999 -13.082 -15.754
37.076 -13.042 -15.751
37.306 -13.211 -15.765
37.535999 -13.431 -15.772
37.776001 -13.441 -15.773
38.015999 -13.411 -15.77
38.256001 -13.512 -15.768
38.486 -13.572 -15.773
38.726002 -13.602 -15.775
38.966 -13.532 -15.77
39.206001 -13.592 -15.774
39.445999 -13.671 -15.781
39.686001 -13.642 -15.778
39.925999 -13.612 -15.776
40.166 -13.582 -15.774
40.405998 -13.512 -15.768
40.646 -13.482 -15.766
40.896 -13.411 -15.77
41.125999 -13.502 -15.767
41.366001 -13.461 -15.774
41.605999 -13.482 -15.766
41.846001 -13.431 -15.772
42.085999 -13.451 -15.773
42.335999 -13.362 -15.766
42.576 -13.342 -15.765
42.816002 -13.272 -15.759
43.056 -13.222 -15.755
43.306 -13.132 -15.758
43.546001 -13.102 -15.756
43.785999 -13.062 -15.753
44.026001 -12.992 -15.747
44.276001 -12.882 -15.749
44.515999 -12.752 -15.738
44.765999 -12.671 -15.742
45.006001 -12.582 -15.735
45.256001 -12.462 -15.726
45.506001 -12.302 -15.723
45.756001 -12.151 -15.721
46.006001 -11.992 -15.709
46.245998 -11.881 -15.71
46.486 -11.852 -15.708
46.736 -11.812 -15.705
46.976002 -11.762 -15.701
47.216 -11.722 -15.698
47.466 -11.572 -15.696
47.716 -11.422 -15.684
47.976002 -11.07 -15.436
47.966 -11.222 -15.678
52.116001 -2.562 -15.338
51.896 -2.2720001 -15.325
52.346001 -2.7920001 -15.346
52.576 -3.0320001 -15.355
52.796001 -3.2920001 -15.365
53.035999 -3.372 -15.371
53.265999 -3.4820001 -15.37
53.495998 -3.7019999 -15.377
53.726002 -3.9419999 -15.386
53.956001 -4.072 -15.396
54.195999 -4.1719999 -15.394
54.436001 -4.2020001 -15.397
54.686001 -4.092 -15.398
54.925999 -4.0419998 -15.394
55.175999 -4.0019999 -15.391
55.436001 -3.7620001 -15.382
55.686001 -3.632 -15.382
55.936001 -3.4619999 -15.368
56.195999 -3.142 -15.353
-20.733999 10.627 -14.811
-20.483999 10.298 -14.827
-20.474001 10.087 -15.085
-20.733999 10.397 -15.07
-20.233999 10.058 -14.836
-20.224001 9.8269997 -15.095
-19.974001 9.7180004 -14.853
-19.974001 9.6569996 -15.098
-19.733999 9.5679998 -14.855
-19.724001 9.3970003 -15.109
-19.464001 8.8179998 -14.884
-19.474001 9.0469999 -15.126
-18.733999 8.8780003 -14.889
-18.474001 8.5579996 -14.894
-18.474001 8.3269997 -15.153
-18.724001 8.5570002 -15.145
-18.224001 8.2980003 -14.904
-18.224001 8.198 -15.163
-17.954 7.158 -14.954
-17.714001 7.368 -14.947
-17.724001 7.8470001 -15.171
-17.974001 7.9169998 -15.165
-17.483999 7.8579998 -14.929
-17.474001 7.6469998 -15.176
-16.414 -9.9729996 -15.871
-16.664 -9.5430002 -15.857
-16.164 -10.343 -15.89
-15.924 -10.603 -15.9
-15.684 -10.803 -15.906
-15.434 -10.892 -15.913
-15.194 -10.973 -15.909
-14.954 -11.093 -15.919
-14.714 -11.223 -15.919
-14.474 -11.353 -15.929
-14.224 -11.462 -15.938
-13.984 -11.523 -15.933
-13.744 -11.613 -15.94
-13.504 -11.573 -15.937
-13.264 -11.593 -15.938
-13.024 -11.623 -15.94
-12.784 -11.643 -15.942
-12.544 -11.682 -15.945
-12.304 -11.643 -15.942
-12.064 -11.543 -15.934
-11.824 -11.583 -15.937
-11.584 -11.603 -15.939
-11.344 -11.633 -15.941
-11.104 -11.563 -15.936
-10.864 -11.462 -15.938
-10.624 -11.473 -15.929
-10.384 -11.323 -15.927
-10.144 -11.253 -15.921
-9.9139996 -11.123 -15.921
-9.6739998 -11.003 -15.912
-9.434 -10.863 -15.911
-9.1940002 -10.793 -15.905
-8.9540005 -10.553 -15.896
-8.7139997 -10.343 -15.89
-8.474 -9.9729996 -15.871
-8.2440004 -9.533 -15.856
-8.0039997 -9.1420002 -15.846
-7.7639999 -9.0629997 -15.839
-7.5240002 -8.9630003 -15.831
-7.2839999 -8.8520002 -15.833
-7.0440001 -8.4630003 -15.812
-6.8039999 -8.132 -15.806
-6.5640001 -7.902 -15.798
29.986 9.3970003 -15.109
29.766001 10.057 -15.087
30.205999 8.6470003 -15.138
30.436001 8.2270002 -15.161
30.676001 7.8769999 -15.168
30.906 7.6370001 -15.177
31.146 7.3969998 -15.186
31.375999 7.1469998 -15.196
31.625999 7.007 -15.207
31.865999 6.8670001 -15.208
32.096001 6.6170001 -15.217
32.335999 6.5869999 -15.22
32.585999 6.4770002 -15.228
32.816002 6.277 -15.234
33.056 6.197 -15.24
33.306 6.177 -15.232
33.546001 6.1170001 -15.236
33.785999 6.007 -15.245
34.026001 5.8369999 -15.248
34.276001 5.8369999 -15.248
34.515999 5.8070002 -15.251
34.756001 5.7870002 -15.002
34.756001 5.8070002 -15.251
35.206001 -11.973 -15.948
34.976002 -11.793 -15.944
35.445999 -12.093 -15.957
35.666 -12.363 -15.969
35.896 -12.633 -15.98
36.125999 -12.773 -15.981
36.366001 -12.823 -15.985
36.605999 -12.942 -15.994
36.835999 -13.063 -15.994
37.076 -13.093 -15.996
37.306 -13.263 -15.999
37.546001 -13.293 -16.002001
37.785999 -13.333 -16.004999
38.026001 -13.343 -16.006001
38.256001 -13.413 -16.011
38.495998 -13.483 -16.007
38.726002 -13.563 -16.013
38.966 -13.553 -16.011999
39.206001 -13.553 -16.011999
39.445999 -13.593 -16.014999
39.686001 -13.613 -16.017
39.925999 -13.563 -16.013
40.166 -13.543 -16.011
40.405998 -13.533 -16.011
40.646 -13.543 -16.011
40.886002 -13.543 -16.011
41.136002 -13.403 -16.01
41.375999 -13.343 -16.006001
41.605999 -13.432 -16.013
41.846001 -13.473 -16.006001
42.085999 -13.453 -16.004
42.326 -13.393 -16.01
42.576 -13.323 -16.004
42.816002 -13.283 -16.000999
43.056 -13.273 -16
43.296001 -13.143 -16
43.546001 -13.083 -15.995
43.785999 -13.033 -15.991
44.026001 -12.973 -15.987
44.265999 -12.943 -15.984
44.515999 -12.833 -15.986
44.756001 -12.803 -15.983
45.006001 -12.693 -15.975
45.256001 -12.503 -15.97
45.506001 -12.333 -15.966
45.745998 -12.233 -15.958
45.995998 -12.063 -15.955
46.245998 -11.883 -15.951
46.486 -11.843 -15.948
46.726002 -11.833 -15.947
46.976002 -11.773 -15.942
47.216 -11.723 -15.938
47.456001 -11.663 -15.934
47.706001 -11.613 -15.94
47.956001 -11.393 -15.922
48.226002 -10.832 -15.668
48.216 -11.093 -15.919
52.346001 -2.723 -15.581
52.116001 -2.5829999 -15.58
52.585999 -2.8529999 -15.591
52.806 -3.1029999 -15.601
53.046001 -3.243 -15.602
53.276001 -3.293 -15.606
53.506001 -3.503 -15.612
53.736 -3.723 -15.62
53.966 -3.9230001 -15.635
54.195999 -4.073 -15.637
54.436001 -4.0830002 -15.638
54.686001 -4.0830002 -15.638
54.936001 -3.973 -15.629
55.175999 -3.9130001 -15.635
55.425999 -3.763 -15.623
55.675999 -3.6730001 -15.626
55.936001 -3.493 -15.612
56.186001 -3.293 -15.606
56.456001 -2.892 -15.344
56.445999 -3.033 -15.595
-20.474001 10.036 -15.329
-20.733999 10.516 -15.312
-20.224001 9.6870003 -15.347
-19.974001 9.4659996 -15.354
-19.724001 9.2860003 -15.358
-19.474001 9.0760002 -15.365
-19.224001 8.9169998 -15.126
-19.224001 9.0059996 -15.37
-18.974001 8.7869997 -15.137
-18.974001 8.7060003 -15.384
-18.724001 8.5559998 -15.386
-18.474001 8.276 -15.398
-18.224001 8.1759996 -15.405
-17.974001 7.9660001 -15.412
-17.724001 7.796 -15.415
-17.474001 7.6370001 -15.428
-16.414 -10.004 -16.114
-16.664 -9.4840002 -16.093
-16.164 -10.344 -16.131001
-15.924 -10.554 -16.136999
-15.684 -10.794 -16.146
-15.434 -10.894 -16.153999
-15.194 -11.004 -16.153
-14.954 -11.183 -16.167
-14.714 -11.314 -16.167
-14.464 -11.424 -16.176001
-14.224 -11.464 -16.169001
-13.984 -11.424 -16.176001
-13.744 -11.484 -16.17
-13.504 -11.504 -16.172001
-13.264 -11.574 -16.177
-13.024 -11.604 -16.18
-12.784 -11.674 -16.184999
-12.544 -11.644 -16.183001
-12.304 -11.644 -16.183001
-12.064 -11.693 -16.187
-11.824 -11.584 -16.177999
-11.584 -11.634 -16.181999
-11.344 -11.554 -16.176001
-11.104 -11.524 -16.173
-10.864 -11.424 -16.176001
-10.624 -11.414 -16.174999
-10.384 -11.334 -16.169001
-10.154 -11.154 -16.164
-9.9139996 -11.104 -16.16
-9.6739998 -10.914 -16.156
-9.434 -10.824 -16.148001
-9.1940002 -10.704 -16.139
-8.9540005 -10.514 -16.134001
-8.7139997 -10.214 -16.121
-8.4840002 -9.6630001 -16.107
-8.2440004 -9.3540001 -16.093
-8.0039997 -9.1140003 -16.084
-7.7639999 -8.9840002 -16.073999
-7.5240002 -8.974 -16.073
-7.2839999 -8.7539997 -16.066
-7.0440001 -8.3640003 -16.055
-6.8039999 -8.1040001 -16.045
29.996 9.5860004 -15.345
29.775999 10.326 -15.316
30.216 8.8260002 -15.374
30.445999 8.4960003 -15.39
30.676001 8.026 -15.407
30.916 7.7459998 -15.419
31.146 7.546 -15.425
31.386 7.3569999 -15.44
31.625999 7.066 -15.443
31.865999 6.9159999 -15.454
32.105999 6.7459998 -15.458
32.346001 6.6859999 -15.463
32.585999 6.546 -15.464
32.826 6.4660001 -15.47
33.066002 6.256 -15.476
33.306 6.1659999 -15.483
33.546001 6.1560001 -15.484
33.796001 6.0970001 -15.489
34.026001 5.9359999 -15.491
34.276001 5.9159999 -15.493
34.515999 5.8959999 -15.495
34.765999 5.8569999 -15.498
35.015999 5.9369998 -15.251
35.006001 5.8470001 -15.498
35.445999 -11.964 -16.188
35.216 -11.814 -16.186001
35.675999 -12.144 -16.202
35.905998 -12.334 -16.207001
36.136002 -12.574 -16.216
36.375999 -12.654 -16.222
36.605999 -12.804 -16.224001
36.846001 -12.924 -16.223
37.076 -13.054 -16.233999
37.306 -13.204 -16.235001
37.546001 -13.224 -16.237
37.785999 -13.234 -16.238001
38.026001 -13.254 -16.239
38.265999 -13.294 -16.243
38.495998 -13.354 -16.247
38.726002 -13.534 -16.250999
38.966 -13.564 -16.254
39.206001 -13.554 -16.253
39.445999 -13.624 -16.257999
39.686001 -13.594 -16.256001
39.925999 -13.554 -16.253
40.166 -13.534 -16.250999
40.405998 -13.484 -16.247
40.646 -13.534 -16.250999
40.875999 -13.634 -16.259001
41.125999 -13.564 -16.254
41.366001 -13.454 -16.245001
41.605999 -13.484 -16.247
41.846001 -13.494 -16.247999
42.085999 -13.474 -16.247
42.326 -13.434 -16.243999
42.566002 -13.444 -16.243999
42.806 -13.334 -16.246
43.056 -13.204 -16.235001
43.296001 -13.204 -16.235001
43.535999 -13.234 -16.238001
43.776001 -13.114 -16.238001
44.026001 -13.074 -16.235001
44.265999 -13.034 -16.232
44.506001 -13.034 -16.232
44.745998 -12.994 -16.229
44.995998 -12.804 -16.224001
45.245998 -12.644 -16.211
45.495998 -12.504 -16.209999
45.745998 -12.304 -16.205
45.986 -12.194 -16.195999
46.245998 -11.954 -16.187
46.486 -11.824 -16.187
46.736 -11.784 -16.184
46.966 -11.804 -16.184999
47.206001 -11.824 -16.187
47.445999 -11.784 -16.184
47.695999 -11.674 -16.174999
47.945999 -11.534 -16.174
48.195999 -11.394 -16.163
48.466 -10.823 -15.908
48.445999 -11.244 -16.160999
52.355999 -2.6040001 -15.823
52.105999 -2.6440001 -15.826
52.585999 -2.7639999 -15.825
52.816002 -2.974 -15.832
53.046001 -3.1240001 -15.843
53.285999 -3.204 -15.85
53.515999 -3.3940001 -15.855
53.745998 -3.5940001 -15.86
53.976002 -3.7839999 -15.865
54.195999 -4.0339999 -15.875
54.436001 -4.1440001 -15.884
54.686001 -4.0240002 -15.874
54.925999 -4.0240002 -15.874
55.175999 -3.8440001 -15.87
55.425999 -3.744 -15.862
55.675999 -3.694 -15.868
55.925999 -3.5239999 -15.855
56.186001 -3.2639999 -15.844
56.445999 -3.0339999 -15.836
-20.474001 10.056 -15.578
-20.733999 10.646 -15.552
-20.224001 9.7159996 -15.595
-19.974001 9.3459997 -15.604
-19.724001 9.2159996 -15.614
-19.474001 9.0459995 -15.618
-19.224001 8.9049997 -15.619
-18.974001 8.6750002 -15.627
-18.724001 8.5360003 -15.638
-18.474001 8.3760004 -15.641
-18.224001 8.2060003 -15.654
-17.974001 8.0059996 -15.66
-17.724001 7.796 -15.666
-17.474001 7.7259998 -15.672
-17.224001 7.0869999 -15.451
-17.233999 7.645 -15.668
-16.414 -9.9750004 -16.351999
-16.664 -9.4549999 -16.332001
-16.164 -10.355 -16.372
-15.924 -10.525 -16.375999
-15.674 -10.855 -16.392
-15.434 -10.955 -16.389999
-15.194 -11.015 -16.393999
-14.954 -11.255 -16.403
-14.714 -11.325 -16.409
-14.464 -11.445 -16.408001
-14.224 -11.415 -16.416
-13.984 -11.495 -16.412001
-13.744 -11.465 -16.41
-13.504 -11.565 -16.417
-13.264 -11.605 -16.421
-13.024 -11.595 -16.42
-12.784 -11.545 -16.416
-12.544 -11.515 -16.414
-12.304 -11.585 -16.419001
-12.064 -11.635 -16.423
-11.824 -11.525 -16.414
-11.584 -11.515 -16.414
-11.344 -11.545 -16.416
-11.104 -11.475 -16.41
-10.864 -11.435 -16.417
-10.624 -11.325 -16.409
-10.384 -11.285 -16.405001
-10.144 -11.185 -16.408001
-9.9139996 -11.095 -16.4
-9.6739998 -10.905 -16.396
-9.434 -10.865 -16.392
-9.1940002 -10.675 -16.386999
-8.9540005 -10.375 -16.374001
-8.7139997 -10.075 -16.360001
-8.4840002 -9.4449997 -16.330999
-8.2440004 -9.2150002 -16.323
-8.0039997 -9.0550003 -16.32
-7.7639999 -8.9449997 -16.312
-7.5240002 -8.8249998 -16.312
-7.2839999 -8.6450005 -16.308001
-7.0440001 -8.2749996 -16.289
-6.8039999 -8.0450001 -16.281
30.006001 9.8859997 -15.582
29.775999 10.426 -15.559
30.226 9.066 -15.616
30.455999 8.6359997 -15.63
30.686001 8.276 -15.648
30.916 7.9250002 -15.656
31.156 7.5960002 -15.672
31.386 7.4349999 -15.674
31.625999 7.1849999 -15.684
31.865999 7.0760002 -15.693
32.105999 6.895 -15.697
32.346001 6.7459998 -15.709
32.585999 6.625 -15.708
32.826 6.5359998 -15.715
33.066002 6.355 -15.719
33.306 6.276 -15.726
33.546001 6.2259998 -15.729
33.796001 6.165 -15.724
34.035999 6.0760002 -15.731
34.276001 6.046 -15.734
34.526001 6.0359998 -15.734
34.765999 5.9860001 -15.738
35.015999 5.9959998 -15.738
35.256001 5.9660001 -15.489
35.256001 6.026 -15.735
35.686001 -11.995 -16.431
35.456001 -11.745 -16.422001
35.916 -12.165 -16.434999
36.155998 -12.275 -16.443001
36.386002 -12.325 -16.447001
36.616001 -12.535 -16.454
36.855999 -12.705 -16.457001
37.085999 -12.885 -16.471001
37.316002 -12.965 -16.466999
37.546001 -13.156 -16.472
37.785999 -13.166 -16.473
38.026001 -13.305 -16.483999
38.256001 -13.325 -16.486
38.495998 -13.365 -16.489
38.736 -13.465 -16.487
38.966 -13.545 -16.493
39.206001 -13.495 -16.489
39.445999 -13.505 -16.49
39.675999 -13.705 -16.496
39.925999 -13.515 -16.490999
40.166 -13.485 -16.488001
40.405998 -13.465 -16.487
40.646 -13.525 -16.490999
40.886002 -13.525 -16.490999
41.116001 -13.635 -16.5
41.355999 -13.605 -16.497999
41.605999 -13.495 -16.489
41.846001 -13.505 -16.49
42.085999 -13.485 -16.488001
42.326 -13.475 -16.488001
42.566002 -13.465 -16.487
42.806 -13.406 -16.482
43.046001 -13.365 -16.489
43.296001 -13.245 -16.479
43.526001 -13.285 -16.483
43.776001 -13.255 -16.48
44.015999 -13.175 -16.474001
44.256001 -13.085 -16.476999
44.495998 -13.075 -16.476
44.745998 -12.955 -16.466999
44.986 -12.876 -16.459999
45.236 -12.805 -16.465
45.486 -12.646 -16.452
45.736 -12.485 -16.450001
45.986 -12.215 -16.438999
46.236 -12.055 -16.436001
46.486 -11.925 -16.426001
46.726002 -11.825 -16.427999
46.966 -11.825 -16.427999
47.206001 -11.815 -16.427
47.445999 -11.825 -16.427999
47.686001 -11.815 -16.427
47.936001 -11.735 -16.421
48.175999 -11.675 -16.416
48.425999 -11.525 -16.414
48.706001 -10.794 -16.146
48.686001 -11.245 -16.402
52.585999 -2.6949999 -16.07
52.366001 -2.425 -16.059
52.826 -2.865 -16.073999
53.046001 -3.075 -16.08
53.285999 -3.1849999 -16.089001
53.515999 -3.2950001 -16.087999
53.745998 -3.5450001 -16.097
53.976002 -3.7249999 -16.111
54.206001 -3.875 -16.113001
54.436001 -4.0450001 -16.117001
54.675999 -4.0650001 -16.118
54.925999 -3.9949999 -16.122999
55.175999 -3.905 -16.115999
55.425999 -3.8050001 -16.108
55.675999 -3.6849999 -16.108
55.925999 -3.5550001 -16.098
56.186001 -3.2850001 -16.087
56.436001 -3.2049999 -16.09
-20.474001 9.9549999 -15.827
-20.733999 10.385 -15.813
-20.224001 9.7049999 -15.837
-19.964001 9.2950001 -15.849
-19.724001 9.2049999 -15.856
-19.474001 9.0050001 -15.862
-19.224001 8.8149996 -15.867
-18.964001 8.585 -15.885
-18.724001 8.5150003 -15.88
-18.474001 8.3450003 -15.894
-18.224001 8.1149998 -15.902
-17.974001 8.0550003 -15.896
-17.724001 7.875 -15.911
-17.474001 7.8049998 -15.906
-17.233999 7.7649999 -15.909
-16.414 -9.8760004 -16.594999
-16.664 -9.5860004 -16.583
-16.174 -10.246 -16.605
-15.924 -10.526 -16.617001
-15.684 -10.746 -16.624001
-15.434 -10.876 -16.634001
-15.194 -11.056 -16.638
-14.954 -11.216 -16.641001
-14.714 -11.236 -16.642
-14.474 -11.326 -16.649
-14.224 -11.446 -16.649
-13.984 -11.526 -16.655001
-13.744 -11.526 -16.655001
-13.504 -11.616 -16.662001
-13.264 -11.586 -16.66
-13.024 -11.616 -16.662001
-12.784 -11.626 -16.663
-12.544 -11.576 -16.659
-12.304 -11.546 -16.657
-12.064 -11.506 -16.653999
-11.824 -11.446 -16.649
-11.584 -11.427 -16.646999
-11.344 -11.396 -16.655001
-11.104 -11.396 -16.655001
-10.864 -11.266 -16.645
-10.624 -11.266 -16.645
-10.384 -11.306 -16.648001
-10.144 -11.216 -16.641001
-9.9139996 -11.026 -16.636
-9.6739998 -10.946 -16.629999
-9.434 -10.866 -16.632999
-9.1940002 -10.646 -16.625999
-8.9540005 -10.306 -16.608999
-8.724 -9.776 -16.587999
-8.4840002 -9.3459997 -16.573999
-8.2440004 -9.2460003 -16.566
-8.0039997 -9.1759996 -16.559999
-7.7639999 -8.9960003 -16.556
-7.5240002 -8.7460003 -16.547001
-7.2839999 -8.4560003 -16.534
-7.0440001 -8.1359997 -16.528999
-6.8039999 -7.9559999 -16.514999
30.236 9.4650002 -15.846
30.016001 10.235 -15.815
30.455999 8.8549995 -15.874
30.686001 8.3850002 -15.891
30.926001 8.125 -15.901
31.156 7.7649999 -15.909
31.396 7.4949999 -15.92
31.625999 7.2950001 -15.926
31.875999 7.1950002 -15.934
32.105999 7.0250001 -15.937
32.346001 6.7950001 -15.945
32.585999 6.6950002 -15.953
32.826 6.5840001 -15.952
33.066002 6.4749999 -15.961
33.316002 6.415 -15.965
33.556 6.3150001 -15.963
33.796001 6.2449999 -15.969
34.035999 6.165 -15.975
34.285999 6.165 -15.975
34.526001 6.1350002 -15.977
34.765999 6.0840001 -15.971
35.015999 6.1149998 -15.979
35.256001 6.1139998 -15.969
35.506001 6.165 -15.724
35.506001 6.145 -15.977
35.916 -12.086 -16.679001
35.706001 -11.586 -16.66
36.155998 -12.226 -16.68
36.396 -12.236 -16.681
36.625999 -12.456 -16.688
36.855999 -12.617 -16.691
37.085999 -12.687 -16.695999
37.326 -12.856 -16.709999
37.556 -13.076 -16.716999
37.785999 -13.117 -16.709999
38.026001 -13.276 -16.723
38.256001 -13.346 -16.728001
38.495998 -13.387 -16.721001
38.736 -13.437 -16.725
38.976002 -13.427 -16.724001
39.206001 -13.526 -16.732
39.445999 -13.506 -16.731001
39.686001 -13.556 -16.735001
39.925999 -13.536 -16.733
40.166 -13.476 -16.728001
40.405998 -13.526 -16.732
40.646 -13.427 -16.724001
40.886002 -13.417 -16.724001
41.125999 -13.506 -16.731001
41.366001 -13.516 -16.731001
41.596001 -13.566 -16.735001
41.846001 -13.506 -16.731001
42.076 -13.506 -16.731001
42.316002 -13.576 -16.736
42.556 -13.486 -16.729
42.806 -13.407 -16.723
43.046001 -13.457 -16.726999
43.285999 -13.397 -16.722
43.526001 -13.296 -16.724001
43.765999 -13.296 -16.724001
44.006001 -13.286 -16.723
44.256001 -13.157 -16.712999
44.495998 -13.137 -16.712
44.736 -13.066 -16.716
44.986 -12.996 -16.711
45.226002 -12.927 -16.705
45.476002 -12.786 -16.704
45.726002 -12.617 -16.691
45.976002 -12.417 -16.684999
46.226002 -12.236 -16.681
46.476002 -12.097 -16.67
46.716 -11.937 -16.667
46.966 -11.837 -16.66
47.206001 -11.917 -16.666
47.445999 -11.887 -16.663
47.686001 -11.847 -16.66
47.925999 -11.806 -16.667
48.166 -11.756 -16.663
48.416 -11.637 -16.653999
48.666 -11.546 -16.657
48.936001 -10.945 -16.389
48.916 -11.397 -16.645
52.596001 -2.546 -16.309
52.355999 -2.4660001 -16.302999
52.826 -2.806 -16.309999
53.056 -2.9860001 -16.323999
53.285999 -3.1459999 -16.327
53.526001 -3.2260001 -16.333
53.756001 -3.3859999 -16.334999
53.976002 -3.6860001 -16.349001
54.216 -3.806 -16.348
54.436001 -4.0359998 -16.367001
54.686001 -3.9760001 -16.362
54.925999 -4.0159998 -16.365
55.175999 -3.9059999 -16.356001
55.425999 -3.756 -16.355
55.675999 -3.6459999 -16.346001
55.925999 -3.516 -16.346001
56.175999 -3.3959999 -16.336
56.436001 -3.1059999 -16.323
56.716 -2.6949999 -16.07
56.695999 -2.9560001 -16.322001
-20.474001 9.9650002 -16.077
-20.733999 10.525 -16.052999
-20.224001 9.6540003 -16.082001
-19.964001 9.3540001 -16.094999
-19.714001 9.1339998 -16.101999
-19.474001 9.0340004 -16.110001
-19.224001 8.8839998 -16.112
-18.964001 8.6040001 -16.124001
-18.724001 8.5039997 -16.132
-18.474001 8.3540001 -16.134001
-18.224001 8.1949997 -16.146
-17.974001 8.1140003 -16.143
-17.724001 7.934 -16.146999
-17.474001 7.8239999 -16.155001
-17.233999 7.7740002 -16.159
-16.164 -10.267 -16.847
-16.414 -9.8570004 -16.834999
-15.924 -10.418 -16.849001
-15.684 -10.627 -16.865
-15.434 -10.847 -16.872999
-15.194 -10.967 -16.872
-14.954 -11.097 -16.882
-14.714 -11.247 -16.884001
-14.464 -11.397 -16.896
-14.224 -11.428 -16.888
-13.984 -11.507 -16.893999
-13.744 -11.497 -16.893999
-13.504 -11.547 -16.898001
-13.264 -11.637 -16.905001
-13.024 -11.698 -16.899
-12.784 -11.678 -16.898001
-12.544 -11.517 -16.895
-12.304 -11.527 -16.896
-12.064 -11.547 -16.898001
-11.824 -11.497 -16.893999
-11.584 -11.477 -16.892
-11.344 -11.448 -16.889999
-11.104 -11.347 -16.892
-10.864 -11.247 -16.884001
-10.624 -11.227 -16.882
-10.384 -11.237 -16.882999
-10.154 -11.087 -16.881001
-9.9139996 -10.997 -16.874001
-9.6739998 -10.867 -16.874001
-9.434 -10.747 -16.865
-9.1940002 -10.547 -16.858999
-8.9540005 -10.067 -16.841
-8.724 -9.5769997 -16.823
-8.4840002 -9.2869997 -16.809999
-8.2440004 -9.2869997 -16.809999
-8.0039997 -9.2069998 -16.804001
-7.7639999 -8.9870005 -16.796
-7.5240002 -8.6569996 -16.790001
-7.2839999 -8.5170002 -16.778999
-7.0440001 -8.1569996 -16.771
-6.8140001 -7.737 -16.747999
30.246 9.6140003 -16.084999
30.025999 10.465 -16.058001
30.466 9.1239996 -16.103001
30.695999 8.5340004 -16.129999
30.926001 8.2939997 -16.138
31.166 8.0240002 -16.15
31.396 7.664 -16.158001
31.636 7.434 -16.166
31.875999 7.2140002 -16.173
32.116001 7.1339998 -16.18
32.355999 6.934 -16.184999
32.596001 6.8039999 -16.195999
32.835999 6.7540002 -16.198999
33.076 6.6040001 -16.201
33.316002 6.494 -16.209999
33.556 6.4640002 -16.202
33.806 6.4439998 -16.204
34.046001 6.3639998 -16.209999
34.285999 6.2940001 -16.216
34.535999 6.2839999 -16.216
34.776001 6.2540002 -16.219
35.015999 6.1939998 -16.212999
35.265999 6.184 -16.214001
35.506001 6.1739998 -16.215
35.756001 6.1350002 -15.977
35.756001 6.2140002 -16.212
36.396 -12.077 -16.919001
36.166 -11.908 -16.906
36.636002 -12.188 -16.917999
36.866001 -12.348 -16.92
37.096001 -12.537 -16.934999
37.326 -12.678 -16.936001
37.556 -12.868 -16.941
37.796001 -12.978 -16.950001
38.026001 -13.158 -16.954
38.256001 -13.287 -16.964001
38.495998 -13.267 -16.962999
38.736 -13.307 -16.966
38.966 -13.438 -16.966
39.206001 -13.438 -16.966
39.445999 -13.488 -16.969999
39.686001 -13.478 -16.969
39.925999 -13.498 -16.971001
40.166 -13.567 -16.976
40.405998 -13.388 -16.962
40.646 -13.398 -16.962999
40.896 -13.338 -16.958
41.125999 -13.368 -16.961
41.366001 -13.428 -16.965
41.605999 -13.438 -16.966
41.846001 -13.478 -16.969
42.076 -13.598 -16.969
42.316002 -13.537 -16.974001
42.556 -13.488 -16.969999
42.796001 -13.517 -16.972
43.046001 -13.358 -16.959999
43.285999 -13.368 -16.961
43.526001 -13.348 -16.959
43.765999 -13.308 -16.955999
44.006001 -13.287 -16.964001
44.245998 -13.297 -16.965
44.486 -13.208 -16.958
44.736 -13.128 -16.952
44.976002 -13.098 -16.948999
45.216 -13.037 -16.955
45.466 -12.898 -16.944
45.716 -12.777 -16.944
45.956001 -12.638 -16.933001
46.216 -12.398 -16.924
46.466 -12.208 -16.919001
46.716 -12.058 -16.908001
46.966 -11.878 -16.903
47.206001 -11.838 -16.9
47.436001 -11.898 -16.905001
47.675999 -11.938 -16.908001
47.916 -11.968 -16.910999
48.155998 -11.908 -16.906
48.405998 -11.767 -16.905001
48.655998 -11.658 -16.896
48.896 -11.578 -16.889999
49.166 -11.107 -16.632
49.146 -11.388 -16.885
52.835999 -2.6470001 -16.548
52.616001 -2.2969999 -16.541
53.056 -2.8770001 -16.556
53.285999 -3.0769999 -16.572001
53.526001 -3.1070001 -16.563999
53.765999 -3.207 -16.572001
53.986 -3.497 -16.584999
54.216 -3.687 -16.59
54.456001 -3.8169999 -16.6
54.686001 -3.987 -16.603001
54.925999 -3.9170001 -16.598
55.175999 -3.8570001 -16.593
55.425999 -3.727 -16.593
55.675999 -3.5669999 -16.59
55.925999 -3.477 -16.583
56.175999 -3.447 -16.580999
56.436001 -3.197 -16.570999
56.695999 -2.9070001 -16.559
-20.224001 9.684 -16.33
-20.474001 10.003 -16.315001
-19.964001 9.3839998 -16.344
-19.714001 9.2139997 -16.347
-19.464001 8.9639997 -16.357
-19.214001 8.7930002 -16.360001
-18.974001 8.7139997 -16.365999
-18.724001 8.5129995 -16.372
-18.474001 8.4540005 -16.377001
-18.224001 8.243 -16.382999
-17.974001 8.0839996 -16.396
-17.724001 8.0839996 -16.396
-17.483999 7.9239998 -16.398001
-17.233999 7.8340001 -16.405001
-16.174 -10.179 -17.080999
-16.414 -9.8380003 -17.073999
-15.924 -10.318 -17.091999
-15.684 -10.608 -17.104
-15.434 -10.808 -17.110001
-15.194 -10.989 -17.114
-14.954 -11.088 -17.122
-14.714 -11.219 -17.122
-14.464 -11.389 -17.125999
-14.224 -11.538 -17.138
-13.984 -11.459 -17.131001
-13.744 -11.518 -17.136
-13.504 -11.558 -17.139
-13.264 -11.649 -17.136
-13.024 -11.639 -17.135
-12.784 -11.568 -17.139999
-12.544 -11.558 -17.139
-12.304 -11.538 -17.138
-12.064 -11.528 -17.136999
-11.824 -11.449 -17.131001
-11.584 -11.449 -17.131001
-11.344 -11.419 -17.128
-11.104 -11.389 -17.125999
-10.864 -11.278 -17.127001
-10.624 -11.288 -17.128
-10.384 -11.169 -17.118999
-10.154 -11.078 -17.121
-9.9139996 -10.929 -17.110001
-9.6739998 -10.868 -17.115
-9.434 -10.679 -17.1
-9.1940002 -10.298 -17.09
-8.9639997 -9.8079996 -17.072001
-8.724 -9.4390001 -17.052999
-8.4840002 -9.2880001 -17.051001
-8.2440004 -9.2980003 -17.052
-8.0039997 -9.1890001 -17.042999
-7.7639999 -9.0179996 -17.040001
-7.5240002 -8.7180004 -17.025999
-7.2839999 -8.4390001 -17.014
-7.0440001 -8.1680002 -17.013
30.476 9.323 -16.337999
30.256001 9.9040003 -16.323
30.705999 8.8439999 -16.365999
30.936001 8.4639997 -16.375999
31.166 8.1739998 -16.389
31.406 7.914 -16.399
31.646 7.7030001 -16.406
31.875999 7.3740001 -16.422001
32.116001 7.1939998 -16.426001
32.355999 7.1240001 -16.431
32.596001 6.9629998 -16.434
32.835999 6.8730001 -16.431
33.076 6.7030001 -16.444
33.316002 6.5929999 -16.443001
33.566002 6.5430002 -16.447001
33.806 6.5630002 -16.445
34.046001 6.473 -16.452
34.296001 6.414 -16.457001
34.535999 6.3530002 -16.452
34.776001 6.323 -16.454
35.026001 6.283 -16.457001
35.265999 6.2329998 -16.461
35.506001 6.263 -16.459
35.756001 6.303 -16.455999
36.006001 6.2639999 -16.218
36.006001 6.323 -16.454
36.256001 6.3540001 -16.211
36.256001 6.4330001 -16.455
36.646 -11.839 -17.141001
36.425999 -11.499 -17.134001
36.875999 -12.058 -17.158001
37.105999 -12.369 -17.163
37.335999 -12.479 -17.171
37.566002 -12.659 -17.176001
37.796001 -12.839 -17.18
38.035999 -12.939 -17.188
38.265999 -13.139 -17.193001
38.495998 -13.279 -17.204
38.736 -13.288 -17.205
38.976002 -13.239 -17.201
39.216 -13.339 -17.198999
39.445999 -13.439 -17.207001
39.686001 -13.439 -17.207001
39.925999 -13.469 -17.209
40.166 -13.389 -17.202999
40.405998 -13.469 -17.209
40.646 -13.429 -17.205999
40.886002 -13.449 -17.208
41.125999 -13.419 -17.205
41.366001 -13.379 -17.202
41.605999 -13.449 -17.208
41.846001 -13.379 -17.202
42.076 -13.489 -17.211
42.316002 -13.529 -17.204
42.556 -13.489 -17.211
42.796001 -13.469 -17.209
43.046001 -13.379 -17.202
43.276001 -13.479 -17.209999
43.526001 -13.379 -17.202
43.765999 -13.329 -17.198
44.006001 -13.269 -17.204
44.245998 -13.249 -17.202
44.486 -13.209 -17.198999
44.726002 -13.219 -17.200001
44.976002 -13.149 -17.194
45.216 -13.109 -17.191
45.466 -12.949 -17.188
45.706001 -12.819 -17.177999
45.956001 -12.679 -17.177
46.206001 -12.569 -17.169001
46.445999 -12.419 -17.167
46.706001 -12.149 -17.156
46.956001 -11.969 -17.150999
47.195999 -11.939 -17.149
47.436001 -11.889 -17.145
47.675999 -11.929 -17.148001
47.916 -11.949 -17.15
48.146 -12.039 -17.146999
48.396 -11.969 -17.150999
48.636002 -11.929 -17.148001
48.886002 -11.829 -17.139999
49.136002 -11.679 -17.139
49.405998 -11.098 -16.872
49.375999 -11.589 -17.132
52.846001 -2.418 -16.781
52.616001 -2.2479999 -16.778
53.066002 -2.698 -16.792999
53.296001 -2.928 -16.801001
53.526001 -3.118 -16.816
53.765999 -3.2079999 -16.813
53.995998 -3.408 -16.819
54.216 -3.658 -16.827999
54.456001 -3.7079999 -16.832001
54.686001 -3.858 -16.844
54.916 -4.0380001 -16.848
55.175999 -3.908 -16.837999
55.416 -3.878 -16.836
55.675999 -3.658 -16.827999
55.925999 -3.5280001 -16.827999
56.175999 -3.388 -16.816999
56.436001 -3.168 -16.809999
56.695999 -2.888 -16.798
-20.224001 9.7030001 -16.579
-20.474001 10.053 -16.562
-19.974001 9.4230003 -16.591
-19.714001 9.243 -16.594999
-19.464001 8.9530001 -16.608
-19.214001 8.8030005 -16.610001
-18.974001 8.743 -16.615
-18.724001 8.5629997 -16.618999
-18.474001 8.4530001 -16.627001
-18.224001 8.243 -16.634001
-17.974001 8.1230001 -16.632999
-17.733999 8.1529999 -16.631001
-17.483999 7.993 -16.643999
-17.233999 7.8829999 -16.642
-16.174 -10 -17.316999
-16.414 -9.6999998 -17.304001
-15.924 -10.349 -17.334999
-15.684 -10.51 -17.337
-15.434 -10.73 -17.344999
-15.194 -10.88 -17.347
-14.954 -10.98 -17.354
-14.714 -11.16 -17.358999
-14.474 -11.24 -17.365
-14.224 -11.359 -17.374001
-13.984 -11.46 -17.372
-13.744 -11.47 -17.372999
-13.504 -11.48 -17.374001
-13.264 -11.51 -17.375999
-13.024 -11.48 -17.374001
-12.784 -11.48 -17.374001
-12.544 -11.45 -17.371
-12.304 -11.4 -17.367001
-12.064 -11.39 -17.367001
-11.824 -11.329 -17.372
-11.584 -11.299 -17.370001
-11.344 -11.41 -17.368
-11.104 -11.349 -17.372999
-10.864 -11.28 -17.368
-10.624 -11.14 -17.357
-10.384 -11.16 -17.358999
-10.154 -11.02 -17.358
-9.9139996 -10.97 -17.354
-9.6739998 -10.849 -17.354
-9.434 -10.569 -17.341999
-9.1940002 -10.109 -17.326
-8.9639997 -9.6899996 -17.302999
-8.724 -9.4899998 -17.297001
-8.4840002 -9.3290005 -17.295
-8.2440004 -9.1800003 -17.283001
-8.0039997 -9.059 -17.284
-7.7639999 -8.7489996 -17.268999
-7.5240002 -8.5489998 -17.263
-7.2839999 -8.2290001 -17.247999
-7.0539999 -7.9089999 -17.243
30.486 9.5129995 -16.584
30.266001 10.283 -16.554001
30.705999 8.9829998 -16.606001
30.945999 8.6230001 -16.614
31.176001 8.3330002 -16.627001
31.416 8.1029997 -16.635
31.646 7.8829999 -16.642
31.886 7.5929999 -16.655001
32.116001 7.303 -16.667999
32.355999 7.2119999 -16.665001
32.605999 7.1129999 -16.673
32.846001 6.9619999 -16.674999
