ply
format ascii 1.0
comment PCL generated
element vertex 1625
property float x
property float y
property float z
element face 0
element camera 0
property float view_px
property float view_py
property float view_pz
property float x_axisx
property float x_axisy
property float x_axisz
property float y_axisx
property float y_axisy
property float y_axisz
property float z_axisx
property float z_axisy
property float z_axisz
property float focal
property float scalex
property float scaley
property float centerx
property float centery
property int viewportx
property int viewporty
property float k1
property float k2
end_header
-38.014 -5.5349998 -4.5780001
-38.104 -5.7779999 -4.5469999
-37.844002 -6.0019999 -4.5139999
-37.304001 -6.2160001 -4.4710002
-36.973999 -6.4499998 -4.4289999
-36.933998 -6.6729999 -4.3969998
-37.014 -6.915 -4.3759999
-37.264 -7.1490002 -4.3439999
-37.773998 -7.3909998 -4.323
-37.824001 -7.6230001 -4.3010001
-37.683998 -7.8569999 -4.2589998
-37.784 -8.0900002 -4.237
-38.234001 -8.3319998 -4.2160001
-38.414001 -8.566 -4.184
-38.374001 -8.7989998 -4.1529999
-38.304001 -9.0319996 -4.1209998
-37.993999 -9.2550001 -4.0879998
-37.313999 -9.6809998 -3.7709999
-37.324001 -9.9359999 -3.971
-37.383999 -9.7130003 -4.0040002
-37.304001 -10.17 -3.9389999
-37.254002 -10.403 -3.908
-36.414001 -10.617 -3.8640001
-36.223999 -10.851 -3.823
-36.063999 -11.084 -3.7909999
-35.613998 -11.308 -3.7479999
-35.453999 -11.541 -3.7160001
-35.574001 -11.775 -3.6849999
-35.723999 -12.007 -3.6630001
-35.723999 -12.24 -3.631
-35.664001 -12.473 -3.599
-35.374001 -12.698 -3.5569999
-35.063999 -12.932 -3.5150001
-33.924 -13.146 -3.4619999
-35.164001 -12.995 -3.339
-33.844002 -13.38 -3.4300001
-34.743999 -13.195 -3.355
-33.824001 -13.613 -3.398
-34.014 -13.814 -3.1329999
-33.334 -13.837 -3.355
-33.484001 -14.038 -3.0899999
-32.813999 -14.062 -3.303
-25.974001 -14.186 -2.8710001
-25.714001 -14.441 -3.072
-25.823999 -14.208 -3.1040001
-25.554001 -14.675 -3.03
-25.073999 -14.909 -2.9879999
-24.934 -15.142 -2.957
-28.864 12.509 -6.98
-28.823999 12.752 -7.0110002
-28.924 12.276 -6.9580002
-29.684 12.004 -6.9390001
-30.374001 11.742 -6.9200001
-30.474001 11.498 -6.8889999
-30.483999 11.265 -6.8569999
-30.534 11.032 -6.8249998
-31.063999 10.77 -6.8049998
-31.104 10.537 -6.7740002
-31.094 10.303 -6.7420001
-30.893999 10.07 -6.71
-30.854 9.8369999 -6.678
-30.924 9.6040001 -6.6459999
-31.233999 9.3610001 -6.625
-31.214001 9.118 -6.5939999
-34.703999 8.2740002 -6.5710001
-34.383999 8.526 -6.5910001
-34.584 8.0500002 -6.5380001
-34.984001 7.7979999 -6.5180001
-35.153999 7.5549998 -6.487
-35.234001 7.322 -6.4549999
-35.133999 7.098 -6.4219999
-35.164001 6.855 -6.3909998
-34.973999 6.632 -6.3590002
-35.153999 6.3889999 -6.3280001
-35.383999 6.1459999 -6.3070002
-35.144001 5.9229999 -6.2740002
-35.473999 5.6799998 -6.243
-35.674 5.4380002 -6.2220001
-35.764 5.204 -6.1900001
-36.674 4.4980001 -5.8850002
-36.743999 4.7309999 -5.9159999
-36.604 4.4759998 -6.1170001
-36.653999 4.71 -6.1490002
-36.903999 4.2329998 -6.086
-37.104 3.9909999 -6.0650001
-37.504002 3.7479999 -6.0440001
-37.444 3.5150001 -6.0120001
-37.453999 3.2820001 -5.98
-37.534 3.049 -5.9489999
-37.203999 2.825 -5.9060001
-36.834 2.6010001 -5.8730001
-36.604 2.3770001 -5.8309999
-36.624001 2.1440001 -5.7989998
-36.543999 1.911 -5.7670002
-36.543999 1.678 -5.7350001
-36.554001 1.4450001 -5.7140002
-36.493999 1.222 -5.6810002
-36.444 0.98900002 -5.6490002
-36.674 0.74599999 -5.618
-36.834 0.51200002 -5.586
-36.464001 0.289 -5.5539999
-36.414001 0.056000002 -5.5219998
-37.223999 -0.206 -5.5029998
-37.324001 -0.43900001 -5.4809999
-37.383999 -0.67199999 -5.4489999
-37.764 -0.91399997 -5.428
-38.014 -1.158 -5.3969998
-38.023998 -1.391 -5.3649998
-38.023998 -1.623 -5.3429999
-38.133999 -1.8559999 -5.3109999
-38.203999 -2.0899999 -5.2800002
-38.034 -2.323 -5.2480001
-37.973999 -2.546 -5.2150002
-37.973999 -2.779 -5.1830001
-37.933998 -3.013 -5.152
-37.793999 -3.2460001 -5.1199999
-37.993999 -3.4790001 -5.0879998
-38.883999 -3.369 -4.9590001
-38.023998 -3.7119999 -5.0560002
-38.124001 -3.9449999 -5.0339999
-38.054001 -4.178 -5.0029998
-38.094002 -4.4109998 -4.9710002
-38.243999 -4.6440001 -4.9390001
-38.183998 -4.8769999 -4.9070001
-37.903999 -5.1009998 -4.875
-37.863998 -5.3340001 -4.8429999
-38.034 -5.5669999 -4.8109999
-38.063999 -5.8000002 -4.7789998
-37.273998 -6.0139999 -4.7360001
-37.023998 -6.2480001 -4.6939998
-36.604 -6.4720001 -4.652
-36.824001 -6.7049999 -4.6300001
-36.953999 -6.9380002 -4.598
-37.094002 -7.1799998 -4.5770001
-37.344002 -7.414 -4.5450001
-37.144001 -7.6469998 -4.513
-36.813999 -7.8709998 -4.4710002
-37.424 -8.1129999 -4.46
-37.793999 -8.3549995 -4.4390001
-37.874001 -8.5880003 -4.4070001
-37.674 -8.8109999 -4.3740001
-37.743999 -9.0550003 -4.3429999
-38.074001 -9.2869997 -4.3210001
-38.004002 -9.4879999 -4.0560002
-37.414001 -9.5120001 -4.2690001
-37.153999 -9.7349997 -4.2360001
-37.203999 -9.9680004 -4.2049999
-37.243999 -10.201 -4.1729999
-36.183998 -10.883 -4.0560002
-36.234001 -10.65 -4.0879998
-35.574001 -11.107 -4.013
-35.334 -11.331 -3.971
-35.433998 -11.563 -3.9489999
-35.484001 -11.806 -3.918
-35.523998 -12.04 -3.8859999
-35.424 -12.263 -3.8529999
-34.444 -12.488 -3.8010001
-33.863998 -12.713 -3.7479999
-34.084 -12.694 -3.727
-33.534 -12.936 -3.7160001
-34.743999 -12.876 -3.5810001
-34.144001 -12.767 -3.6930001
-33.584 -13.169 -3.684
-34.324001 -13.045 -3.6040001
-33.723999 -13.412 -3.6530001
-33.613998 -13.645 -3.6210001
-33.234001 -13.869 -3.579
-25.754 -14.473 -3.3050001
-25.844 -14.239 -3.3369999
-25.514 -14.706 -3.273
-24.964001 -14.941 -3.2219999
-24.804001 -15.174 -3.1900001
-28.964001 12.478 -7.223
-28.844 12.721 -7.2540002
-29.014 12.245 -7.191
-29.514 11.982 -7.171
-30.254 11.71 -7.1529999
-30.563999 11.467 -7.132
-30.483999 11.233 -7.0900002
-30.514 11.001 -7.0679998
-30.964001 10.748 -7.0380001
-30.934 10.515 -7.006
-30.844 10.281 -6.974
-30.694 10.048 -6.9419999
-30.714001 9.8149996 -6.9109998
-30.903999 9.5719995 -6.8800001
-31.143999 9.3290005 -6.8590002
-31.084 9.0959997 -6.8270001
-34.414001 8.2620001 -6.802
-33.804001 8.5139999 -6.822
-34.444 8.0290003 -6.77
-34.584 7.7849998 -6.7389998
-34.813999 7.5430002 -6.7179999
-34.894001 7.3099999 -6.6869998
-34.993999 7.0669999 -6.6560001
-34.933998 6.8330002 -6.6240001
-34.874001 6.6100001 -6.5910001
-34.773998 6.3769999 -6.559
-35.094002 6.1339998 -6.5279999
-34.993999 5.9000001 -6.4970002
-35.104 5.6680002 -6.4749999
-35.484001 5.415 -6.4439998
-35.594002 5.1820002 -6.4229999
-36.023998 4.961 -6.1589999
-35.784 4.9390001 -6.3920002
-36.604 4.4450002 -6.3499999
-36.653999 4.678 -6.382
-36.764 4.2010002 -6.3189998
-36.754002 3.9679999 -6.2870002
-37.414001 3.7160001 -6.2670002
-37.374001 3.483 -6.2350001
-37.374001 3.2490001 -6.204
-37.344002 3.016 -6.1719999
-36.993999 2.803 -6.138
-36.694 2.579 -6.0960002
-36.584 2.346 -6.0640001
-36.554001 2.112 -6.0320001
-36.523998 1.8789999 -6.0009999
-36.584 1.647 -5.9790001
-36.584 1.414 -5.947
-36.453999 1.189 -5.9039998
-36.324001 0.95599997 -5.8730001
-36.624001 0.71399999 -5.8509998
-36.683998 0.48100001 -5.8200002
-36.563999 0.257 -5.7870002
-36.403999 0.024 -5.7550001
-37.054001 -0.228 -5.7350001
-37.183998 -0.461 -5.7030001
-37.304001 -0.704 -5.6820002
-37.563999 -0.93699998 -5.6500001
-37.863998 -1.179 -5.6290002
-37.944 -1.413 -5.598
-37.793999 -1.646 -5.566
-37.703999 -1.8789999 -5.5339999
-37.953999 -2.1110001 -5.5120001
-37.944 -2.345 -5.48
-37.764 -2.579 -5.4390001
-37.714001 -2.802 -5.4060001
-37.534 -3.0350001 -5.3740001
-37.594002 -3.2679999 -5.342
-37.714001 -3.5009999 -5.3210001
-38.004002 -3.744 -5.289
-37.944 -3.977 -5.2579999
-37.914001 -4.1999998 -5.2249999
-38.004002 -4.4429998 -5.204
-37.984001 -4.6760001 -5.1719999
-37.984001 -4.8990002 -5.1399999
-37.734001 -5.1329999 -5.098
-37.773998 -5.3660002 -5.066
-37.834 -5.599 -5.0440001
-36.874001 -5.8039999 -4.9899998
-36.813999 -6.0370002 -4.9580002
-36.414001 -6.2610002 -4.9159999
-36.604 -6.5040002 -4.8850002
-36.734001 -6.737 -4.8629999
-36.844002 -6.9699998 -4.8309999
-37.094002 -7.2119999 -4.8099999
-36.834 -9.9910002 -4.427
-36.604 -9.7580004 -4.4590001
-35.914001 -10.905 -4.2779999
-35.993999 -10.681 -4.3210001
-35.383999 -11.129 -4.2360001
-35.084 -11.363 -4.204
-34.764 -11.587 -4.1609998
-34.784 -11.82 -4.1300001
-34.633999 -12.053 -4.098
-33.723999 -12.268 -4.0440001
-34.624001 -12.266 -3.944
-33.613998 -12.501 -4.013
-34.534 -12.367 -3.9319999
-33.574001 -12.734 -3.9809999
-33.493999 -12.968 -3.9489999
-33.563999 -13.201 -3.9170001
-33.594002 -13.434 -3.885
-33.504002 -13.667 -3.8540001
-25.714001 -14.006 -3.369
-25.844 -14.271 -3.5799999
-25.823999 -14.037 -3.612
-25.624001 -14.505 -3.5380001
-25.514 -14.738 -3.507
-24.914 -14.972 -3.4649999
-24.643999 -15.206 -3.4230001
-29.004 12.446 -7.4559999
-28.534 12.698 -7.4759998
-29.054001 12.203 -7.4250002
-29.393999 11.96 -7.4039998
-29.834 11.697 -7.3740001
-30.434 11.435 -7.355
-30.434 11.202 -7.3330002
-30.334 10.978 -7.2909999
-30.573999 10.726 -7.27
-30.653999 10.493 -7.2379999
-30.643999 10.26 -7.2069998
-30.624001 10.026 -7.1750002
-30.563999 9.7930002 -7.1430001
-30.764 9.5500002 -7.112
-31.044001 9.2980003 -7.092
-31.094 9.0640001 -7.0599999
-31.504 8.8439999 -6.8070002
-31.264 8.8210001 -7.0289998
-34.644001 7.7540002 -6.973
-34.004002 8.0059996 -6.993
-34.514 7.52 -6.941
-34.293999 7.2969999 -6.908
-34.403999 6.3540001 -6.7820001
-34.293999 6.5970001 -6.8130002
-34.804001 6.112 -6.7610002
-35.124001 5.869 -6.7399998
-34.863998 5.645 -6.697
-35.113998 5.4029999 -6.6760001
-36.584 4.4130001 -6.5840001
-36.473999 4.645 -6.605
-36.784 4.1700001 -6.553
-36.793999 3.9360001 -6.5209999
-37.234001 3.694 -6.5
-37.164001 3.461 -6.4679999
-37.164001 3.227 -6.4359999
-37.234001 2.994 -6.4039998
-36.914001 2.7709999 -6.3720002
-36.644001 2.5469999 -6.329
-36.624001 2.3139999 -6.2969999
-36.574001 2.0810001 -6.2659998
-36.493999 1.857 -6.2329998
-36.584 1.614 -6.2020001
-36.534 1.391 -6.1690001
-36.394001 1.158 -6.138
-36.324001 0.92400002 -6.1059999
-36.534 0.69199997 -6.0840001
-36.674 0.449 -6.053
-36.563999 0.226 -6.02
-36.464001 -0.0080000004 -5.9879999
-36.953999 -0.25999999 -5.9679999
-37.074001 -0.493 -5.9359999
-37.174 -0.72600001 -5.9050002
-37.484001 -0.96899998 -5.8839998
-37.754002 -1.211 -5.8629999
-37.813999 -1.444 -5.8309999
-37.653999 -1.668 -5.7979999
-37.534 -1.901 -5.7659998
-37.584 -2.1340001 -5.7350001
-37.493999 -2.3670001 -5.7030001
-37.444 -2.5999999 -5.671
-37.493999 -2.8340001 -5.6389999
-37.433998 -3.0569999 -5.6069999
-37.394001 -3.29 -5.5749998
-37.473999 -3.523 -5.5430002
-37.834 -3.766 -5.5219998
-37.813999 -3.9990001 -5.4899998
-37.304001 -4.223 -5.448
-37.723999 -4.4650002 -5.427
-37.793999 -4.6989999 -5.395
-37.824001 -4.9320002 -5.3629999
-37.444 -5.1550002 -5.3299999
-37.473999 -5.388 -5.2989998
-36.653999 -5.6030002 -5.2449999
-36.764 -5.836 -5.2129998
-36.433998 -6.0599999 -5.1810002
-36.354 -6.2930002 -5.1490002
-36.624001 -6.5359998 -5.118
-36.334 -6.7589998 -5.085
-36.354 -6.9920001 -5.0539999
-35.584 -7.6409998 -4.7129998
-35.863998 -7.4180002 -4.7459998
-35.444 -7.6739998 -4.9369998
-35.563999 -7.4400001 -4.9790001
-35.703999 -7.8740001 -4.6820002
-35.284 -7.8969998 -4.9039998
-35.773998 -8.1079998 -4.6500001
-35.304001 -8.1300001 -4.8720002
-35.984001 -8.3500004 -4.6290002
-35.874001 -8.382 -4.862
-36.113998 -8.5830002 -4.5970001
-36.023998 -8.6149998 -4.8299999
-36.633999 -8.8260002 -4.5760002
-36.234001 -8.8479996 -4.7979999
-36.834 -9.0679998 -4.5549998
-36.124001 -9.0810003 -4.7670002
-36.453999 -9.2919998 -4.5120001
-36.153999 -9.3149996 -4.7350001
-36.354 -9.5150003 -4.48
-36.374001 -9.5469999 -4.7129998
-36.054001 -9.7810001 -4.671
-35.844002 -10.439 -4.342
-35.784 -10.704 -4.5430002
-35.504002 -10.472 -4.5650001
-35.773998 -10.937 -4.5110002
-34.734001 -11.152 -4.4580002
-34.694 -11.385 -4.4260001
-34.734001 -11.618 -4.395
-34.854 -11.852 -4.3629999
-33.764 -12.066 -4.309
-33.554001 -12.3 -4.2779999
-33.514 -12.533 -4.2459998
-33.264 -12.767 -4.204
-32.973999 -12.99 -4.171
-33.023998 -13.223 -4.1399999
-33.234001 -13.467 -4.1090002
-26.344 -13.813 -3.654
-25.854 -14.069 -3.845
-25.834 -13.836 -3.8770001
-25.804001 -14.302 -3.813
-25.714001 -14.536 -3.7820001
-25.414 -14.77 -3.74
-24.854 -15.004 -3.698
-24.294001 -15.228 -3.645
-29.063999 12.414 -7.6890001
-28.534 12.667 -7.7090001
-29.054001 12.171 -7.658
-29.414 11.919 -7.638
-29.514 11.685 -7.6059999
-29.924 11.433 -7.586
-30.204 11.18 -7.5560002
-30.323999 10.947 -7.5339999
-30.364 10.704 -7.5029998
-30.493999 10.471 -7.4710002
-30.483999 10.228 -7.4400001
-30.493999 9.9949999 -7.408
-30.493999 9.7609997 -7.3759999
-30.664 9.5179996 -7.3449998
-30.974001 9.276 -7.3239999
-30.884001 9.0430002 -7.2919998
-30.974001 8.7989998 -7.2610002
-32.534 8.54 -7.0209999
-33.124001 8.2770004 -7.0019999
-32.613998 8.2659998 -7.2329998
-32.164001 8.5179996 -7.2529998
-33.924 6.8400002 -6.8340001
-33.894001 7.0830002 -6.8649998
-33.433998 6.8270001 -7.0560002
-33.523998 7.0609999 -7.0970001
-34.223999 6.099 -6.9819999
-33.964001 6.342 -7.0029998
-34.804001 5.8470001 -6.9619999
-34.914001 5.6040001 -6.9310002
-36.604 4.381 -6.8169999
-36.613998 4.6129999 -6.8390002
-36.703999 4.1479998 -6.7849998
-36.734001 3.914 -6.7529998
-36.883999 3.671 -6.7220001
-37.063999 3.4289999 -6.7010002
-37.043999 3.2060001 -6.6680002
-37.034 2.9719999 -6.6370001
-36.964001 2.7390001 -6.605
-36.683998 2.5150001 -6.5619998
-36.563999 2.2820001 -6.5310001
-36.594002 2.049 -6.4990001
-36.493999 1.826 -6.4660001
-36.554001 1.582 -6.4349999
-36.534 1.359 -6.4029999
-36.374001 1.126 -6.3709998
-36.334 0.89300001 -6.3390002
-36.484001 0.66000003 -6.3169999
-36.653999 0.417 -6.2859998
-36.464001 0.19400001 -6.2540002
-36.194 -0.029999999 -6.211
-36.644001 -0.28299999 -6.191
-37.034 -0.52499998 -6.1700001
-37.084 -0.75800002 -6.138
-37.074001 -0.991 -6.1059999
-37.613998 -1.234 -6.085
-37.723999 -1.476 -6.0640001
-37.563999 -1.7 -6.0209999
-37.403999 -1.933 -5.9899998
-37.424 -2.1670001 -5.9580002
-37.354 -2.3900001 -5.9250002
-37.313999 -2.6229999 -5.8930001
-37.324001 -2.8559999 -5.862
-37.304001 -3.0899999 -5.8299999
-37.313999 -3.322 -5.8080001
-37.493999 -3.5550001 -5.776
-37.183998 -3.779 -5.7340002
-37.004002 -4.0120001 -5.7020001
-36.984001 -4.2459998 -5.6700001
-37.074001 -4.4780002 -5.6479998
-36.344002 -4.6929998 -5.5949998
-36.203999 -4.9260001 -5.5630002
-37.574001 -4.848 -5.4060001
-36.444 -5.1589999 -5.5409999
-36.664001 -5.0009999 -5.5089998
-36.273998 -5.3930001 -5.4990001
-36.473999 -5.625 -5.4780002
-36.683998 -5.868 -5.447
-36.113998 -6.0819998 -5.4029999
-36.183998 -6.3150001 -5.3720002
-36.234001 -6.5479999 -5.3499999
-36.153999 -6.7810001 -5.3179998
-35.874001 -7.0149999 -5.276
-35.723999 -7.2069998 -5.0100002
-35.554001 -7.2389998 -5.2340002
-35.394001 -7.4619999 -5.2010002
-35.183998 -7.6960001 -5.1690001
-35.004002 -7.9289999 -5.1370001
-34.863998 -8.1529999 -5.0949998
-35.144001 -8.3950005 -5.0739999
-35.674 -8.6379995 -5.053
-36.084 -8.8800001 -5.0320001
-36.183998 -9.1129999 -5
-36.153999 -9.3459997 -4.9679999
-35.773998 -10.004 -4.6389999
-35.484001 -10.037 -4.862
-35.574001 -9.8039999 -4.8940001
-35.484001 -10.238 -4.5970001
-35.334 -10.26 -4.829
-35.254002 -10.493 -4.7979999
-35.223999 -10.727 -4.7659998
-35.034 -10.96 -4.7340002
-34.514 -11.184 -4.691
-34.694 -11.417 -4.6599998
-34.183998 -11.641 -4.6170001
-33.883999 -11.875 -4.5749998
-33.594002 -12.098 -4.5430002
-33.563999 -12.332 -4.5110002
-33.344002 -12.566 -4.4689999
-32.863998 -12.79 -4.427
-33.094002 -13.022 -4.4050002
-26.084 -13.603 -3.9089999
-25.804001 -13.868 -4.1100001
-26.174 -13.634 -4.152
-25.813999 -14.101 -4.0780001
-25.664 -14.334 -4.0469999
-25.614 -14.567 -4.0149999
-24.934 -14.792 -3.9619999
-24.733999 -15.025 -3.9300001
-29.014 12.382 -7.9219999
-28.704 12.626 -7.9530001
-29.063999 12.14 -7.901
-29.474001 11.887 -7.8709998
-29.514 11.654 -7.8390002
-29.794001 11.401 -7.8189998
-30.063999 11.158 -7.7880001
-30.224001 10.916 -7.7670002
-30.254 10.682 -7.7350001
-30.233999 10.449 -7.7030001
-30.313999 10.206 -7.6719999
-30.364 9.9729996 -7.6409998
-30.454 9.7299995 -7.6100001
-30.584 9.4960003 -7.5780001
-30.884001 9.2440004 -7.5570002
-30.884001 9.0109997 -7.526
-30.834 8.7779999 -7.494
-32.604 8.0319996 -7.2010002
-32.523998 8.0109997 -7.434
-32.354 8.243 -7.4559999
-32.683998 7.7989998 -7.1700001
-32.664001 7.7670002 -7.4029999
-33.234001 7.5370002 -7.1500001
-32.793999 7.5240002 -7.3720002
-33.363998 7.3039999 -7.118
-32.903999 7.2909999 -7.3400002
-33.304001 7.039 -7.3200002
-33.374001 6.8049998 -7.2880001
-33.354 6.6040001 -7.0229998
-33.363998 6.572 -7.256
-33.484001 6.3299999 -7.2350001
-34.004002 6.0770001 -7.2150002
-34.403999 5.8239999 -7.1849999
-34.613998 5.592 -7.1630001
-36.473999 4.3579998 -7.039
-36.484001 4.5819998 -7.072
-36.563999 4.1160002 -7.0180001
-36.664001 3.8829999 -6.9860001
-37.133999 3.6300001 -6.9660001
-37.084 3.3970001 -6.934
-37.063999 3.174 -6.902
-36.944 2.941 -6.8699999
-36.784 2.717 -6.8270001
-36.644001 2.483 -6.796
-36.554001 2.25 -6.7639999
-36.554001 2.027 -6.7309999
-36.453999 1.794 -6.6989999
-36.514 1.561 -6.6680002
-36.504002 1.327 -6.6360002
-36.284 1.094 -6.6040001
-36.324001 0.861 -6.572
-36.383999 0.62800002 -6.54
-36.584 0.39500001 -6.5190001
-36.383999 0.162 -6.487
-36.054001 -0.061999999 -6.4439998
-36.374001 -0.30399999 -6.4229999
-36.914001 -0.54699999 -6.402
-37.034 -0.79000002 -6.3709998
-36.973999 -1.013 -6.3379998
-37.363998 -1.266 -6.3179998
-37.484001 -1.499 -6.2859998
-37.344002 -1.722 -6.2540002
-37.293999 -1.955 -6.2220001
-37.363998 -2.188 -6.1900001
-37.414001 -2.4219999 -6.158
-37.234001 -2.655 -6.1269999
-37.243999 -2.888 -6.0949998
-37.153999 -3.1110001 -6.0619998
-37.234001 -3.355 -6.0310001
-37.034 -3.5780001 -5.9990001
-36.793999 -3.8010001 -5.9660001
-36.953999 -4.0440001 -5.9349999
-36.993999 -4.277 -5.9029999
-36.374001 -4.4910002 -5.8600001
-36.324001 -4.7249999 -5.8280001
-36.433998 -4.9580002 -5.796
-36.433998 -5.191 -5.7649999
-36.243999 -5.4239998 -5.7329998
-36.464001 -5.6570001 -5.711
-36.444 -5.8899999 -5.6789999
-35.933998 -6.1139998 -5.6370001
-36.124001 -6.3470001 -5.605
-35.993999 -6.5799999 -5.573
-35.714001 -6.8039999 -5.54
-35.453999 -7.0380001 -5.4990001
-35.484001 -7.2709999 -5.467
-35.344002 -7.494 -5.434
-34.924 -7.7179999 -5.3920002
-34.914001 -7.9510002 -5.3600001
-34.914001 -8.1850004 -5.3280001
-34.984001 -8.4169998 -5.3060002
-35.304001 -8.6599998 -5.2750001
-35.844002 -8.9020004 -5.2639999
-35.984001 -9.1450005 -5.2329998
-35.784 -9.368 -5.1999998
-35.334 -10.059 -5.0939999
-35.363998 -9.8260002 -5.1259999
-35.243999 -10.292 -5.0630002
-35.313999 -10.525 -5.0310001
-35.183998 -10.758 -4.9990001
-34.473999 -10.973 -4.9460001
-34.464001 -11.206 -4.914
-34.043999 -11.44 -4.882
-33.854 -11.664 -4.8390002
-33.734001 -11.897 -4.8080001
-33.473999 -12.13 -4.776
-33.493999 -12.363 -4.744
-33.084 -12.587 -4.7020001
-25.724001 -13.899 -4.3429999
-26.153999 -13.665 -4.3850002
-25.634001 -14.133 -4.3119998
-25.573999 -14.366 -4.2800002
-25.584 -14.599 -4.2480001
-24.784 -14.824 -4.1950002
-24.504 -15.058 -4.1539998
-29.134001 12.108 -8.1350002
-28.884001 12.351 -8.1560001
-29.424 11.855 -8.1040001
-29.424 11.622 -8.0719995
-29.714001 11.379 -8.0509996
-29.944 11.136 -8.0200005
-30.084 10.893 -7.9889998
-30.143999 10.651 -7.9679999
-30.143999 10.417 -7.9369998
-30.214001 10.184 -7.9050002
-30.284 9.941 -7.8740001
-30.264 9.7080002 -7.842
-30.444 9.4650002 -7.8109999
-30.573999 9.2209997 -7.7800002
-30.544001 8.9879999 -7.7480001
-30.584 8.7559996 -7.7259998
-31.204 8.5240002 -7.4640002
-30.934 8.5129995 -7.6950002
-32.473999 7.7459998 -7.6350002
-32.293999 7.9879999 -7.6560001
-32.653999 7.5019999 -7.6040001
-32.613998 7.2690001 -7.572
-33.094002 7.0170002 -7.552
-33.124001 6.7839999 -7.52
-33.254002 6.54 -7.4889998
-33.313999 6.3070002 -7.4580002
-33.734001 6.0549998 -7.4369998
-34.094002 5.8119998 -7.4159999
-34.473999 5.5599999 -7.3959999
-34.563999 5.3590002 -7.131
-34.523998 5.3270001 -7.3639998
-36.383999 4.3270001 -7.2719998
-36.334 4.5599999 -7.3039999
-36.363998 4.0929999 -7.2410002
-36.664001 3.8510001 -7.2199998
-36.863998 3.608 -7.1890001
-37.014 3.3740001 -7.1570001
-36.894001 3.141 -7.125
-36.944 2.9089999 -7.1030002
-36.793999 2.6849999 -7.0609999
-36.493999 2.4619999 -7.0279999
-36.473999 2.2279999 -6.9959998
-36.484001 1.995 -6.9640002
-36.424 1.762 -6.9330001
-36.473999 1.529 -6.901
-36.453999 1.296 -6.869
-36.214001 1.072 -6.836
-36.214001 0.83899999 -6.8049998
-36.344002 0.59600002 -6.7740002
-36.504002 0.36300001 -6.7519999
-36.313999 0.139 -6.7090001
-36.084 -0.093999997 -6.677
-36.273998 -0.32699999 -6.6459999
-36.523998 -0.56900001 -6.625
-36.813999 -0.81199998 -6.6030002
-36.903999 -1.045 -6.572
-37.264 -1.2869999 -6.5510001
-37.354 -1.521 -6.5190001
-37.223999 -1.7539999 -6.487
-37.194 -1.987 -6.4549999
-37.264 -2.22 -6.4229999
-37.234001 -2.4530001 -6.3920002
-37.194 -2.687 -6.3600001
-36.903999 -2.9100001 -6.3270001
-37.043999 -3.1429999 -6.2950001
-36.973999 -3.3759999 -6.2639999
-36.764 -3.5999999 -6.2210002
-36.834 -3.8329999 -6.1989999
-36.924 -4.0760002 -6.1680002
-36.203999 -4.29 -6.125
-36.113998 -4.513 -6.092
-36.374001 -4.757 -6.0609999
-36.414001 -4.9899998 -6.0300002
-36.104 -5.2129998 -5.9970002
-35.874001 -5.447 -5.9549999
-36.214001 -5.6789999 -5.9330001
-35.924 -5.9130001 -5.902
-35.854 -6.1459999 -5.8699999
-35.993999 -6.3790002 -5.8379998
-35.813999 -6.6020002 -5.8049998
-35.424 -6.8260002 -5.763
-35.394001 -7.0599999 -5.7309999
-35.363998 -7.2930002 -5.6989999
-35.254002 -7.526 -5.6669998
-34.863998 -7.75 -5.625
-34.964001 -7.9829998 -5.5929999
-34.973999 -8.2159996 -5.5710001
-34.993999 -8.4490004 -5.539
-35.144001 -8.6920004 -5.5079999
-35.493999 -8.9239998 -5.487
-35.773998 -9.1680002 -5.4559999
-35.604 -9.401 -5.4239998
-35.234001 -9.592 -5.158
-35.104 -9.625 -5.381
-35.254002 -9.8570004 -5.3590002
-35.273998 -10.091 -5.3280001
-35.293999 -10.324 -5.296
-35.214001 -10.557 -5.2639999
-34.754002 -10.781 -5.2210002
-34.234001 -11.005 -5.1789999
-34.293999 -11.238 -5.1469998
-33.743999 -11.462 -5.1040001
-33.723999 -11.695 -5.073
-33.534 -11.929 -5.0409999
-33.464001 -12.162 -5.0089998
-33.334 -12.396 -4.967
-25.714001 -13.931 -4.5770001
-26.224001 -13.697 -4.618
-25.594 -14.165 -4.5450001
-25.464001 -14.398 -4.513
-25.073999 -14.622 -4.4699998
-24.653999 -14.856 -4.4289999
-24.024 -15.09 -4.3870001
-29.164 12.076 -8.368
-29.034 12.32 -8.3990002
-29.454 11.824 -8.3470001
-29.464001 11.591 -8.316
-29.694 11.348 -8.2849998
-29.914 11.104 -8.2539997
-30.254 10.852 -8.2329998
-30.084 10.629 -8.2010002
-30.014 10.396 -8.1689997
-30.014 10.162 -8.1370001
-30.054001 9.9189997 -8.1059999
-30.153999 9.6859999 -8.0740004
-30.284 9.4429998 -8.0430002
-30.434 9.1999998 -8.0120001
-30.514 8.967 -7.9910002
-30.514 8.724 -7.96
-30.634001 8.4910002 -7.928
-31.274 8.2600002 -7.6750002
-30.653999 8.2580004 -7.8959999
-32.144001 7.723 -7.8579998
-31.444 7.9850001 -7.8769999
-32.473999 7.4809999 -7.8369999
-32.594002 7.237 -7.8060002
-32.694 7.0040002 -7.7740002
-33.014 6.7519999 -7.7540002
-33.124001 6.5190001 -7.7220001
-33.293999 6.2750001 -7.691
-33.594002 6.033 -7.6700001
-33.953999 5.7810001 -7.6490002
-34.014 5.5469999 -7.618
-34.164001 5.3039999 -7.5869999
-36.293999 4.2950001 -7.506
-36.144001 4.5380001 -7.5370002
-36.334 4.0609999 -7.474
-36.523998 3.8280001 -7.4419999
-36.973999 3.576 -7.4219999
-37.043999 3.3429999 -7.3899999
-36.944 3.109 -7.3579998
-36.924 2.8759999 -7.3260002
-36.754002 2.6530001 -7.2940001
-36.543999 2.4300001 -7.2610002
-36.484001 2.197 -7.2290001
-36.433998 1.9630001 -7.198
-36.424 1.73 -7.1659999
-36.424 1.497 -7.1339998
-36.304001 1.274 -7.1009998
-36.183998 1.04 -7.0700002
-36.243999 0.80699998 -7.0380001
-36.273998 0.574 -7.006
-36.514 0.33199999 -6.9850001
-36.344002 0.108 -6.9419999
-36.014 -0.116 -6.9099998
-36.124001 -0.359 -6.8790002
-36.453999 -0.60100001 -6.8579998
-36.403999 -0.83399999 -6.8260002
-36.743999 -1.077 -6.8049998
-37.023998 -1.3099999 -6.7729998
-37.284 -1.552 -6.7519999
-37.153999 -1.786 -6.7199998
-37.074001 -2.01 -6.678
-37.243999 -2.2520001 -6.6570001
-37.124001 -2.4749999 -6.6240001
-37.004002 -2.7090001 -6.592
-36.793999 -2.9330001 -6.5500002
-36.834 -3.1659999 -6.5180001
-36.863998 -3.398 -6.4959998
-36.714001 -3.632 -6.454
-36.743999 -3.865 -6.4229999
-36.804001 -4.098 -6.401
-35.844002 -4.3130002 -6.3470001
-35.944 -4.546 -6.316
-36.153999 -4.7779999 -6.2940001
-36.054001 -5.0120001 -6.2620001
-35.574001 -5.2360001 -6.2189999
-35.664001 -5.4689999 -6.1880002
-35.664001 -5.7020001 -6.1560001
-35.644001 -5.9349999 -6.1240001
-35.854 -6.1680002 -6.1020002
-35.924 -6.4109998 -6.0710001
-35.604 -6.6350002 -6.0289998
-35.394001 -6.8579998 -5.9959998
-35.344002 -7.0910001 -5.9640002
-35.284 -7.3249998 -5.9320002
-35.074001 -7.5580001 -5.901
-34.714001 -7.7820001 -5.8579998
-34.894001 -8.0150003 -5.8260002
-34.973999 -8.2469997 -5.8039999
-34.903999 -8.4809999 -5.763
-34.973999 -8.7139997 -5.7410002
-35.203999 -8.9569998 -5.71
-35.304001 -9.1890001 -5.6880002
-34.613998 -9.4139996 -5.6350002
-34.664001 -9.6470003 -5.6040001
-34.804001 -9.8800001 -5.5819998
-35.203999 -10.122 -5.5609999
-35.194 -10.356 -5.5289998
-34.743999 -10.58 -5.4860001
-34.453999 -10.804 -5.4439998
-34.293999 -11.037 -5.4120002
-34.254002 -11.27 -5.3800001
-33.683998 -11.494 -5.3379998
-33.754002 -11.727 -5.3060002
-33.374001 -11.951 -5.263
-25.544001 -13.953 -4.809
-26.294001 -13.728 -4.862
-25.474001 -14.186 -4.777
-25.174 -14.42 -4.7350001
-24.733999 -14.654 -4.704
-24.444 -14.888 -4.6620002
-23.704 -15.112 -4.6090002
-29.374001 11.802 -8.5799999
-28.944 12.055 -8.6000004
-29.434 11.559 -8.5489998
-29.393999 11.326 -8.5170002
-29.764 11.073 -8.4870005
-29.934 10.83 -8.4659996
-29.964001 10.597 -8.434
-29.854 10.363 -8.3920002
-29.834 10.13 -8.3599997
-29.893999 9.8970003 -8.3389997
-30.063999 9.6540003 -8.3079996
-30.084 9.4209995 -8.276
-30.143999 9.1780005 -8.2449999
-30.323999 8.9350004 -8.2139997
-30.184 8.7110004 -8.1809998
-30.284 8.4680004 -8.1499996
-30.354 8.2360001 -8.1280003
-32.124001 7.4580002 -8.059
-31.454 7.7199998 -8.0790005
-32.453999 7.2150002 -8.0380001
-32.563999 6.9720001 -8.007
-32.834 6.73 -7.9860001
-32.914001 6.4970002 -7.954
-33.074001 6.2540002 -7.9229999
-33.484001 6.0009999 -7.9029999
-33.863998 5.7589998 -7.882
-34.004002 5.5159998 -7.8509998
-34.124001 5.2820001 -7.8189998
-34.633999 5.0619998 -7.566
-34.563999 5.0300002 -7.7989998
-36.254002 4.2729998 -7.7379999
-36.183998 4.506 -7.77
-36.284 4.0300002 -7.7069998
-36.363998 3.796 -7.6750002
-36.844002 3.5439999 -7.6550002
-36.953999 3.3110001 -7.6230001
-36.844002 3.0780001 -7.5910001
-36.834 2.8540001 -7.559
-36.824001 2.6210001 -7.527
-36.504002 2.398 -7.494
-36.394001 2.165 -7.4629998
-36.433998 1.932 -7.4310002
-36.334 1.698 -7.3990002
-36.264 1.475 -7.3660002
-36.194 1.242 -7.335
-36.194 1.0089999 -7.303
-36.183998 0.77499998 -7.2709999
-36.354 0.542 -7.2389998
-36.363998 0.30899999 -7.2069998
-36.394001 0.066 -7.1760001
-36.043999 -0.147 -7.1430001
-36.054001 -0.38100001 -7.1110001
-36.203999 -0.62400001 -7.0799999
-36.043999 -0.847 -7.0479999
-36.334 -1.089 -7.027
-36.633999 -1.3329999 -6.9959998
-36.883999 -1.575 -6.9749999
-36.984001 -1.808 -6.9429998
-37.014 -2.0409999 -6.9109998
-37.153999 -2.2739999 -6.8889999
-37.133999 -2.507 -6.8569999
-36.924 -2.7409999 -6.816
-36.734001 -2.964 -6.783
-36.694 -3.198 -6.7509999
-36.754002 -3.431 -6.7189999
-36.653999 -3.664 -6.6880002
-36.784 -3.8959999 -6.6659999
-36.223999 -4.1199999 -6.6230001
-35.604 -4.335 -6.5700002
-35.773998 -4.5679998 -6.5479999
-35.754002 -4.8010001 -6.5159998
-35.563999 -5.0339999 -6.4840002
-35.424 -5.2579999 -6.4419999
-35.514 -5.5009999 -6.421
-35.613998 -5.7340002 -6.3889999
-35.644001 -5.967 -6.3569999
-35.703999 -6.1999998 -6.3249998
-35.793999 -6.4330001 -6.3039999
-35.363998 -6.6570001 -6.2610002
-35.324001 -6.8899999 -6.2290001
-35.264 -7.1230001 -6.197
-35.144001 -7.3559999 -6.1659999
-34.863998 -7.5799999 -6.1230001
-34.644001 -7.8140001 -6.0910001
-34.854 -8.0469999 -6.059
-34.824001 -8.2799997 -6.0279999
-34.694 -8.5129995 -5.9959998
-34.594002 -8.7360001 -5.9629998
-34.374001 -8.9700003 -5.9310002
-34.493999 -9.2030001 -5.9000001
-34.664001 -9.4460001 -5.869
-34.453999 -9.6689997 -5.836
-34.324001 -9.9029999 -5.8039999
-34.344002 -10.136 -5.7719998
-34.214001 -10.369 -5.7410002
-34.324001 -10.602 -5.7090001
-34.344002 -10.835 -5.677
-34.293999 -11.069 -5.645
-34.043999 -11.302 -5.6129999
-33.653999 -11.526 -5.5710001
-33.703999 -11.759 -5.539
-25.464001 -13.985 -5.0419998
-26.284 -13.76 -5.0949998
-25.384001 -14.218 -5.0100002
-24.864 -14.452 -4.9689999
-24.393999 -14.676 -4.9260001
-23.804001 -14.91 -4.8839998
-23.733999 -15.143 -4.8530002
-29.124001 11.78 -8.802
-28.974001 12.023 -8.8330002
-29.384001 11.527 -8.7819996
-29.364 11.294 -8.75
-29.194 11.071 -8.7180004
-29.454 10.828 -8.6870003
-29.614 10.584 -8.6560001
-29.643999 10.341 -8.625
-29.624001 10.108 -8.5930004
-29.704 9.875 -8.5609999
-29.854 9.632 -8.54
-30.014 9.3889999 -8.5089998
-29.974001 9.1560001 -8.4770002
-30.124001 8.9130001 -8.4460001
-30.004 8.6890001 -8.4139996
-30.044001 8.4460001 -8.3830004
-30.233999 8.2040005 -8.3620005
-30.454 7.993 -8.0970001
-30.344 7.9710002 -8.3299999
-32.104 7.1939998 -8.2709999
-31.584 7.4460001 -8.2910004
-32.344002 6.9499998 -8.2399998
-32.453999 6.717 -8.2080002
-32.743999 6.4650002 -8.1870003
-32.944 6.2220001 -8.1560001
-33.284 5.9790001 -8.1350002
-33.894001 5.2509999 -8.052
-33.683998 5.493 -8.073
-36.164001 4.0079999 -7.9390001
-36.113998 4.2410002 -7.9710002
-36.403999 3.7650001 -7.908
-36.653999 3.5220001 -7.8870001
-36.973999 3.279 -7.8559999
-36.854 3.056 -7.8239999
-36.824001 2.823 -7.7919998
-36.723999 2.589 -7.7600002
-36.514 2.3659999 -7.7280002
-36.464001 2.1329999 -7.6960001
-36.444 1.9 -7.664
-36.203999 1.677 -7.631
-36.214001 1.443 -7.5999999
-36.104 1.21 -7.5679998
-36.124001 0.977 -7.5359998
-36.063999 0.74400002 -7.5040002
-36.164001 0.50999999 -7.4720001
-36.414001 0.26699999 -7.441
-36.313999 0.044 -7.4089999
-36.054001 -0.17900001 -7.3759999
-35.993999 -0.412 -7.3439999
-36.074001 -0.64600003 -7.3130002
-36.074001 -0.87900001 -7.2810001
-36.014 -1.112 -7.2490001
-36.563999 -1.364 -7.2290001
-36.613998 -1.598 -7.197
-36.914001 -1.84 -7.1760001
-36.773998 -2.063 -7.1430001
-36.973999 -2.306 -7.112
-37.054001 -2.54 -7.0809999
-36.723999 -2.763 -7.0479999
-36.543999 -2.9960001 -7.0159998
-36.574001 -3.2290001 -6.9840002
-36.633999 -3.4630001 -6.9530001
-36.374001 -3.6860001 -6.9200001
-36.444 -3.9189999 -6.888
-35.664001 -4.1329999 -6.8449998
-35.534 -4.3670001 -6.803
-35.584 -4.5999999 -6.7810001
-35.543999 -4.8330002 -6.7490001
-35.223999 -5.0570002 -6.7069998
-35.254002 -5.29 -6.6750002
-35.424 -5.5219998 -6.6529999
-35.594002 -5.7659998 -6.6220002
-35.723999 -5.9990001 -6.5900002
-35.664001 -6.2319999 -6.559
-35.563999 -6.4650002 -6.527
-35.234001 -6.6890001 -6.494
-35.183998 -6.9219999 -6.4619999
-35.214001 -7.1550002 -6.4310002
-35.243999 -7.388 -6.3990002
-34.574001 -7.6020002 -6.355
-34.644001 -7.835 -6.3239999
-34.754002 -8.0790005 -6.2930002
-34.584 -8.302 -6.2600002
-34.644001 -8.5349998 -6.2280002
-34.403999 -8.7679996 -6.1960001
-34.223999 -9.0019999 -6.1550002
-33.944 -9.2259998 -6.1220002
-34.034 -9.4589996 -6.0900002
-34.084 -9.6920004 -6.059
-34.234001 -9.934 -6.0370002
-34.214001 -10.168 -6.006
-34.304001 -10.401 -5.974
-34.254002 -10.634 -5.9419999
-34.104 -10.867 -5.9099998
-34.124001 -11.1 -5.8779998
-26.664 -13.526 -5.1370001
-26.344 -13.792 -5.3280001
-26.664 -13.558 -5.3699999
-25.483999 -14.016 -5.2849998
-25.284 -14.25 -5.244
-24.903999 -14.484 -5.2020001
-24.214001 -14.708 -5.1589999
-23.874001 -14.942 -5.118
-29.254 11.505 -9.0150003
-28.794001 11.758 -9.0349998
-29.084 11.282 -8.9820004
-28.954 11.048 -8.9399996
-29.024 10.806 -8.9189997
-29.153999 10.572 -8.8870001
-29.304001 10.329 -8.8559999
-29.334 10.096 -8.8249998
-29.393999 9.8529997 -8.7939997
-29.524 9.6099997 -8.7620001
-29.684 9.3669996 -8.7410002
-29.653999 9.1339998 -8.71
-29.733999 8.901 -8.6780005
-29.714001 8.6680002 -8.6459999
-29.884001 8.4239998 -8.6149998
-29.993999 8.1809998 -8.5839996
-30.233999 7.9390001 -8.5629997
-30.393999 7.7280002 -8.2989998
-30.284 7.7059999 -8.5310001
-32.023998 6.9289999 -8.4720001
-31.243999 7.1999998 -8.4809999
-32.133999 6.6950002 -8.4399996
-32.273998 6.4520001 -8.4090004
-32.764 6.1999998 -8.3889999
-33.674 5.2280002 -8.2749996
-33.723999 5.461 -8.3070002
-36.164001 3.9760001 -8.1730003
-36.043999 4.2080002 -8.1949997
-36.334 3.733 -8.1420002
-36.424 3.5 -8.1099997
-36.793999 3.257 -8.0889997
-36.734001 3.0239999 -8.0570002
-36.743999 2.7909999 -8.0249996
-36.734001 2.5580001 -7.993
-36.424 2.3340001 -7.961
-36.324001 2.1110001 -7.928
-36.133999 1.877 -7.8860002
-36.034 1.654 -7.8540001
-36.054001 1.421 -7.822
-36.023998 1.187 -7.79
-35.924 0.954 -7.7579999
-35.924 0.72100002 -7.7270002
-36.094002 0.479 -7.7059999
-36.304001 0.245 -7.6739998
-36.254002 0.012 -7.6420002
-36.084 -0.211 -7.6090002
-35.933998 -0.44400001 -7.5780001
-35.973999 -0.67699999 -7.546
-35.964001 -0.91100001 -7.5139999
-35.944 -1.1440001 -7.4819999
-36.214001 -1.386 -7.461
-36.514 -1.6289999 -7.4299998
-36.703999 -1.862 -7.408
-36.743999 -2.095 -7.3769999
-36.734001 -2.3280001 -7.3449998
-36.824001 -2.562 -7.3130002
-36.764 -2.7950001 -7.2810001
-36.464001 -3.0179999 -7.2490001
-36.403999 -3.2509999 -7.217
-36.484001 -3.484 -7.1849999
-36.403999 -3.7179999 -7.1529999
-36.023998 -3.9419999 -7.1110001
-35.653999 -4.1659999 -7.0679998
-35.464001 -4.3889999 -7.0349998
-35.334 -4.6220002 -7.0040002
-35.124001 -4.8449998 -6.9710002
-34.903999 -5.079 -6.9289999
-34.964001 -5.3119998 -6.9070001
-35.063999 -5.5450001 -6.8759999
-35.433998 -5.7870002 -6.855
-35.243999 -6.0209999 -6.8130002
-35.214001 -6.2550001 -6.7810001
-35.203999 -6.4879999 -6.7490001
-35.084 -6.711 -6.717
-35.043999 -6.9439998 -6.6849999
-35.054001 -7.178 -6.6529999
-34.993999 -7.4109998 -6.6209998
-34.514 -7.6350002 -6.579
-34.514 -7.8670001 -6.5570002
-34.534 -8.1000004 -6.5250001
-34.424 -8.3339996 -6.493
-33.914001 -8.5579996 -6.4510002
-33.363998 -8.7819996 -6.408
-33.383999 -9.0150003 -6.3759999
-33.683998 -9.2480001 -6.3449998
-33.754002 -9.4910002 -6.3239999
-33.804001 -9.724 -6.2919998
-33.824001 -9.9569998 -6.2600002
-33.674 -10.19 -6.2280002
-33.584 -10.414 -6.1859999
-26.194 -13.824 -5.5609999
-26.714001 -13.59 -5.6030002
-25.374001 -14.048 -5.5190001
-25.153999 -14.282 -5.4770002
-24.844 -14.515 -5.4450002
-24.034 -14.74 -5.3930001
-23.804001 -14.974 -5.3509998
-28.483999 11.036 -9.1719999
-28.313999 11.279 -9.2030001
-28.614 10.793 -9.1409998
-28.893999 10.551 -9.1199999
-29.044001 10.307 -9.0889997
-29.124001 10.064 -9.0579996
-29.153999 9.8310003 -9.026
-29.094 9.5979996 -8.9940004
-29.233999 9.3549995 -8.9630003
-29.284 9.1210003 -8.9309998
-29.334 8.8879995 -8.8999996
-29.584 8.6359997 -8.8789997
-29.694 8.4029999 -8.8470001
-29.924 8.1590004 -8.816
-29.983999 7.9159999 -8.7849998
-30.134001 7.6739998 -8.7639999
-30.464001 7.4629998 -8.5
-30.224001 7.441 -8.7329998
-30.474001 7.197 -8.7019997
-31.624001 6.9159999 -8.6940002
-31.834 6.6729999 -8.6630001
-32.004002 6.4299998 -8.6420002
-32.383999 6.1869998 -8.6110001
-33.554001 5.704 -8.3380003
-33.594002 5.4390001 -8.5389996
-33.313999 5.6820002 -8.5699997
-33.613998 5.2059999 -8.507
-33.674 4.9959998 -8.2530003
-33.674 4.9640002 -8.4860001
-36.563999 3.4679999 -8.3430004
-36.444 3.701 -8.375
-36.664001 3.2249999 -8.3219995
-36.674 2.9920001 -8.29
-36.734001 2.7590001 -8.2580004
-36.653999 2.526 -8.2270002
-36.363998 2.303 -8.1940002
-36.074001 2.079 -8.151
-35.993999 1.855 -8.1190004
-35.984001 1.622 -8.0869999
-35.953999 1.3890001 -8.0550003
-35.883999 1.156 -8.0240002
-35.924 0.92199999 -7.9920001
-35.933998 0.68900001 -7.96
-36.144001 0.447 -7.9390001
-36.313999 0.214 -7.9070001
-36.313999 -0.02 -7.875
-36.034 -0.243 -7.8429999
-35.844002 -0.47600001 -7.8109999
-35.993999 -0.70899999 -7.7789998
-35.903999 -0.94199997 -7.7470002
-35.874001 -1.176 -7.7150002
-36.063999 -1.409 -7.684
-36.304001 -1.651 -7.6630001
-36.424 -1.885 -7.631
-36.674 -2.1270001 -7.6100001
-36.694 -2.3599999 -7.5780001
-36.743999 -2.5929999 -7.546
-36.554001 -2.8169999 -7.5139999
-36.313999 -3.0510001 -7.4720001
-36.304001 -3.2839999 -7.4400001
-36.293999 -3.517 -7.408
-35.584 -4.198 -7.3010001
-35.723999 -3.964 -7.3429999
-35.363998 -4.421 -7.2690001
-35.324001 -4.6539998 -7.237
-34.743999 -4.868 -7.1939998
-34.594002 -5.1009998 -7.1620002
-34.574001 -5.3340001 -7.1300001
-34.874001 -5.5770001 -7.1090002
-35.313999 -5.8200002 -7.0780001
-35.424 -6.052 -7.0560002
-35.203999 -6.2859998 -7.0139999
-35.063999 -6.5100002 -6.9819999
-34.924 -6.743 -6.9499998
-34.824001 -6.9759998 -6.9180002
-35.054001 -7.2090001 -6.8860002
-34.953999 -7.4429998 -6.855
-34.433998 -7.6669998 -6.8119998
-34.424 -7.9000001 -6.7800002
-34.293999 -8.1330004 -6.7480001
-34.174 -8.3559999 -6.7160001
-33.644001 -8.5799999 -6.6729999
-33.403999 -8.8140001 -6.6409998
-33.453999 -9.0469999 -6.6100001
-33.664001 -9.2799997 -6.5780001
-33.743999 -9.5220003 -6.5570002
-33.613998 -9.7460003 -6.5139999
-33.183998 -9.9799995 -6.4819999
-33.023998 -10.204 -6.4400001
-32.793999 -10.437 -6.408
-33.194 -10.647 -6.1539998
-33.004002 -10.67 -6.3759999
-28.893999 -12.916 -5.7509999
-28.063999 -13.141 -5.698
-27.874001 -13.173 -5.9310002
-28.704 -12.948 -5.9840002
-27.944 -13.374 -5.6659999
-27.893999 -13.406 -5.8990002
-26.204 -13.855 -5.8039999
-26.454 -13.622 -5.836
-25.073999 -14.314 -5.71
-25.184 -14.08 -5.7519999
-24.823999 -14.547 -5.678
-27.954 11.532 -9.2229996
-27.594 11.277 -9.4239998
-27.344 11.53 -9.4540005
-27.643999 11.044 -9.3920002
-27.864 10.8 -9.3610001
-28.554001 10.528 -9.342
-28.774 10.286 -9.3210001
-28.993999 10.042 -9.29
-29.073999 9.809 -9.2580004
-28.993999 9.5760002 -9.2270002
-29.044001 9.3330002 -9.1960001
-29.054001 9.1000004 -9.1639996
-29.004 8.8660002 -9.132
-29.143999 8.6230001 -9.1009998
-29.254 8.3909998 -9.0790005
-29.784 8.1280003 -9.0500002
-29.854 7.8940001 -9.0179996
-30.124001 7.652 -8.9969997
-30.134001 7.4089999 -8.9659996
-30.224001 7.1760001 -8.934
-30.934 6.9130001 -8.915
-31.694 6.651 -8.8950005
-31.823999 6.4089999 -8.8739996
-32.054001 6.165 -8.8430004
-32.584 5.9450002 -8.5889997
-32.734001 5.9029999 -8.823
-33.133999 5.6609998 -8.802
-33.464001 5.408 -8.7720003
-33.444 5.1739998 -8.7399998
-33.543999 4.941 -8.7089996
-36.563999 3.4360001 -8.5760002
-36.383999 3.6689999 -8.6079998
-36.743999 3.194 -8.5550003
-36.653999 2.96 -8.5229998
-36.514 2.737 -8.4910002
-36.504002 2.5039999 -8.4589996
-36.133999 2.28 -8.4169998
-35.953999 2.0569999 -8.3839998
-35.874001 1.824 -8.3520002
-35.824001 1.59 -8.3199997
-35.834 1.357 -8.2889996
-35.804001 1.1339999 -8.2559996
-35.793999 0.90100002 -8.224
-35.804001 0.667 -8.1920004
-35.953999 0.42399999 -8.1610003
-36.243999 0.182 -8.1400003
-36.284 -0.050999999 -8.1079998
-35.863998 -0.27500001 -8.0760002
-35.824001 -0.498 -8.0430002
-35.914001 -0.741 -8.0120001
-35.933998 -0.97399998 -7.98
-35.863998 -1.207 -7.9489999
-35.993999 -1.441 -7.9169998
-36.074001 -1.674 -7.8850002
-35.993999 -1.9069999 -7.8530002
-36.523998 -2.1500001 -7.8319998
-36.613998 -2.3929999 -7.8010001
-36.574001 -2.6159999 -7.7690001
-36.523998 -2.849 -7.737
-36.264 -3.082 -7.7049999
-36.243999 -3.306 -7.6719999
-36.254002 -3.539 -7.6409998
-35.344002 -4.2189999 -7.5339999
-35.784 -3.9949999 -7.5760002
-34.514 -4.9000001 -7.427
-34.554001 -4.6669998 -7.4590001
-34.354 -5.1240001 -7.3839998
-34.594002 -5.3660002 -7.3629999
-34.944 -5.6090002 -7.342
-35.203999 -5.8520002 -7.3109999
-35.043999 -6.0749998 -7.2789998
-35.094002 -6.3080001 -7.2470002
-35.304001 -6.5510001 -7.2259998
-34.834 -6.7750001 -7.1830001
-34.674 -6.9980001 -7.151
-34.824001 -7.2410002 -7.1199999
-34.723999 -7.4640002 -7.0869999
-34.334 -7.698 -7.0450001
-34.304001 -7.9219999 -7.013
-34.214001 -8.1549997 -6.9809999
-34.034 -8.3879995 -6.9489999
-33.824001 -8.6219997 -6.9070001
-33.644001 -8.8450003 -6.875
-33.534 -9.0790005 -6.8429999
-33.493999 -9.3120003 -6.8109999
-32.894001 -9.5360003 -6.7680001
-32.743999 -9.7690001 -6.737
-32.594002 -9.9919996 -6.704
-32.484001 -10.226 -6.6620002
-32.604 -10.459 -6.6399999
-30.643999 -11.333 -6.2379999
-30.944 -11.109 -6.2800002
-30.774 -11.365 -6.4710002
-31.024 -11.141 -6.5139999
-30.634001 -11.566 -6.2059999
-30.733999 -11.598 -6.4390001
-29.563999 -12.257 -6.0900002
-29.384001 -12.491 -6.0580001
-29.434 -12.522 -6.2909999
-29.554001 -12.289 -6.323
-27.864 -13.438 -6.1329999
-27.854 -13.204 -6.164
-26.243999 -13.887 -6.0380001
-26.434 -13.653 -6.0689998
-25.084 -14.345 -5.9530001
-25.233999 -14.111 -5.9850001
-27.664 11.012 -9.625
-27.554001 11.255 -9.6560001
-27.813999 10.769 -9.5939999
-28.313999 10.506 -9.5749998
-28.653999 10.264 -9.5539999
-28.784 10.021 -9.5229998
-28.743999 9.7869997 -9.4910002
-28.664 9.5539999 -9.4589996
-28.774 9.3109999 -9.4280005
-28.764 9.0780001 -9.3959999
-28.774 8.8450003 -9.3640003
-28.823999 8.6110001 -9.3330002
-28.914 8.368 -9.302
-29.323999 8.1160002 -9.2810001
-29.714001 7.8629999 -9.2510004
-29.914 7.6199999 -9.2299995
-30.034 7.3870001 -9.198
-30.014 7.1539998 -9.1660004
-30.224001 6.9109998 -9.1350002
-31.084 6.6389999 -9.1269999
-31.534 6.3860002 -9.0959997
-31.874001 6.1440001 -9.0749998
-32.223999 5.8899999 -9.0450001
-32.924 5.6279998 -9.026
-33.153999 5.3959999 -9.0039997
-33.284 5.152 -8.9729996
-33.124001 4.9289999 -8.9399996
-34.324001 4.2129998 -8.6359997
-34.313999 4.4460001 -8.6669998
-34.153999 4.191 -8.868
-34.293999 4.415 -8.901
-36.464001 3.404 -8.8100004
-36.043999 3.6570001 -8.8400002
-36.694 3.1619999 -8.7880001
-36.604 2.9389999 -8.7559996
-36.594002 2.7049999 -8.724
-36.374001 2.4809999 -8.6820002
-36.094002 2.2579999 -8.6490002
-35.924 2.0250001 -8.6169996
-35.854 1.7920001 -8.585
-35.754002 1.568 -8.5530005
-35.723999 1.335 -8.5209999
-35.703999 1.102 -8.4890003
-35.754002 0.86900002 -8.4569998
-35.863998 0.62599999 -8.4259996
-35.824001 0.40200001 -8.3940001
-36.063999 0.16 -8.3730001
-36.183998 -0.082999997 -8.342
-35.854 -0.30700001 -8.2989998
-35.734001 -0.52999997 -8.2670002
-35.824001 -0.76300001 -8.2449999
-35.784 -0.99599999 -8.2130003
-35.793999 -1.229 -8.1809998
-35.813999 -1.4630001 -8.1490002
-36.014 -1.706 -8.118
-35.944 -1.939 -8.0860004
-36.344002 -2.181 -8.0649996
-36.534 -2.415 -8.0340004
-36.433998 -2.648 -8.0019999
-36.334 -2.881 -7.9699998
-35.703999 -3.095 -7.927
-35.914001 -3.3269999 -7.9050002
-36.203999 -3.5710001 -7.8740001
-34.334 -4.9219999 -7.6490002
-34.273998 -4.6890001 -7.6810002
-34.203999 -5.1560001 -7.6170001
-34.514 -5.3979998 -7.5960002
-34.933998 -5.6399999 -7.5749998
-35.234001 -5.8839998 -7.5440001
-35.054001 -6.1069999 -7.5120001
-34.933998 -6.3400002 -7.48
-34.433998 -7.2639999 -7.342
-34.523998 -7.0310001 -7.3740001
-34.234001 -7.487 -7.309
-34.254002 -7.7199998 -7.2779999
-34.324001 -7.9530001 -7.2459998
-34.113998 -8.1870003 -7.2140002
-34.133999 -8.4200001 -7.1820002
-33.874001 -8.6529999 -7.1500001
-33.664001 -8.8769999 -7.1079998
-33.484001 -9.1099997 -7.0760002
-33.374001 -9.3439999 -7.0440001
-32.723999 -9.5579996 -7.0009999
-32.804001 -9.8009996 -6.9699998
-32.504002 -10.025 -6.927
-32.403999 -10.258 -6.8959999
-30.704 -11.63 -6.6719999
-30.584 -11.397 -6.704
-29.694 -12.056 -6.355
-29.844 -11.822 -6.3969998
-29.643999 -12.087 -6.598
-29.714001 -11.854 -6.6300001
-26.194 -13.918 -6.2709999
-26.444 -13.684 -6.3130002
-25.024 -14.376 -6.1859999
-25.164 -14.143 -6.2179999
-27.754 10.971 -9.8690004
-27.233999 11.233 -9.8889999
-27.774 10.738 -9.8369999
-27.924 10.494 -9.8059998
-28.143999 10.251 -9.7749996
-28.334 10.008 -9.7440004
-28.524 9.7659998 -9.7229996
-28.414 9.5319996 -9.691
-28.384001 9.2989998 -9.6599998
-28.464001 9.066 -9.6280003
-28.594 8.823 -9.5970001
-28.674 8.5799999 -9.566
-28.634001 8.3459997 -9.5340004
-28.874001 8.1029997 -9.5030003
-29.474001 7.8410001 -9.4829998
-29.634001 7.6079998 -9.4519997
-29.884001 7.355 -9.4309998
-29.813999 7.1220002 -9.3999996
-30.204 6.8790002 -9.3690004
-30.094 6.6459999 -9.3369999
-31.284 6.3639998 -9.3290005
-31.073999 6.592 -9.1700001
-31.464001 6.1209998 -9.2980003
-31.903999 5.8790002 -9.2770004
-32.394001 5.6259999 -9.257
-32.993999 5.3639998 -9.2370005
-33.084 5.131 -9.2049999
-32.903999 4.8969998 -9.1730003
-34.144001 4.1589999 -9.1009998
-34.153999 4.3930001 -9.1330004
-34.473999 3.938 -8.8380003
-34.113998 3.9260001 -9.0690002
-36.403999 3.372 -9.0430002
-36.124001 3.6159999 -9.0740004
-36.554001 3.1389999 -9.0109997
-36.563999 2.9059999 -8.9790001
-36.464001 2.6730001 -8.9469995
-36.194 2.45 -8.915
-36.014 2.2260001 -8.882
-35.863998 1.993 -8.8500004
-35.723999 1.77 -8.8179998
-35.694 1.5369999 -8.7860003
-35.594002 1.303 -8.7539997
-35.594002 1.0700001 -8.7220001
-35.633999 0.83700001 -8.691
-35.734001 0.60399997 -8.6590004
-35.703999 0.37099999 -8.6269999
-36.084 0.12800001 -8.6059999
-35.883999 -0.106 -8.5640001
-35.734001 -0.329 -8.5319996
-35.633999 -0.56199998 -8.5
-35.613998 -0.79500002 -8.4680004
-35.534 -1.0190001 -8.4350004
-35.624001 -1.262 -8.4040003
-35.674 -1.494 -8.3830004
-35.834 -1.728 -8.3509998
-35.863998 -1.961 -8.3190002
-36.223999 -2.2030001 -8.2980003
-36.293999 -2.4460001 -8.2670002
-36.324001 -2.6800001 -8.2349997
-36.234001 -2.9030001 -8.2019997
-35.863998 -3.1270001 -8.1599998
-35.804001 -3.3599999 -8.1280003
-35.874001 -3.592 -8.1059999
-33.944 -4.9439998 -7.882
-34.223999 -4.7210002 -7.914
-34.004002 -5.177 -7.8499999
-34.284 -5.421 -7.8189998
-34.734001 -5.6630001 -7.7979999
-34.773998 -5.8959999 -7.7659998
-34.903999 -6.1389999 -7.7449999
-34.813999 -6.362 -7.7119999
-34.113998 -7.2859998 -7.5739999
-33.933998 -7.0430002 -7.5949998
-34.254002 -7.5190001 -7.5430002
-34.054001 -7.7519999 -7.5110002
-34.063999 -7.9850001 -7.4790001
-33.683998 -8.2089996 -7.4359999
-33.633999 -8.4420004 -7.4050002
-33.743999 -8.6759996 -7.3730001
-33.694 -8.9090004 -7.3410001
-33.273998 -9.132 -7.3080001
-33.054001 -9.3660002 -7.2670002
-32.604 -9.5889997 -7.2340002
-32.484001 -9.823 -7.1919999
-31.874001 -10.047 -7.1500001
-31.354 -10.706 -6.8099999
-31.424 -10.472 -6.8520002
-31.444 -10.737 -7.0539999
-31.454 -10.504 -7.085
-30.024 -11.652 -6.895
-30.584 -11.428 -6.9369998
-29.674 -12.119 -6.8309999
-29.594 -11.886 -6.8629999
-26.104 -13.95 -6.5040002
-26.224001 -13.717 -6.5359998
-24.784 -14.398 -6.4190001
-25.243999 -14.175 -6.4510002
-27.544001 10.949 -10.102
-27.114 11.211 -10.121
-27.764 10.706 -10.071
-27.893999 10.463 -10.04
-28.034 10.229 -10.008
-28.094 9.9860001 -9.9770002
-28.214001 9.7440004 -9.9560003
-28.354 9.5010004 -9.9250002
-28.364 9.2670002 -9.8929996
-28.184 9.0439997 -9.8599997
-28.284 8.8009996 -9.8290005
-28.364 8.5679998 -9.7969999
-28.563999 8.3249998 -9.7659998
-28.624001 8.0810003 -9.7349997
-29.284 7.8189998 -9.7159996
-29.604 7.5770001 -9.6949997
-29.604 7.3429999 -9.6630001
-29.764 7.0999999 -9.632
-30.124001 6.8470001 -9.6020002
-30.094 6.6139998 -9.5699997
-30.554001 6.3610001 -9.5500002
-31.214001 6.099 -9.5299997
-31.733999 5.8470001 -9.5100002
-31.854 5.6139998 -9.4779997
-32.584 5.3509998 -9.4589996
-32.834 5.1090002 -9.4379997
-32.714001 4.875 -9.3959999
-32.883999 4.664 -9.1420002
-32.633999 4.6420002 -9.3640003
-33.984001 4.1269999 -9.3240004
-33.903999 4.3699999 -9.3549995
-34.034 3.8940001 -9.3030005
-36.354 3.1170001 -9.243
-36.214001 3.3510001 -9.2749996
-36.433998 2.8740001 -9.2119999
-36.243999 2.651 -9.1800003
-36.004002 2.428 -9.1470003
-35.903999 2.1949999 -9.1149998
-35.813999 1.971 -9.0830002
-35.584 1.737 -9.0410004
-35.584 1.5039999 -9.0089998
-35.574001 1.272 -8.9870005
-35.543999 1.048 -8.9549999
-35.584 0.80500001 -8.9239998
-35.664001 0.57200003 -8.8920002
-35.683998 0.33899999 -8.8599997
-35.863998 0.106 -8.8280001
-35.773998 -0.12800001 -8.7969999
-35.563999 -0.35100001 -8.7639999
-35.514 -0.58399999 -8.7320004
-35.633999 -0.82700002 -8.7010002
-35.604 -1.0599999 -8.6689997
-35.264 -1.284 -8.6370001
