# .PCD v0.7 - Point Cloud Data file format
VERSION 0.7
FIELDS x y z
SIZE 4 4 4
TYPE F F F
COUNT 1 1 1
WIDTH 1358
HEIGHT 1
VIEWPOINT 0 0 0 1 0 0 0
POINTS 1358
DATA ascii
-0.059399631 0.041474346 0.18392873
-0.058024041 0.041303154 0.18418172
-0.056651287 0.041132301 0.18443424
-0.055281375 0.040961839 0.18468618
-0.053914294 0.04079172 0.18493769
-0.052550025 0.040621929 0.18518859
-0.051188581 0.04045251 0.18543902
-0.04982993 0.040283419 0.18568891
-0.048474081 0.040114686 0.18593827
-0.047121011 0.039946295 0.18618715
-0.045770716 0.039778244 0.18643555
-0.044423196 0.039610554 0.18668336
-0.043078434 0.039443206 0.18693072
-0.041736428 0.039276186 0.18717757
-0.04039716 0.039109539 0.18742391
-0.039060634 0.038943235 0.18766975
-0.03772682 0.038777243 0.18791503
-0.036395732 0.038611591 0.18815985
-0.035067353 0.03844627 0.1884042
-0.033741675 0.038281292 0.18864805
-0.032418691 0.038116645 0.18889138
-0.03109839 0.037952352 0.18913421
-0.029780762 0.037788358 0.18937665
-0.028465806 0.037624735 0.18961847
-0.027153511 0.037461407 0.18985984
-0.025843864 0.037298445 0.19010079
-0.024536867 0.037135776 0.19034114
-0.023232505 0.03697345 0.19058105
-0.021930763 0.036811452 0.19082054
-0.020631664 0.036649801 0.19105938
-0.01933516 0.036488455 0.19129789
-0.018041274 0.036327455 0.19153586
-0.016749976 0.036166742 0.19177341
-0.015461259 0.036006369 0.19201043
-0.014175126 0.035846323 0.19224703
-0.012891571 0.035686564 0.19248307
-0.011610581 0.035527155 0.19271874
-0.010332151 0.035368048 0.19295382
-0.0090562711 0.035209272 0.19318852
-0.0077829272 0.035050806 0.19342276
-0.0065121241 0.034892656 0.1936565
-0.005243843 0.034734827 0.19388977
-0.0039780908 0.034577318 0.19412258
-0.0027148465 0.034420088 0.19435492
-0.0014541164 0.034263249 0.19458684
-0.00019587844 0.034106676 0.19481823
0.0008437403 0.034860998 0.19416064
0.0018498799 0.035777751 0.19334486
0.0028607135 0.036698755 0.1925253
0.0038762742 0.037624039 0.19170195
0.0048965849 0.03855367 0.19087476
0.0059216861 0.039487649 0.19004372
0.0069516115 0.040426012 0.18920872
0.0079863984 0.041368846 0.18836978
0.0090260617 0.042316116 0.18752682
0.010070657 0.043267876 0.1866799
0.011120223 0.044224136 0.18582907
0.01217478 0.045184966 0.18497407
0.013234358 0.04615039 0.18411502
0.014299015 0.047120415 0.18325183
0.015368782 0.048095077 0.18238452
0.016443687 0.04907443 0.18151304
0.017523766 0.050058536 0.18063733
0.018609069 0.05104734 0.17975751
0.019699611 0.052040968 0.1788733
0.020795459 0.053039413 0.17798489
0.021896632 0.054042757 0.17709208
0.023003174 0.05505091 0.17619506
0.024115134 0.056064013 0.17529351
0.025232529 0.057082128 0.17438748
0.026355429 0.058105186 0.17347723
0.027483849 0.059133306 0.1725623
0.028617844 0.060166512 0.17164299
0.029757442 0.061204858 0.170719
0.030902706 0.062248312 0.16979054
0.032053653 0.063296951 0.1688574
0.033210337 0.064350948 0.16791955
0.034372676 0.06541121 0.166976
0.035540853 0.066476732 0.16602772
0.036714897 0.067547649 0.16507468
0.037894875 0.068623953 0.16411698
0.039080814 0.069705702 0.16315427
0.040272757 0.070792906 0.16218671
0.041470755 0.071885712 0.16121426
-0.14817388 0.041891299 0.17607346
-0.14664802 0.041712575 0.17634529
-0.14512542 0.041534226 0.17661646
-0.14360611 0.041356221 0.17688715
-0.14209011 0.041178677 0.1771571
-0.14057733 0.041001495 0.1774267
-0.13906778 0.040824667 0.1776956
-0.13756149 0.040648211 0.17796388
-0.13605842 0.040472157 0.17823166
-0.13455856 0.040296476 0.1784988
-0.13306189 0.040121127 0.17876548
-0.13156842 0.039946206 0.17903149
-0.13007812 0.039771654 0.17929697
-0.12859102 0.039597481 0.17956188
-0.12710705 0.039423618 0.17982623
-0.12562625 0.039250173 0.18008995
-0.12414856 0.039077103 0.18035328
-0.12267402 0.038904373 0.18061593
-0.12120261 0.038732029 0.18087801
-0.11973431 0.038560048 0.18113962
-0.11826912 0.03838845 0.18140057
-0.11680713 0.038217377 0.1816608
-0.11534826 0.038046759 0.18192041
-0.1138925 0.037876565 0.18217951
-0.11243979 0.037706695 0.18243796
-0.11099011 0.037537172 0.18269593
-0.10954346 0.037367988 0.18295342
-0.10809987 0.037199166 0.18321025
-0.10665926 0.037030682 0.18346658
-0.1052217 0.036862589 0.18372241
-0.10378714 0.036694832 0.18397775
-0.10235557 0.03652741 0.18423244
-0.10092695 0.036360331 0.18448669
-0.099501349 0.03619365 0.18474036
-0.098078698 0.036027286 0.18499357
-0.096658975 0.03586125 0.18524617
-0.095242232 0.035695568 0.18549824
-0.093828425 0.035530273 0.18574986
-0.092417538 0.03536528 0.18600094
-0.091009565 0.035200641 0.18625149
-0.08960449 0.035036318 0.18650147
-0.088202335 0.034872353 0.18675101
-0.086803064 0.034708716 0.18700004
-0.085406676 0.034545414 0.18724853
-0.084013179 0.034382477 0.18749645
-0.082622528 0.034219854 0.18774399
-0.081234723 0.034057558 0.1879909
-0.079849795 0.033895619 0.18823737
-0.078467682 0.033733994 0.1884833
-0.077088401 0.033572678 0.18872875
-0.075711951 0.033411689 0.1889737
-0.074338302 0.033251077 0.18921816
-0.072967477 0.033090822 0.18946204
-0.071599439 0.032930836 0.18970543
-0.070234179 0.032771148 0.18994847
-0.068871714 0.032611873 0.19019091
-0.067512006 0.03245284 0.19043279
-0.066155046 0.032294165 0.1906743
-0.064800866 0.032135773 0.19091532
-0.063449405 0.031977739 0.19115582
-0.062100697 0.031820033 0.19139579
-0.060754716 0.031662636 0.19163531
-0.059411451 0.03150554 0.19187438
-0.058070906 0.031348787 0.19211289
-0.056773566 0.031288799 0.19225517
-0.055501699 0.031285722 0.19234094
-0.054231182 0.031282626 0.19242662
-0.052962001 0.031279549 0.19251209
-0.051694166 0.031276483 0.19259763
-0.050427668 0.031273421 0.19268295
-0.049162503 0.031270325 0.19276825
-0.04789868 0.031267293 0.19285345
-0.046636198 0.031264227 0.19293854
-0.045375027 0.031261165 0.19302356
-0.044115197 0.031258114 0.19310847
-0.04285669 0.031255033 0.19319329
-0.041599508 0.031252 0.19327801
-0.040343653 0.031248983 0.19336265
-0.039089121 0.031245919 0.19344726
-0.0378359 0.031242885 0.19353172
-0.03658399 0.031239821 0.19361615
-0.035333402 0.031236801 0.1937004
-0.034084141 0.031233797 0.19378459
-0.032836169 0.031230778 0.19386876
-0.031589512 0.03122776 0.19395274
-0.030344157 0.031224756 0.19403669
-0.029100109 0.031221751 0.19412053
-0.027857369 0.031218717 0.1942043
-0.026615914 0.031215698 0.19428796
-0.025375759 0.031212708 0.19437161
-0.024136908 0.031209704 0.19445512
-0.022899341 0.031206686 0.1945385
-0.021663075 0.031203682 0.19462186
-0.020428093 0.031200679 0.19470513
-0.019194398 0.031197689 0.19478822
-0.01796199 0.031194717 0.19487131
-0.016730869 0.031191727 0.19495437
-0.015501025 0.031188738 0.19503722
-0.014272466 0.031185765 0.19512004
-0.013045189 0.031182805 0.19520274
-0.011819175 0.03117983 0.19528541
-0.01059444 0.031176858 0.1953679
-0.0093709771 0.031173898 0.1954504
-0.008148782 0.031170938 0.1955328
-0.0069278483 0.03116795 0.19561514
-0.0057081892 0.031165006 0.19569731
-0.0044898009 0.031162076 0.19577941
-0.0032726638 0.031159133 0.19586146
-0.0020567938 0.031156203 0.19594336
-0.00084217876 0.031153275 0.19602525
0.0003566349 0.031210558 0.19604796
0.0015233845 0.031399332 0.1959416
0.0026903241 0.031588133 0.19583529
0.0038574536 0.03177695 0.19572893
0.0050247768 0.031965826 0.19562262
0.0061922898 0.032154731 0.19551623
0.0073599969 0.032343652 0.19540983
0.008527902 0.032532632 0.19530344
0.0096127037 0.033115577 0.19481122
0.010633304 0.034022976 0.19400176
0.011658628 0.034934562 0.19318849
0.012688725 0.035850365 0.19237149
0.013723604 0.036770474 0.19155061
0.01476332 0.037694845 0.19072592
0.015807897 0.038623564 0.18989739
0.01685738 0.039556596 0.18906507
0.017911784 0.040494047 0.18822873
0.018971145 0.041435912 0.18738845
0.020035522 0.042382229 0.18654421
0.021104936 0.043332975 0.18569598
0.022179415 0.044288278 0.18484372
0.023259006 0.045248143 0.18398741
0.024343744 0.04621252 0.18312711
0.025433665 0.047181536 0.18226257
0.026528802 0.048155181 0.18139395
0.027629197 0.04913355 0.18052116
0.028734883 0.050116558 0.17964411
0.029845919 0.051104344 0.17876294
0.030962303 0.0520969 0.17787743
0.032084107 0.053094268 0.17698765
0.03321138 0.05409646 0.17609361
0.034344126 0.055103563 0.17519513
0.03548241 0.056115579 0.17429227
0.036626253 0.057132527 0.17338499
0.037775729 0.058154508 0.17247328
0.038930841 0.05918147 0.17155704
0.040091645 0.060213529 0.17063636
0.041258201 0.061250664 0.16971111
0.042430457 0.06229363 0.16878057
0.04360852 0.063342147 0.16784513
0.04479244 0.064395919 0.1669049
0.045982275 0.0654549 0.16596004
0.047178086 0.066519275 0.16501036
0.048379902 0.06758891 0.164056
0.049587768 0.068664007 0.16309685
0.050801728 0.069744535 0.1621328
0.052021842 0.070830457 0.16116396
-0.14880596 0.031848907 0.184026
-0.14731671 0.031685058 0.18428275
-0.14583062 0.03152163 0.18453905
-0.14434761 0.031358525 0.18479475
-0.14286776 0.031195765 0.18504995
-0.14139101 0.031033345 0.18530455
-0.13991751 0.030871538 0.18555841
-0.13844706 0.03071009 0.1858117
-0.13697974 0.030548953 0.18606448
-0.13551545 0.030388175 0.18631673
-0.13405421 0.030227724 0.18656844
-0.132596 0.0300676 0.18681964
-0.13114081 0.029907806 0.18707028
-0.12968864 0.029748337 0.18732044
-0.12823953 0.029589243 0.1875701
-0.12679337 0.029430447 0.18781918
-0.12543306 0.029401796 0.1879364
-0.12409125 0.029399654 0.18802667
-0.1227509 0.029397542 0.18811682
-0.12141198 0.029395415 0.18820697
-0.12007456 0.029393302 0.18829691
-0.11873854 0.029391145 0.18838683
-0.11740398 0.029389035 0.18847656
-0.11607085 0.029386908 0.18856627
-0.11473919 0.029384796 0.18865591
-0.11340895 0.029382668 0.18874538
-0.11208016 0.029380541 0.18883479
-0.11075278 0.029378416 0.1889241
-0.10942686 0.029376319 0.1890133
-0.10810236 0.029374192 0.18910238
-0.10677929 0.029372081 0.18919143
-0.10545763 0.029369984 0.18928036
-0.10413741 0.029367872 0.18936917
-0.10281862 0.029365791 0.18945786
-0.10150124 0.029363696 0.18954653
-0.10018527 0.029361585 0.18963507
-0.098870732 0.029359488 0.18972349
-0.097557575 0.02935739 0.18981186
-0.096245848 0.02935531 0.18990013
-0.094935529 0.029353227 0.18998829
-0.093626611 0.029351132 0.19007638
-0.092319094 0.029349035 0.19016436
-0.091012977 0.029346969 0.19025216
-0.089708269 0.029344887 0.19033995
-0.088404953 0.029342806 0.19042772
-0.087103024 0.029340738 0.19051528
-0.085802481 0.029338658 0.19060275
-0.084503353 0.02933659 0.19069019
-0.083205588 0.02933451 0.19077748
-0.081909209 0.029332459 0.19086471
-0.080614224 0.029330391 0.19095188
-0.079320602 0.029328311 0.19103891
-0.078028388 0.029326275 0.19112581
-0.076737523 0.029324193 0.19121268
-0.075448044 0.029322157 0.19129944
-0.074159943 0.029320091 0.1913861
-0.07287322 0.029318053 0.19147268
-0.071587838 0.029315988 0.19155914
-0.070303828 0.029313952 0.1916455
-0.069021188 0.029311914 0.19173184
-0.067739911 0.029309863 0.19181809
-0.066459991 0.029307827 0.19190416
-0.065181419 0.029305777 0.1919902
-0.063904203 0.029303756 0.19207606
-0.062628351 0.029301718 0.19216198
-0.061353855 0.029299682 0.19224772
-0.060080677 0.029297646 0.19233343
-0.058808856 0.02929561 0.19241893
-0.057538394 0.029293574 0.19250441
-0.056269262 0.029291583 0.19258982
-0.055001471 0.029289562 0.19267508
-0.053735014 0.029287525 0.19276032
-0.052469905 0.029285518 0.19284543
-0.051206119 0.029283497 0.19293049
-0.049943667 0.029281506 0.19301537
-0.048682533 0.02927947 0.19310024
-0.047422737 0.029277464 0.193185
-0.046164267 0.029275473 0.19326973
-0.044907108 0.029273437 0.19335434
-0.043651279 0.029271461 0.19343877
-0.042396769 0.02926944 0.19352323
-0.041143578 0.029267449 0.19360751
-0.039891697 0.02926546 0.1936917
-0.038641125 0.029263468 0.19377589
-0.037391871 0.029261492 0.19385993
-0.036143918 0.029259503 0.19394389
-0.034897268 0.029257497 0.19402781
-0.033651937 0.029255535 0.19411156
-0.032407895 0.029253544 0.19419521
-0.031165153 0.029251538 0.19427884
-0.029923709 0.029249577 0.19436237
-0.02868358 0.029247645 0.19444582
-0.027444724 0.029245656 0.19452915
-0.02620717 0.02924368 0.19461244
-0.024970893 0.029241703 0.19469559
-0.02373592 0.029239742 0.19477865
-0.022502219 0.029237783 0.19486168
-0.021269817 0.029235821 0.19494462
-0.020038685 0.02923386 0.19502744
-0.018808834 0.029231884 0.1951102
-0.017580252 0.029229924 0.19519284
-0.016352965 0.029227978 0.19527537
-0.015126939 0.029226016 0.19535792
-0.013902188 0.029224057 0.19544029
-0.012678714 0.02922211 0.19552264
-0.011456496 0.029220179 0.19560486
-0.010235555 0.029218234 0.19568703
-0.0090158675 0.029216288 0.19576907
-0.0077974414 0.029214373 0.19585103
-0.0065802932 0.029212471 0.19593287
-0.0053643892 0.02921051 0.19601467
-0.0041497555 0.02920864 0.19609633
-0.002936359 0.029206678 0.19617799
-0.0017242326 0.029204793 0.19625956
-0.00051333167 0.029202862 0.19634104
0.00066944223 0.029311914 0.1963129
0.0018329881 0.02950003 0.19620693
0.0029967239 0.029688176 0.19610089
0.0041606571 0.029876336 0.19599488
0.005324773 0.030064497 0.19588888
0.0064890827 0.030252717 0.19578278
0.0076535861 0.030440982 0.19567674
0.0088182678 0.030629247 0.19557065
0.0099831587 0.030817542 0.19546449
0.011148225 0.031005913 0.19535831
0.012313487 0.031194268 0.19525227
0.01347894 0.03138268 0.19514602
0.014644587 0.031571124 0.19503984
0.015810421 0.031759582 0.19493371
0.016976452 0.031948071 0.19482744
0.018142659 0.032136604 0.19472119
0.01930907 0.032325152 0.19461498
0.020355182 0.033190694 0.19384399
0.021399396 0.034097243 0.19303319
0.02244845 0.03500792 0.19221863
0.023502368 0.035922859 0.19140029
0.024561187 0.036842059 0.19057816
0.025624948 0.037765507 0.18975219
0.026693676 0.038693286 0.18892241
0.027767403 0.039625403 0.18808866
0.028846173 0.040561903 0.18725106
0.029930014 0.041502815 0.18640941
0.031018961 0.042448137 0.18556392
0.032113064 0.04339797 0.18471438
0.033212356 0.044352304 0.18386081
0.034316864 0.045311097 0.18300328
0.035426624 0.046274535 0.18214154
0.036541682 0.047242519 0.18127573
0.037662063 0.04821521 0.18040574
0.038787842 0.049192451 0.17953163
0.039919022 0.050174456 0.17865336
0.041055638 0.051161185 0.17777076
0.042197756 0.052152649 0.17688397
0.043345395 0.053148959 0.17599285
0.044498608 0.054150097 0.17509741
0.045657426 0.055156123 0.17419758
0.046821907 0.056166992 0.1732935
0.04799208 0.057182834 0.17238489
0.04916798 0.058203671 0.17147183
0.050349638 0.059229679 0.17055413
0.051537052 0.060261648 0.169631
0.052730348 0.061298631 0.16870338
0.053929538 0.062340822 0.16777119
0.055134702 0.063388184 0.16683426
0.056345861 0.064440764 0.16589281
0.057563063 0.065498561 0.16494656
0.058786362 0.066561714 0.16399556
0.060015801 0.067630142 0.16303986
0.061251409 0.068703964 0.1620793
0.062493261 0.069783203 0.16111392
0.063741386 0.070867896 0.16014367
-0.14902632 0.027377846 0.18665949
-0.14766258 0.027376821 0.18675107
-0.14630032 0.027375782 0.18684256
-0.14493953 0.027374743 0.18693399
-0.14358024 0.027373688 0.18702525
-0.14222245 0.027372634 0.18711641
-0.1408661 0.027371595 0.18720755
-0.13951127 0.027370555 0.18729851
-0.13815787 0.027369516 0.18738937
-0.13680598 0.027368477 0.18748018
-0.13545555 0.027367422 0.18757093
-0.13410661 0.027366398 0.1876615
-0.13275909 0.027365373 0.18775198
-0.13141309 0.027364334 0.18784234
-0.13006851 0.027363295 0.18793267
-0.12872539 0.027362272 0.18802291
-0.12738374 0.027361248 0.18811294
-0.12604354 0.027360223 0.18820298
-0.12470478 0.027359184 0.18829286
-0.12336748 0.027358174 0.18838269
-0.12203162 0.027357135 0.18847236
-0.12069721 0.027356097 0.18856201
-0.11936425 0.027355073 0.18865156
-0.11803271 0.027354049 0.188741
-0.11670262 0.027353039 0.18883026
-0.115374 0.027352061 0.18891951
-0.11404677 0.027351037 0.18900856
-0.11272098 0.027350012 0.18909761
-0.11139661 0.027349003 0.1891866
-0.11007369 0.02734801 0.18927541
-0.10875216 0.027346985 0.18936417
-0.10743207 0.027345976 0.18945286
-0.10611338 0.027344938 0.1895414
-0.10479613 0.027343944 0.18962979
-0.10348028 0.027342921 0.18971819
-0.10216586 0.027341926 0.18980643
-0.10085284 0.027340902 0.18989465
-0.099541217 0.027339894 0.1899828
-0.09823101 0.027338885 0.19007072
-0.096922204 0.027337877 0.19015864
-0.095614806 0.027336882 0.19024643
-0.094308786 0.02733589 0.19033414
-0.093004175 0.02733488 0.19042179
-0.091700971 0.027333872 0.19050929
-0.090399139 0.027332893 0.19059667
-0.089098714 0.027331887 0.19068405
-0.087799668 0.027330879 0.19077131
-0.086502001 0.027329899 0.19085839
-0.085205711 0.027328892 0.19094545
-0.083910823 0.027327882 0.19103244
-0.082617298 0.027326904 0.19111928
-0.081325151 0.027325911 0.19120607
-0.080034383 0.027324917 0.19129276
-0.078744993 0.027323909 0.1913794
-0.077456959 0.027322916 0.19146588
-0.07617031 0.027321966 0.19155222
-0.074885003 0.027320959 0.19163859
-0.073601082 0.027319996 0.19172484
-0.072318494 0.027318988 0.19181097
-0.071037285 0.027317993 0.19189695
-0.069757439 0.027317045 0.19198292
-0.068478934 0.027316052 0.19206882
-0.067201786 0.02731506 0.19215453
-0.065925993 0.02731408 0.19224027
-0.064651549 0.027313117 0.19232586
-0.063378446 0.027312124 0.19241133
-0.062106673 0.027311146 0.19249675
-0.060836267 0.027310168 0.19258204
-0.059567183 0.027309205 0.19266731
-0.05829946 0.027308242 0.19275242
-0.057033047 0.027307279 0.19283745
-0.055767968 0.027306285 0.19292241
-0.054504227 0.027305307 0.19300732
-0.053241819 0.027304359 0.19309205
-0.051980738 0.027303381 0.19317672
-0.050720971 0.027302403 0.19326138
-0.049462531 0.027301425 0.19334587
-0.048205417 0.027300462 0.1934303
-0.046949614 0.027299499 0.19351465
-0.045695141 0.027298551 0.19359887
-0.044441972 0.027297588 0.19368303
-0.043190129 0.027296625 0.1937671
-0.041939586 0.027295694 0.19385108
-0.040690344 0.027294701 0.19393498
-0.039442409 0.027293738 0.19401878
-0.038195796 0.02729279 0.19410256
-0.036950469 0.027291812 0.19418612
-0.035706442 0.027290879 0.19426972
-0.034463719 0.027289931 0.19435316
-0.033222288 0.027288953 0.19443655
-0.031982161 0.027288022 0.19451988
-0.03074332 0.027287059 0.194603
-0.029505758 0.027286096 0.19468611
-0.028269492 0.027285147 0.19476911
-0.02703453 0.027284229 0.19485208
-0.02580083 0.027283298 0.19493493
-0.024568424 0.02728232 0.1950177
-0.023337292 0.027281372 0.19510037
-0.02210745 0.02728047 0.19518298
-0.020878863 0.027279507 0.1952655
-0.019651568 0.027278574 0.19534785
-0.018425528 0.027277641 0.19543022
-0.017200764 0.027276695 0.19551244
-0.015977273 0.027275762 0.19559464
-0.014755054 0.027274845 0.19567668
-0.013534088 0.027273897 0.1957587
-0.012314395 0.027272994 0.19584057
-0.011095959 0.027272062 0.19592234
-0.0098787844 0.027271189 0.19600406
-0.0086628655 0.027270243 0.19608575
-0.007448195 0.027269354 0.19616729
-0.006234772 0.027268406 0.19624877
-0.0050226194 0.027267519 0.19633016
-0.0038116961 0.027266586 0.19641149
-0.0026020282 0.027265655 0.19649267
-0.0013936008 0.027264751 0.19657379
-0.0001864103 0.02726382 0.19665486
0.0009805361 0.027423745 0.19657648
0.0021408894 0.027611161 0.1964708
0.0033014514 0.027798621 0.19636515
0.0044621886 0.027986111 0.19625941
0.0056231157 0.028173631 0.19615364
0.0067842402 0.028361196 0.1960479
0.0079455506 0.02854876 0.19594216
0.0091070514 0.028736355 0.19583634
0.010268735 0.028924039 0.19573048
0.011430616 0.029111663 0.19562477
0.01259269 0.029299377 0.19551888
0.013754947 0.02948712 0.19541302
0.014917393 0.029674863 0.19530714
0.016080035 0.029862667 0.19520128
0.017242866 0.030050484 0.19509539
0.018405883 0.030238317 0.19498941
0.019569084 0.030426212 0.1948835
0.020732481 0.030614119 0.19477752
0.021896075 0.030802071 0.19467154
0.023059849 0.030990053 0.19456553
0.024223816 0.03117805 0.19445956
0.025387976 0.031366076 0.19435355
0.026552323 0.031554148 0.19424748
0.02771686 0.031742234 0.19414142
0.028881589 0.031930365 0.19403532
0.030010058 0.032364182 0.19368738
0.031072887 0.033265676 0.19287896
0.032140628 0.034171272 0.19206688
0.033213276 0.035081115 0.19125101
0.034290921 0.035995144 0.19043139
0.035373557 0.036913432 0.18960798
0.036461249 0.037835985 0.18878067
0.037554 0.038762845 0.18794957
0.038651861 0.039694052 0.18711457
0.039754886 0.040629599 0.18627569
0.040863086 0.041569538 0.18543276
0.041976493 0.042513948 0.18458593
0.043095171 0.043462798 0.18373507
0.04421914 0.044416118 0.18288025
0.045348432 0.045373973 0.18202132
0.046483103 0.046336401 0.18115827
0.047623172 0.047303401 0.18029112
0.048768699 0.04827499 0.17941993
0.049919713 0.049251284 0.17854449
0.051076237 0.050232247 0.17766491
0.052238345 0.051217888 0.176781
0.053406049 0.052208312 0.17589286
0.054579396 0.053203549 0.17500043
0.055758443 0.0542036 0.17410368
0.056943201 0.055208478 0.1732026
0.058133736 0.056218285 0.17229712
0.059330057 0.057233769 0.17138648
0.060532209 0.058254488 0.17047107
0.061740272 0.059280243 0.16955116
0.062954284 0.060311031 0.16862676
0.064174294 0.061346915 0.16769785
0.065400317 0.062387943 0.16676423
0.066632465 0.063434094 0.16582599
0.067870721 0.064485505 0.16488314
0.069115132 0.065542117 0.16393563
0.070365779 0.066604033 0.16298324
0.071622692 0.067671239 0.16202617
0.072885923 0.06874384 0.16106427
0.074155509 0.069821835 0.1600976
-0.14822011 0.025327798 0.18702236
-0.14686103 0.025327861 0.18711343
-0.14550342 0.02532794 0.18720439
-0.14414728 0.025328003 0.18729532
-0.14279263 0.025328081 0.18738613
-0.14143944 0.025328159 0.18747681
-0.14008772 0.025328223 0.18756744
-0.13873747 0.025328301 0.18765798
-0.13738866 0.025328379 0.18774843
-0.13604137 0.025328442 0.18783867
-0.13469552 0.025328536 0.18792894
-0.1333511 0.025328569 0.18801904
-0.13200817 0.025328677 0.1881091
-0.13066667 0.025328742 0.18819898
-0.12932664 0.025328806 0.18828884
-0.12798807 0.025328884 0.18837851
-0.12665091 0.025328962 0.18846819
-0.1253152 0.025329011 0.18855768
-0.12398096 0.025329089 0.18864718
-0.12264815 0.025329169 0.18873647
-0.12131677 0.025329232 0.18882573
-0.11998684 0.02532931 0.18891492
-0.11865831 0.025329374 0.18900397
-0.11733127 0.025329454 0.18909287
-0.11600559 0.025329517 0.18918175
-0.11468139 0.025329595 0.18927059
-0.11335857 0.025329661 0.18935922
-0.11203719 0.025329739 0.18944776
-0.11071722 0.025329787 0.18953624
-0.10939869 0.025329912 0.18962458
-0.10808158 0.02532999 0.18971291
-0.10676584 0.025330056 0.18980113
-0.10545155 0.025330134 0.18988922
-0.10413866 0.025330197 0.18997717
-0.10282715 0.025330262 0.19006512
-0.10151707 0.02533034 0.19015294
-0.10020837 0.025330406 0.19024065
-0.098901086 0.025330469 0.1903283
-0.097595207 0.025330564 0.1904158
-0.096290693 0.025330612 0.1905033
-0.094987601 0.025330707 0.19059059
-0.093685873 0.025330771 0.19067785
-0.09238553 0.025330821 0.19076505
-0.091086581 0.025330884 0.1908522
-0.089789025 0.02533095 0.1909391
-0.088492841 0.025331059 0.19102603
-0.087198034 0.025331093 0.19111279
-0.085904621 0.025331173 0.19119951
-0.084612548 0.025331238 0.19128615
-0.083321884 0.025331331 0.1913726
-0.082032569 0.025331382 0.19145906
-0.080744624 0.025331477 0.19154537
-0.079458043 0.025331525 0.19163162
-0.078172833 0.02533159 0.19171774
-0.076888978 0.02533167 0.19180387
-0.07560648 0.025331719 0.19188982
-0.074325345 0.025331769 0.19197568
-0.073045559 0.025331864 0.19206154
-0.071767136 0.025331929 0.1921472
-0.070490055 0.025331995 0.19223282
-0.069214314 0.025332073 0.19231826
-0.06793993 0.025332138 0.19240376
-0.066666901 0.025332218 0.19248909
-0.065395191 0.025332268 0.19257429
-0.064124845 0.025332363 0.19265947
-0.062855817 0.025332414 0.19274455
-0.061588135 0.025332479 0.19282949
-0.060321786 0.025332559 0.19291437
-0.059056759 0.025332607 0.19299921
-0.057793066 0.025332673 0.19308391
-0.056530695 0.025332738 0.19316849
-0.055269659 0.025332803 0.19325307
-0.054009948 0.025332883 0.1933375
-0.052751545 0.025332963 0.19342184
-0.051494475 0.025333013 0.19350612
-0.050238717 0.025333079 0.19359025
-0.048984271 0.025333159 0.19367439
-0.047731142 0.025333239 0.19375837
-0.046479318 0.025333289 0.19384232
-0.045228805 0.025333369 0.1939261
-0.043979593 0.025333421 0.19400987
-0.042731691 0.025333486 0.19409353
-0.041485094 0.025333552 0.19417709
-0.0402398 0.025333617 0.19426057
-0.038995791 0.025333682 0.19434392
-0.03775309 0.025333747 0.19442725
-0.036511675 0.025333798 0.19451046
-0.035271555 0.02533388 0.19459361
-0.034032732 0.02533396 0.19467667
-0.032795191 0.02533401 0.19475964
-0.03155895 0.025334105 0.19484243
-0.030323969 0.02533417 0.19492525
-0.029090283 0.025334237 0.19500798
-0.027857874 0.025334273 0.19509053
-0.026626753 0.025334368 0.19517308
-0.025396889 0.025334405 0.19525549
-0.024168309 0.025334485 0.19533789
-0.022941006 0.025334535 0.19542018
-0.021714982 0.025334645 0.19550234
-0.020490225 0.025334757 0.19558439
-0.019266719 0.025334807 0.19566643
-0.0180445 0.025334949 0.19574827
-0.016823519 0.025334984 0.19583017
-0.015603815 0.025335094 0.19591182
-0.01438536 0.025335161 0.19599354
-0.013168167 0.025335226 0.19607511
-0.011952226 0.025335308 0.19615659
-0.010737533 0.025335358 0.19623801
-0.0095240986 0.025335468 0.19631934
-0.0083119012 0.025335521 0.19640061
-0.0071009672 0.025335616 0.19648176
-0.0058912695 0.025335683 0.19656286
-0.0046828161 0.025335778 0.1966438
-0.0034755995 0.025335845 0.19672474
-0.0022696306 0.02533594 0.1968056
-0.001064895 0.025336022 0.1968863
0.00013290113 0.025359215 0.19694388
0.001289913 0.02554593 0.19683859
0.0024471073 0.025732705 0.19673321
0.0036044803 0.02591951 0.19662777
0.0047620581 0.026106345 0.19652238
0.0059198262 0.026293179 0.19641694
0.0070777731 0.026480028 0.1963115
0.0082359174 0.026666967 0.19620609
0.0093942406 0.026853921 0.19610062
0.010552757 0.027040889 0.19599509
0.011711457 0.02722789 0.19588959
0.012870354 0.027414903 0.19578406
0.014029433 0.027602006 0.19567847
0.015188705 0.027789049 0.19557297
0.016348161 0.027976196 0.19546741
0.017507806 0.028163329 0.19536179
0.018667649 0.028350506 0.19525623
0.019827671 0.028537728 0.19515055
0.020987887 0.02872498 0.1950449
0.022148289 0.028912231 0.19493926
0.023308888 0.029099543 0.19483358
0.02446967 0.029286869 0.19472793
0.025630634 0.029474225 0.19462222
0.026791792 0.029661641 0.19451648
0.027953137 0.029849041 0.19441071
0.029114684 0.030036503 0.19430497
0.030276416 0.030223979 0.19419914
0.031438325 0.030411499 0.19409335
0.032600436 0.030599048 0.19398755
0.033762731 0.030786613 0.19388175
0.034925207 0.030974222 0.19377586
0.036087889 0.031161876 0.19366997
0.037250757 0.031349529 0.19356412
0.0384138 0.031537227 0.19345823
0.039577045 0.031724956 0.19335228
0.04067979 0.03243982 0.19272581
0.041765913 0.033340424 0.19191614
0.042857047 0.034245171 0.1911028
0.04395321 0.03515413 0.19028568
0.045054439 0.036067296 0.18946475
0.046160802 0.03698463 0.18864006
0.047272302 0.037906289 0.18781149
0.048388965 0.038832251 0.18697909
0.049510863 0.039762504 0.1861428
0.050637998 0.040697128 0.18530256
0.051770434 0.041636158 0.1844584
0.052908208 0.042579588 0.18361023
0.054051328 0.043527439 0.18275812
0.055199854 0.044479806 0.18190199
0.056353822 0.045436688 0.18104166
0.057513271 0.046398114 0.18017742
0.058678247 0.047364086 0.17930901
0.059848778 0.048334677 0.17843646
0.061024901 0.049309932 0.1775597
0.062206678 0.050289866 0.17667881
0.063394107 0.05127446 0.17579362
0.064587295 0.052263856 0.1749042
0.065786228 0.053257991 0.17401046
0.066990942 0.054257222 0.17311215
0.068201505 0.055262066 0.1722087
0.069417953 0.056271769 0.17130092
0.070640348 0.057286438 0.17038861
0.07186871 0.058306038 0.16947195
0.073103115 0.059330653 0.1685507
0.074343577 0.060360312 0.16762501
0.075590171 0.061395064 0.16669467
0.076842904 0.062434912 0.16575977
0.078101866 0.063479915 0.16482028
0.079367094 0.064530149 0.16387603
0.080638595 0.065585531 0.16292709
0.081916451 0.066646233 0.16197348
0.083200708 0.067712232 0.16101506
0.084491394 0.068783596 0.16005185
-0.14877486 0.023289176 0.18729219
-0.1474189 0.023290372 0.18738291
-0.14606445 0.023291552 0.18747348
-0.14471146 0.023292718 0.18756405
-0.14335993 0.023293929 0.18765444
-0.14200987 0.023295065 0.18774483
-0.14066124 0.023296261 0.18783504
-0.13931413 0.023297427 0.18792516
-0.13796845 0.023298593 0.18801522
-0.1366242 0.023299759 0.18810514
-0.13528146 0.023300925 0.18819502
-0.13394013 0.023302106 0.18828475
-0.13260028 0.023303289 0.1883744
-0.13126184 0.02330444 0.18846396
-0.12992486 0.023305591 0.18855345
-0.12858933 0.023306772 0.18864277
-0.12725526 0.023307938 0.18873203
-0.12592258 0.023309091 0.1888212
-0.12459137 0.023310257 0.18891031
-0.12326157 0.023311393 0.18899927
-0.12193321 0.023312574 0.18908817
-0.12060629 0.023313727 0.18917689
-0.11928079 0.023314863 0.18926558
-0.1179567 0.023316029 0.18935421
-0.11663403 0.023317168 0.18944269
-0.11531281 0.023318334 0.18953109
-0.11399297 0.023319485 0.18961942
-0.11267457 0.023320623 0.18970764
-0.11135758 0.023321789 0.18979573
-0.11004199 0.023322925 0.1898838
-0.10872781 0.023324048 0.18997172
-0.10741504 0.023325199 0.19005957
-0.10610367 0.023326367 0.19014731
-0.1047937 0.023327488 0.1902349
-0.10348516 0.023328671 0.1903224
-0.10217798 0.023329807 0.19040993
-0.1008722 0.02333096 0.19049725
-0.099567808 0.023332067 0.19058457
-0.098264813 0.02333322 0.19067177
-0.096963204 0.023334341 0.19075888
-0.095662989 0.023335479 0.19084582
-0.094364144 0.023336601 0.19093278
-0.093066692 0.023337724 0.19101956
-0.091770597 0.023338862 0.19110635
-0.090475887 0.023339983 0.19119295
-0.089182571 0.023341136 0.19127944
-0.087890618 0.023342242 0.1913659
-0.086600035 0.023343381 0.19145226
-0.085310817 0.023344474 0.19153854
-0.084022962 0.02334561 0.1916247
-0.082736462 0.023346733 0.19171077
-0.081451342 0.023347842 0.19179678
-0.080167569 0.023348965 0.1918827
-0.078885153 0.023350086 0.1919685
-0.077604078 0.023351179 0.19205421
-0.076324381 0.023352303 0.1921398
-0.075046033 0.023353411 0.19222534
-0.073769026 0.023354547 0.19231072
-0.072493367 0.023355655 0.1923961
-0.071219057 0.023356764 0.19248146
-0.069946088 0.023357857 0.19256663
-0.068674453 0.023358965 0.19265166
-0.067404151 0.023360088 0.19273669
-0.06613519 0.023361182 0.19282156
-0.064867564 0.023362288 0.19290638
-0.063601278 0.023363382 0.19299111
-0.062336296 0.023364475 0.19307575
-0.061072666 0.023365568 0.19316033
-0.059810355 0.02336669 0.19324473
-0.058549356 0.023367783 0.19332913
-0.057289701 0.023368921 0.19341344
-0.056031346 0.023369985 0.19349763
-0.054774322 0.023371078 0.19358176
-0.053518597 0.023372157 0.19366574
-0.052264206 0.023373265 0.19374973
-0.0510111 0.023374358 0.19383353
-0.049759313 0.023375437 0.19391727
-0.048508838 0.02337653 0.19400093
-0.047259666 0.023377594 0.19408455
-0.046011794 0.023378704 0.194168
-0.044765223 0.023379782 0.19425139
-0.043519955 0.02338089 0.19433475
-0.042275969 0.023381954 0.19441804
-0.041033294 0.023383033 0.19450119
-0.039791908 0.023384111 0.19458422
-0.038551815 0.023385204 0.19466716
-0.037313003 0.023386285 0.1947501
-0.03607548 0.023387378 0.19483283
-0.034839243 0.023388442 0.19491556
-0.033604275 0.023389505 0.19499826
-0.032370608 0.023390586 0.19508079
-0.031138208 0.023391664 0.19516325
-0.029907087 0.023392742 0.19524559
-0.02867724 0.023393806 0.19532788
-0.027448669 0.023394886 0.1954101
-0.026221382 0.02339601 0.19549218
-0.024995346 0.023397058 0.19557419
-0.023770574 0.023398153 0.19565615
-0.022547083 0.023399247 0.19573793
-0.021324847 0.023400325 0.19581977
-0.020103868 0.023401391 0.19590139
-0.018884143 0.023402454 0.19598302
-0.01766569 0.023403564 0.1960645
-0.016448479 0.023404613 0.19614598
-0.01523253 0.023405692 0.19622728
-0.014017822 0.023406757 0.19630858
-0.012804373 0.02340785 0.19638976
-0.011592161 0.023408886 0.19647083
-0.0103812 0.023409979 0.19655186
-0.0091714803 0.023411045 0.1966328
-0.007963012 0.023412153 0.1967136
-0.006755766 0.023413174 0.19679439
-0.0055497675 0.023414237 0.19687507
-0.0043450017 0.023415318 0.19695562
-0.0031414656 0.023416337 0.19703618
-0.0019391736 0.023417447 0.19711661
-0.00073810352 0.023418512 0.19719699
0.00044372724 0.023492396 0.19720426
0.0015975875 0.023678441 0.19709924
0.002751634 0.023864562 0.1969941
0.0039058705 0.024050681 0.19688907
0.0050602895 0.024236845 0.19678396
0.0062148985 0.02442304 0.19667885
0.0073696934 0.024609264 0.19657373
0.0085246833 0.024795502 0.19646856
0.0096798465 0.024981786 0.19636342
0.010835212 0.025168084 0.19625819
0.011990748 0.025354426 0.19615304
0.013146482 0.025540814 0.19604775
0.014302406 0.025727216 0.19594255
0.015458509 0.025913633 0.19583729
0.016614813 0.026100095 0.19573203
0.017771289 0.026286587 0.19562671
0.018927973 0.026473064 0.19552147
0.020084839 0.026659615 0.19541615
0.021241883 0.026846183 0.19531086
0.022399122 0.02703278 0.19520551
0.023556545 0.027219452 0.19510007
0.024714153 0.027406093 0.19499472
0.025871959 0.027592808 0.19488934
0.027029939 0.027779508 0.19478393
0.028188121 0.027966268 0.19467849
0.029346488 0.028153058 0.19457299
0.030505046 0.028339878 0.19446754
0.031663779 0.028526712 0.19436207
0.032822713 0.028713606 0.19425663
0.03398183 0.0289005 0.19415107
0.035141129 0.029087454 0.19404554
0.036300626 0.029274423 0.19393998
0.037460312 0.029461391 0.19383433
0.038620185 0.029648436 0.1937288
0.039780248 0.029835479 0.19362321
0.040940497 0.030022597 0.1935176
0.042100936 0.0302097 0.19341201
0.043261569 0.030396832 0.19330627
0.044422381 0.030584054 0.19320062
0.045583382 0.030771246 0.19309494
0.046744585 0.030958498 0.19298926
0.047905967 0.031145765 0.19288349
0.049067538 0.031333059 0.19277778
0.050220788 0.031619657 0.1925737
0.051325031 0.032515269 0.1917665
0.052434348 0.03341502 0.19095555
0.053548761 0.034318916 0.19014093
0.054668326 0.035226952 0.18932256
0.055793051 0.036139239 0.18850031
0.056923009 0.037055708 0.18767434
0.058058195 0.037976474 0.1868445
0.05919867 0.038901482 0.18601084
0.060344473 0.039830811 0.18517324
0.061495624 0.040764507 0.18433174
0.062652171 0.041702583 0.18348628
0.063814171 0.042645045 0.18263689
0.064981632 0.043591958 0.18178347
0.066154592 0.044543371 0.180926
0.067333132 0.045499224 0.1800645
0.06851723 0.046459638 0.17919892
0.069706984 0.047424655 0.1783292
0.070902392 0.048394263 0.17745534
0.072103523 0.049368411 0.17657733
0.07331039 0.050347347 0.17569506
0.074523062 0.051330917 0.17480856
0.075741567 0.05232003 0.17391711
0.07696595 0.053314127 0.17302108
0.078196257 0.054313015 0.17212072
0.079432562 0.055316787 0.17121592
0.080674857 0.056325421 0.17030686
0.081923202 0.057338987 0.16939321
0.083177656 0.058357462 0.16847527
0.084438264 0.059380967 0.16755271
0.085705057 0.06040949 0.16662565
0.086978093 0.061443105 0.16569397
0.08825741 0.062481765 0.16475779
0.089543052 0.063525625 0.16381693
0.090835102 0.064574614 0.16287139
0.092133552 0.065628856 0.16192111
0.093438484 0.066688381 0.16096619
0.094749935 0.067753121 0.16000643
0.096067972 0.068823293 0.15904182
-0.14797398 0.021263221 0.18765101
-0.14662266 0.021265492 0.18774122
-0.14527276 0.021267761 0.18783134
-0.14392434 0.021270014 0.18792146
-0.14257739 0.021272283 0.18801141
-0.14123191 0.021274552 0.18810129
-0.13988785 0.021276835 0.18819103
-0.13854527 0.021279089 0.1882807
-0.13720414 0.021281343 0.18837026
-0.13586441 0.021283582 0.18845978
-0.13452618 0.021285836 0.18854919
-0.13318938 0.021288121 0.18863842
-0.13185401 0.02129036 0.18872765
-0.13052006 0.021292584 0.18881667
-0.12918757 0.021294838 0.18890572
-0.12785651 0.021297093 0.18899462
-0.12652689 0.021299332 0.18908337
-0.12519866 0.021301541 0.18917212
-0.12387189 0.021303795 0.18926072
-0.12254657 0.021306006 0.1893492
-0.12122263 0.021308245 0.18943766
-0.1199001 0.021310484 0.18952599
-0.11857903 0.021312695 0.18961424
-0.11725935 0.021314934 0.1897023
-0.11594107 0.021317128 0.1897904
-0.11462421 0.021319354 0.1898784
-0.11330876 0.021321578 0.18996623
-0.11199471 0.021323774 0.19005397
-0.11068209 0.021326013 0.19014162
-0.10937083 0.021328192 0.19022921
-0.10806101 0.021330418 0.19031668
-0.10675255 0.021332612 0.19040406
-0.1054455 0.021334793 0.19049135
-0.10413986 0.021336986 0.19057861
-0.10283557 0.021339182 0.19066569
-0.10153269 0.021341391 0.19075269
-0.1002312 0.021343557 0.19083962
-0.098931096 0.021345768 0.19092643
-0.097632386 0.021347992 0.19101313
-0.096335039 0.021350173 0.19109979
-0.095039062 0.021352338 0.1911864
-0.093744464 0.021354549 0.19127283
-0.09245123 0.021356715 0.19135916
-0.091159381 0.021358894 0.19144547
-0.089868896 0.02136106 0.19153169
-0.088579759 0.021363212 0.19161773
-0.087291993 0.021365391 0.19170383
-0.086005606 0.021367557 0.19178966
-0.084720567 0.021369739 0.19187546
-0.083436884 0.021371888 0.19196126
-0.082154565 0.021374039 0.19204688
-0.080873594 0.021376191 0.19213241
-0.079593964 0.021378342 0.19221786
-0.07831569 0.021380506 0.19230327
-0.077038765 0.021382658 0.19238853
-0.075763173 0.021384794 0.19247374
-0.074488945 0.021386946 0.19255885
-0.073216043 0.021389082 0.19264385
-0.071944468 0.021391219 0.19272885
-0.070674248 0.02139337 0.19281361
-0.069405362 0.02139549 0.19289839
-0.068137772 0.021397626 0.192983
-0.066871554 0.021399762 0.19306761
-0.065606646 0.021401884 0.19315204
-0.06434308 0.02140402 0.1932365
-0.063080817 0.021406142 0.19332072
-0.061819885 0.021408264 0.193405
-0.060560267 0.0214104 0.19348913
-0.059301969 0.021412507 0.19357318
-0.058044985 0.021414628 0.1936571
-0.056789309 0.02141672 0.19374099
-0.055534951 0.021418856 0.19382474
-0.054281902 0.021420933 0.19390845
-0.053030156 0.021423055 0.19399205
-0.051779717 0.021425162 0.19407552
-0.050530583 0.021427253 0.19415903
-0.049282748 0.02142936 0.19424236
-0.048036214 0.021431467 0.1943256
-0.046790976 0.021433573 0.19440874
-0.045547038 0.02143568 0.19449183
-0.044304382 0.021437772 0.19457486
-0.043063015 0.021439834 0.19465771
-0.041822944 0.021441925 0.19474053
-0.040584154 0.021444002 0.19482329
-0.039346658 0.021446111 0.19490594
-0.038110435 0.021448173 0.19498852
-0.036875501 0.021450264 0.19507098
-0.035641838 0.021452326 0.19515342
-0.034409456 0.021454405 0.19523567
-0.033178341 0.021456482 0.19531798
-0.031948518 0.021458589 0.19540003
-0.030719966 0.021460682 0.19548208
-0.029492667 0.021462759 0.195564
-0.028266653 0.021464851 0.19564587
-0.02704189 0.021466915 0.19572762
-0.025818391 0.021469006 0.19580933
-0.024596155 0.021471068 0.19589096
-0.023375172 0.021473147 0.19597253
-0.022155451 0.021475194 0.19605398
-0.020936985 0.021477271 0.19613531
-0.019719768 0.02147935 0.19621661
-0.018503806 0.021481367 0.19629782
-0.017289093 0.021483431 0.19637892
-0.016075619 0.021485493 0.19645992
-0.014863414 0.021487556 0.19654086
-0.013652427 0.021489603 0.19662178
-0.012442696 0.021491667 0.19670251
-0.011234198 0.021493714 0.19678319
-0.010026948 0.021495778 0.19686383
-0.008820923 0.02149781 0.19694436
-0.0076161269 0.021499874 0.19702485
-0.0064125685 0.021501876 0.19710517
-0.0052102432 0.021503925 0.19718546
-0.004009143 0.021505957 0.19726568
-0.0028092763 0.021508021 0.19734579
-0.0016106312 0.02151004 0.19742584
-0.00041319683 0.021512073 0.19750577
0.00075285108 0.021635801 0.19746315
0.0019035896 0.021821205 0.19735843
0.0030544994 0.022006625 0.19725367
0.0042055994 0.022192091 0.19714892
0.0053568967 0.022377584 0.1970441
0.0065083578 0.022563122 0.19693926
0.0076600127 0.02274869 0.19683447
0.0088118687 0.022934258 0.19672966
0.0099639036 0.023119871 0.19662482
0.011116114 0.023305558 0.19651988
0.012268528 0.02349123 0.19641498
0.013421118 0.023676932 0.19631013
0.014573894 0.023862649 0.19620523
0.015726857 0.02404847 0.19610018
0.016880002 0.024234235 0.19599527
0.018033352 0.024420071 0.19589028
0.019186877 0.024605893 0.19578531
0.020340588 0.024791803 0.19568029
0.021494485 0.024977729 0.19557527
0.022648573 0.025163654 0.19547021
0.023802847 0.025349624 0.19536522
0.024957318 0.025535595 0.19526014
0.02611196 0.025721654 0.19515499
0.027266793 0.025907714 0.19504997
0.028421815 0.026093818 0.1949448
0.029577028 0.026279923 0.19483966
0.030732423 0.026466072 0.19473451
0.031888004 0.026652267 0.19462934
0.033043779 0.026838461 0.19452417
0.034199741 0.027024716 0.19441894
0.035355885 0.027210984 0.19431376
0.036512215 0.027397312 0.19420844
0.037668739 0.02758364 0.19410321
0.038825449 0.027769983 0.19399795
0.039982345 0.027956385 0.19389269
0.04113942 0.028142802 0.19378731
0.042296693 0.028329264 0.19368204
0.043454148 0.028515756 0.19357669
0.044611797 0.028702248 0.19347131
0.045769639 0.028888814 0.19336596
0.046927657 0.029075395 0.19326049
0.048085865 0.029261993 0.19315514
0.04924427 0.029448649 0.1930497
0.05040285 0.02963529 0.19294423
0.051561628 0.02982199 0.19283882
0.052720588 0.03000872 0.19273326
0.053879738 0.03019548 0.19262776
0.055039082 0.030382285 0.19252223
0.056198604 0.030569104 0.19241676
0.057358317 0.030755924 0.19231117
0.058518227 0.030942818 0.19220558
0.059678312 0.031129712 0.19210008
0.060818661 0.031695791 0.19161782
0.061945882 0.032590553 0.19080934
0.063078277 0.033489469 0.18999714
0.064215876 0.034392484 0.1891813
0.065358706 0.035299644 0.18836161
0.066506818 0.036211032 0.18753815
0.067660242 0.037126638 0.18671086
0.068819024 0.038046416 0.1858798
0.069983184 0.038970549 0.1850448
0.071152776 0.039898999 0.18420601
0.072327837 0.040831756 0.1833632
0.073508382 0.041768849 0.18251652
0.074694492 0.042710382 0.18166578
0.075886168 0.043656357 0.18081108
0.077083468 0.044606727 0.17995238
0.078286417 0.045561671 0.17908952
0.07949508 0.046521071 0.17822272
0.080709472 0.047485106 0.17735165
0.081929654 0.04845364 0.17647654
0.083155654 0.049427148 0.17559689
0.084387526 0.05040602 0.17471236
0.085625336 0.051389527 0.17382365
0.086869083 0.05237782 0.17293063
0.088118836 0.053370837 0.17203331
0.089374639 0.054368693 0.17113158
0.090636522 0.055371396 0.17022559
0.091904543 0.056378938 0.16931516
0.093178727 0.057391394 0.16840026
0.094459154 0.05840876 0.16748095
0.095745824 0.059431158 0.16655707
0.097038813 0.060458548 0.16562873
0.098338164 0.06149099 0.16469574
0.099643938 0.062528528 0.16375825
0.10095613 0.063571207 0.16281608
0.10227485 0.064619042 0.16186926
0.10360011 0.06567207 0.16091767
0.10493197 0.066730358 0.15996134
0.10627049 0.067793921 0.15900034
-0.14852621 0.01924631 0.18791768
-0.14717799 0.019249666 0.18800762
-0.14583123 0.019252993 0.18809742
-0.14448592 0.019256365 0.18818706
-0.14314206 0.019259723 0.18827665
-0.14179966 0.019263064 0.18836617
-0.1404587 0.019266421 0.18845555
-0.13911916 0.019269733 0.18854487
-0.13778113 0.019273059 0.18863407
-0.13644446 0.019276386 0.18872321
-0.13510928 0.019279744 0.18881217
-0.13377552 0.019283056 0.18890107
-0.13244319 0.019286368 0.18898991
-0.13111231 0.019289695 0.18907863
-0.12978283 0.019292992 0.18916729
-0.12845479 0.01929632 0.1892558
-0.12712815 0.019299617 0.18934423
-0.12580296 0.019302914 0.18943259
-0.12447919 0.019306196 0.18952087
-0.12315685 0.019309523 0.18960896
-0.12183588 0.019312805 0.18969709
-0.12051635 0.019316074 0.18978503
-0.11919822 0.019319355 0.18987292
-0.11788151 0.019322652 0.18996072
-0.1165662 0.019325936 0.19004837
-0.1152523 0.019329203 0.19013599
-0.11393981 0.019332487 0.19022346
-0.11262869 0.019335739 0.19031087
-0.11131898 0.019339008 0.19039819
-0.11001067 0.019342246 0.19048539
-0.10870374 0.019345529 0.1905725
-0.1073982 0.019348767 0.19065961
-0.10609406 0.019352006 0.19074652
-0.10479131 0.019355258 0.19083336
-0.10348994 0.019358512 0.19092011
-0.10218994 0.019361749 0.19100681
-0.10089132 0.019364988 0.19109339
-0.099594094 0.019368226 0.19117984
-0.098298237 0.01937145 0.19126621
-0.097003728 0.019374659 0.19135255
-0.095710613 0.019377882 0.19143876
-0.094418854 0.019381091 0.19152486
-0.09312848 0.01938433 0.19161084
-0.091839448 0.019387523 0.19169685
-0.090551808 0.019390777 0.19178268
-0.089265503 0.019393971 0.19186842
-0.087980576 0.019397164 0.19195408
-0.086696975 0.019400371 0.19203961
-0.085414745 0.019403581 0.19212505
-0.084133871 0.01940676 0.1922105
-0.082854323 0.019409953 0.19229579
-0.081576131 0.019413147 0.19238096
-0.080299288 0.019416327 0.19246608
-0.079023786 0.019419476 0.19255117
-0.077749617 0.019422671 0.19263607
-0.076476797 0.019425819 0.19272098
-0.075205311 0.019429013 0.19280574
-0.073935151 0.019432163 0.19289041
-0.072666325 0.019435342 0.19297501
-0.071398839 0.019438492 0.19305953
-0.07013268 0.019441642 0.1931439
-0.068867847 0.019444792 0.19322816
-0.067604318 0.019447941 0.1933125
-0.06634213 0.019451091 0.19339657
-0.065081254 0.019454241 0.19348064
-0.063821696 0.019457376 0.19356462
-0.062563449 0.01946051 0.19364852
-0.061306518 0.019463645 0.19373229
-0.060050894 0.01946675 0.19381601
-0.058796588 0.019469885 0.19389966
-0.057543579 0.01947299 0.1939832
-0.056291886 0.019476125 0.19406658
-0.055041496 0.019479215 0.19414997
-0.053792402 0.01948235 0.19423321
-0.052544605 0.019485485 0.19431639
-0.051298108 0.019488575 0.19439951
-0.050052904 0.01949168 0.19448254
-0.048808999 0.019494787 0.1945655
-0.04756638 0.019497875 0.19464836
-0.046325047 0.01950095 0.19473109
-0.045085005 0.019504055 0.19481373
-0.043846238 0.019507116 0.19489634
-0.042608771 0.019510221 0.19497877
-0.041372564 0.019513283 0.19506127
-0.040137652 0.019516343 0.19514355
-0.038904015 0.019519433 0.19522583
-0.037671663 0.019522553 0.19530791
-0.036440589 0.01952566 0.19538993
-0.035210766 0.019528721 0.19547194
-0.033982217 0.019531811 0.19555378
-0.032754939 0.019534858 0.19563559
-0.031528927 0.019537948 0.1957173
-0.030304166 0.019541008 0.19579896
-0.029080668 0.019544071 0.19588053
-0.027858447 0.019547131 0.19596198
-0.026637467 0.019550176 0.1960434
-0.025417751 0.019553239 0.19612464
-0.024199273 0.019556269 0.19620591
-0.022982068 0.019559346 0.19628701
-0.021766098 0.019562377 0.19636804
-0.020551383 0.019565437 0.19644901
-0.019337904 0.019568454 0.19652992
-0.018125685 0.019571515 0.19661069
-0.016914682 0.019574517 0.19669142
-0.015704945 0.019577578 0.19677204
-0.014496437 0.01958058 0.19685262
-0.013289161 0.019583611 0.19693306
-0.012083114 0.019586613 0.1970135
-0.010878308 0.019589629 0.19709384
-0.0096747344 0.01959266 0.19717404
-0.0084723793 0.019595677 0.19725418
-0.0072712679 0.019598678 0.1973342
-0.0060713678 0.019601665 0.19741416
-0.0048726816 0.019604681 0.19749406
-0.003675225 0.019607654 0.19757393
-0.00247899 0.019610656 0.19765368
-0.0012839735 0.019613657 0.19773331
-9.0178663e-05 0.019616675 0.19781283
0.0010602952 0.019789293 0.19772068
0.0022079155 0.019974044 0.19761628
0.0033557187 0.020158822 0.19751182
0.004503693 0.020343689 0.19740734
0.0056518647 0.020528484 0.19730291
0.0068002227 0.020713352 0.1971983
0.0079487637 0.020898249 0.19709381
0.0090974867 0.021083206 0.19698924
0.010246396 0.021268193 0.19688478
0.011395498 0.021453135 0.19678012
0.012544785 0.021638166 0.19667557
0.013694245 0.021823198 0.19657099
0.014843889 0.022008337 0.19646639
0.015993733 0.022193398 0.19636169
0.017143756 0.022378549 0.19625711
0.018293969 0.022563715 0.19615245
0.019444365 0.022748925 0.19604772
0.020594947 0.02293418 0.195943
0.021745715 0.023119405 0.19583827
0.02289667 0.023304719 0.19573355
0.024047814 0.023489989 0.19562882
0.025199132 0.023675395 0.19552404
0.026350653 0.023860725 0.19541925
0.027502356 0.024046144 0.1953145
0.028654229 0.024231549 0.19520968
0.029806305 0.024417058 0.19510487
0.030958563 0.024602536 0.19499999
0.032111004 0.024788044 0.19489512
0.033263639 0.024973612 0.1947903
0.034416452 0.02515918 0.19468534
0.035569452 0.025344808 0.19458044
0.036722645 0.025530465 0.19447544
0.03787601 0.025716139 0.19437054
0.03902958 0.025901841 0.19426557
0.040183324 0.026087573 0.19416055
0.041337263 0.026273319 0.19405562
0.042491388 0.026459113 0.19395059
0.043645687 0.026644964 0.19384554
0.044800177 0.026830785 0.19374049
0.045954876 0.027016666 0.19363543
0.047109734 0.027202591 0.19353029
0.048264802 0.027388547 0.19342521
0.049420036 0.027574517 0.1933201
0.050575465 0.027760517 0.19321495
0.05173108 0.027946547 0.19310981
0.052886877 0.028132606 0.19300461
0.054042876 0.028318711 0.19289947
0.055199057 0.028504815 0.19279423
0.056355413 0.028690996 0.19268909
0.057511967 0.028877176 0.1925838
0.058668707 0.02906337 0.19247857
0.059825629 0.029249638 0.19237325
