ply
format ascii 1.0
comment PCL generated
element vertex 1328
property float x
property float y
property float z
element face 0
element camera 0
property float view_px
property float view_py
property float view_pz
property float x_axisx
property float x_axisy
property float x_axisz
property float y_axisx
property float y_axisy
property float y_axisz
property float z_axisx
property float z_axisy
property float z_axisz
property float focal
property float scalex
property float scaley
property float centerx
property float centery
property int viewportx
property int viewporty
property float k1
property float k2
end_header
-0.12018997 -0.051464185 0.18452534
-0.11985058 -0.050296471 0.18470126
-0.11951093 -0.049127966 0.1848774
-0.11917108 -0.047958657 0.18505362
-0.11883105 -0.046788499 0.18522987
-0.11849071 -0.045617566 0.18540633
-0.11802839 -0.044507399 0.18570262
-0.11741152 -0.043476045 0.18615124
-0.1167952 -0.042445764 0.18659943
-0.11617952 -0.041416451 0.18704718
-0.11556447 -0.040388197 0.18749446
-0.11494996 -0.039360955 0.18794134
-0.11433612 -0.038334697 0.18838763
-0.11372282 -0.037309483 0.18883365
-0.11311019 -0.036285266 0.18927914
-0.11249812 -0.035262063 0.18972424
-0.11188668 -0.034239858 0.19016889
-0.11127582 -0.033218667 0.19061306
-0.11066559 -0.032198474 0.19105685
-0.11005592 -0.031179309 0.19150019
-0.1094469 -0.030161113 0.19194308
-0.10883846 -0.029143929 0.19238549
-0.10823058 -0.02812776 0.19282752
-0.10762334 -0.027112558 0.1932691
-0.10701669 -0.026098371 0.19371027
-0.10641064 -0.025085181 0.19415095
-0.10580513 -0.02407299 0.19459131
-0.10520028 -0.023061782 0.19503114
-0.10459597 -0.022051573 0.19547057
-0.1039923 -0.021042332 0.19590959
-0.10338921 -0.020034075 0.19634813
-0.10278668 -0.019026831 0.19678628
-0.10273392 -0.017682642 0.1966764
-0.10278763 -0.016269013 0.19645998
-0.10284156 -0.014850855 0.19624272
-0.10289561 -0.013428137 0.19602489
-0.10294983 -0.012000874 0.19580638
-0.10300427 -0.010568962 0.1955871
-0.10305884 -0.0091324747 0.19536713
-0.1031136 -0.0076913536 0.19514644
-0.10316851 -0.0062455684 0.1949251
-0.10322367 -0.0047950745 0.19470289
-0.10327895 -0.0033399016 0.19448009
-0.10333438 -0.001880005 0.19425651
-0.10339001 -0.00041536987 0.19403231
-0.10344578 0.0010540187 0.19380736
-0.10350172 0.0025282204 0.19358167
-0.1035579 0.004007265 0.1933552
-0.10361423 0.0054911077 0.19312805
-0.10367075 0.0069798678 0.19290009
-0.10372743 0.0084734857 0.19267145
-0.10378432 0.0099720359 0.19244197
-0.10384142 0.011475563 0.19221184
-0.1038987 0.012984008 0.19198084
-0.10395612 0.014497444 0.19174924
-0.10401378 0.016015932 0.19151673
-0.10407163 0.017539442 0.19128338
-0.10412963 0.019068003 0.1910494
-0.10418788 0.02060166 0.19081464
-0.1042463 0.022140458 0.19057897
-0.10430491 0.023684397 0.19034266
-0.10436369 0.025233477 0.19010544
-0.10442272 0.026787758 0.18986756
-0.10448194 0.028347299 0.18962878
-0.10454136 0.029912055 0.18938917
-0.1075983 0.033780977 0.18610653
-0.11091842 0.037887096 0.18255273
-0.11431901 0.042092532 0.17891273
-0.11780319 0.046401009 0.17518339
-0.12137334 0.05081585 0.17136183
-0.12503281 0.055341125 0.16744488
-0.12878488 0.059980914 0.16342866
-0.13263321 0.064739734 0.15930948
-0.13433599 -0.1058953 0.17632279
-0.13400723 -0.10476609 0.1764929
-0.13367826 -0.10363613 0.17666322
-0.133349 -0.10250537 0.1768336
-0.1330196 -0.1013739 0.17700416
-0.13268992 -0.10024162 0.17717475
-0.13236004 -0.099108592 0.17734542
-0.13202995 -0.097974807 0.17751631
-0.13169962 -0.096840233 0.17768729
-0.13136908 -0.095704913 0.17785841
-0.13103831 -0.094568819 0.17802957
-0.13070731 -0.093431965 0.17820087
-0.13037606 -0.09229438 0.17837232
-0.13004462 -0.091155946 0.17854393
-0.12971294 -0.090016782 0.17871559
-0.12938106 -0.088876843 0.17888737
-0.12904896 -0.08773616 0.17905924
-0.12871662 -0.086594671 0.1792312
-0.12838404 -0.085452408 0.17940333
-0.12805127 -0.084309369 0.17957559
-0.12771823 -0.083165586 0.179748
-0.12738498 -0.082021013 0.17992049
-0.1270515 -0.08087565 0.18009305
-0.12671781 -0.079729512 0.18026575
-0.1263839 -0.07858263 0.18043855
-0.12604974 -0.077434927 0.18061155
-0.12571537 -0.076286465 0.18078461
-0.12538077 -0.075137198 0.18095776
-0.12504598 -0.073987156 0.18113106
-0.12471085 -0.072836384 0.18130451
-0.12437557 -0.071684778 0.18147802
-0.12404005 -0.070532411 0.18165171
-0.12370433 -0.069379255 0.18182549
-0.12336835 -0.068225309 0.18199936
-0.12303217 -0.067070574 0.18217331
-0.12269574 -0.065915048 0.18234751
-0.12235907 -0.064758718 0.18252167
-0.12202214 -0.063601673 0.18269613
-0.12168506 -0.062443748 0.1828706
-0.1213477 -0.061285093 0.18304518
-0.12101012 -0.060125634 0.18321991
-0.12067237 -0.05896534 0.18339473
-0.12033433 -0.057804286 0.1835697
-0.11999606 -0.056642458 0.18374476
-0.11965758 -0.055479795 0.18391994
-0.11931887 -0.054316357 0.18409523
-0.1189799 -0.053152144 0.18427068
-0.11864071 -0.051987097 0.18444619
-0.11830129 -0.050821289 0.18462184
-0.11796169 -0.049654633 0.18479764
-0.11762178 -0.048487216 0.18497357
-0.11728167 -0.047318995 0.18514961
-0.11694136 -0.046149969 0.18532568
-0.11649664 -0.045032874 0.18560493
-0.11588138 -0.044002727 0.18605295
-0.11526668 -0.042973638 0.18650058
-0.11465264 -0.041945547 0.18694767
-0.1140392 -0.040918455 0.18739438
-0.11342632 -0.039892405 0.18784064
-0.1128141 -0.038867339 0.18828645
-0.11220245 -0.037843317 0.18873185
-0.1115914 -0.036820278 0.18917677
-0.11098094 -0.035798267 0.18962127
-0.11037112 -0.034777239 0.19006535
-0.10976185 -0.03375721 0.19050899
-0.10915323 -0.032738209 0.19095215
-0.10854521 -0.031720191 0.19139484
-0.10793773 -0.030703187 0.19183719
-0.10733092 -0.029687151 0.1922791
-0.10672462 -0.028672159 0.19272056
-0.10611899 -0.02765812 0.19316158
-0.10551392 -0.026645094 0.19360211
-0.10490943 -0.025633067 0.19404233
-0.10430552 -0.024622023 0.19448209
-0.10370226 -0.023611948 0.19492134
-0.10309952 -0.022602871 0.19536018
-0.10249743 -0.021594808 0.19579864
-0.10189593 -0.020587698 0.19623664
-0.10129496 -0.019581601 0.19667426
-0.10088962 -0.018456236 0.19691595
-0.10094024 -0.01704742 0.19670042
-0.10099106 -0.01563409 0.19648415
-0.101042 -0.014216244 0.19626725
-0.10109314 -0.012793824 0.1960496
-0.10114443 -0.011366874 0.1958313
-0.10119587 -0.0099353194 0.19561228
-0.10124752 -0.0084991455 0.19539252
-0.10129932 -0.0070583522 0.19517213
-0.10135126 -0.0056128949 0.194951
-0.10140336 -0.0041627735 0.19472912
-0.10145567 -0.0027079433 0.1945065
-0.10150811 -0.0012484044 0.19428328
-0.1015607 0.00021587312 0.19405931
-0.10161343 0.0016848892 0.19383463
-0.10166635 0.0031587183 0.19360918
-0.10171947 0.0046373904 0.19338292
-0.10177276 0.0061208755 0.193156
-0.10182617 0.0076092035 0.19292843
-0.10187979 0.0091024488 0.1927
-0.10193358 0.010600597 0.19247079
-0.10198756 0.012103692 0.19224086
-0.10204168 0.013611719 0.19201022
-0.10209604 0.015124753 0.19177872
-0.10215055 0.016642794 0.19154659
-0.10220526 0.018165886 0.19131362
-0.10226011 0.019694 0.19107983
-0.10231518 0.021227226 0.19084528
-0.10237043 0.022765562 0.19060999
-0.10242584 0.024309009 0.19037396
-0.10248146 0.025857642 0.19013706
-0.10253727 0.027411476 0.18989936
-0.10259326 0.02897051 0.18966088
-0.10360653 0.031270519 0.18844497
-0.10684929 0.035309583 0.18495107
-0.11016949 0.039445117 0.1813738
-0.11357065 0.043681145 0.17770931
-0.1170553 0.048020959 0.17395487
-0.12062629 0.052468345 0.17010736
-0.1242868 0.057027206 0.1661635
-0.12804024 0.061701804 0.16211942
-0.13189016 0.066496581 0.15797144
-0.13410611 -0.11083291 0.17557842
-0.13377815 -0.10970852 0.17574784
-0.13345002 -0.10858333 0.17591739
-0.13312165 -0.10745743 0.17608708
-0.13279307 -0.10633074 0.17625687
-0.13246423 -0.1052033 0.17642677
-0.1321352 -0.10407509 0.17659679
-0.13180596 -0.10294613 0.17676684
-0.13147646 -0.10181642 0.17693716
-0.13114674 -0.10068594 0.17710748
-0.13081685 -0.099554673 0.17727786
-0.1304867 -0.098422691 0.17744854
-0.13015632 -0.097289935 0.17761925
-0.12982574 -0.096156403 0.17779005
-0.12949494 -0.095022097 0.1779609
-0.12916391 -0.093887016 0.178132
-0.12883261 -0.092751235 0.17830315
-0.12850115 -0.091614634 0.17847443
-0.12816945 -0.090477258 0.17864585
-0.12783749 -0.089339137 0.17881733
-0.12750535 -0.088200226 0.17898899
-0.12717295 -0.087060571 0.17916068
-0.12684035 -0.085920125 0.17933252
-0.12650754 -0.08477892 0.17950451
-0.12617446 -0.08363694 0.17967653
-0.12584117 -0.082494199 0.17984888
-0.12550767 -0.081350654 0.18002114
-0.12517393 -0.080206349 0.1801936
-0.12483995 -0.079061285 0.18036613
-0.12450577 -0.077915415 0.18053877
-0.12417138 -0.076768786 0.18071157
-0.12383673 -0.075621367 0.18088451
-0.1235019 -0.074473172 0.18105748
-0.12316672 -0.073324233 0.18123069
-0.12283142 -0.072174489 0.18140396
-0.12249586 -0.071023941 0.18157727
-0.12216011 -0.069872633 0.18175083
-0.1218241 -0.068720534 0.18192437
-0.12148787 -0.067567647 0.18209812
-0.12115142 -0.066413969 0.18227196
-0.1208147 -0.065259531 0.18244594
-0.12047779 -0.064104304 0.18261999
-0.12014062 -0.062948272 0.18279421
-0.11980329 -0.06179145 0.18296856
-0.11946569 -0.060633853 0.18314293
-0.11912784 -0.059475467 0.18331754
-0.11878978 -0.05831629 0.18349218
-0.11845152 -0.057156295 0.18366691
-0.118113 -0.055995539 0.18384185
-0.11777422 -0.054833978 0.18401688
-0.11743528 -0.053671613 0.184192
-0.11709606 -0.052508473 0.18436724
-0.1167566 -0.051344559 0.18454272
-0.11641691 -0.050179824 0.18471813
-0.11607702 -0.049014255 0.18489373
-0.11573688 -0.047847927 0.18506956
-0.1153965 -0.046680823 0.18524536
-0.11496922 -0.045556843 0.18550754
-0.11435556 -0.044527918 0.18595496
-0.11374253 -0.043500006 0.18640187
-0.11313007 -0.042473108 0.18684852
-0.11251825 -0.041447222 0.18729457
-0.11190699 -0.04042235 0.18774027
-0.11129637 -0.039398491 0.18818551
-0.1106863 -0.038375631 0.18863031
-0.11007689 -0.037353784 0.18907467
-0.10946804 -0.03633295 0.1895186
-0.10885983 -0.035313085 0.18996209
-0.10825215 -0.034294263 0.19040516
-0.10764512 -0.033276424 0.19084772
-0.1070387 -0.032259554 0.19128984
-0.10643281 -0.031243727 0.19173169
-0.10582758 -0.030228868 0.19217297
-0.1052229 -0.029215038 0.1926139
-0.10461885 -0.028202146 0.19305435
-0.10401534 -0.027190298 0.19349435
-0.10341246 -0.026179403 0.19393393
-0.10281013 -0.025169507 0.1943731
-0.10220842 -0.024160594 0.19481179
-0.10160732 -0.023152664 0.19525009
-0.10100673 -0.022145733 0.19568798
-0.1004068 -0.021139771 0.19612542
-0.099807411 -0.020134792 0.1965625
-0.099208668 -0.019130781 0.19699904
-0.099102139 -0.017821908 0.19693965
-0.099149905 -0.016413376 0.19672436
-0.09919779 -0.015000343 0.19650838
-0.099245831 -0.013582796 0.19629169
-0.099294066 -0.012160704 0.19607428
-0.099342421 -0.010734066 0.19585624
-0.099390909 -0.0093028396 0.19563738
-0.099439599 -0.0078670084 0.19541794
-0.099488437 -0.006426543 0.19519776
-0.09953741 -0.0049814433 0.19497687
-0.099586532 -0.0035316497 0.19475529
-0.099635862 -0.0020771623 0.19453296
-0.099685296 -0.00061799586 0.19430989
-0.09973482 0.00084589422 0.19408622
-0.099784561 0.0023145676 0.19386175
-0.099834457 0.0037880242 0.19363657
-0.09988454 0.0052663088 0.19341066
-0.099934742 0.0067493916 0.19318402
-0.09998513 0.008237347 0.19295663
-0.10003567 0.00973019 0.19272849
-0.10008639 0.01122795 0.19249955
-0.10013727 0.012730598 0.19226995
-0.10018833 0.014238238 0.19203949
-0.10023954 0.01575084 0.19180837
-0.10029093 0.017268464 0.19157636
-0.10034249 0.018791094 0.19134367
-0.10039422 0.020318791 0.19111016
-0.10044611 0.021851569 0.19087595
-0.10049823 0.023389459 0.19064093
-0.10055043 0.024932444 0.19040516
-0.10060287 0.02648063 0.1901685
-0.10065547 0.028033972 0.18993112
-0.10070826 0.029592514 0.18969297
-0.10285368 0.03277868 0.18730611
-0.10609627 0.036846459 0.1837894
-0.10941643 0.041011587 0.18018848
-0.11281814 0.045278475 0.17649919
-0.11630329 0.049650028 0.17271945
-0.119875 0.054130122 0.16884589
-0.1235365 0.058722898 0.16487479
-0.12729126 0.063432619 0.16080266
-0.13420439 -0.11686204 0.1746695
-0.13387752 -0.1157431 0.17483813
-0.13355044 -0.11462347 0.1750069
-0.13322312 -0.11350307 0.1751757
-0.13289554 -0.11238191 0.17534465
-0.13256779 -0.11126004 0.17551368
-0.13223983 -0.11013737 0.17568293
-0.13191162 -0.10901396 0.17585218
-0.1315832 -0.10788982 0.17602155
-0.13125457 -0.10676488 0.17619112
-0.1309257 -0.10563923 0.17636073
-0.13059665 -0.10451278 0.17653045
-0.13026735 -0.1033856 0.17670029
-0.1299378 -0.10225767 0.17687029
-0.12960806 -0.10112898 0.17704037
-0.12927809 -0.099999517 0.1772106
-0.12894791 -0.098869309 0.17738089
-0.1286175 -0.097738296 0.1775513
-0.12828687 -0.096606553 0.17772183
-0.12795603 -0.095474079 0.17789254
-0.12762494 -0.094340786 0.17806327
-0.12729365 -0.093206763 0.17823419
-0.1269621 -0.09207198 0.17840517
-0.12663037 -0.090936437 0.17857632
-0.12629838 -0.089800075 0.17874753
-0.12596619 -0.088662997 0.17891887
-0.12563378 -0.0875251 0.17909035
-0.12530114 -0.086386517 0.17926192
-0.12496827 -0.085247099 0.17943364
-0.12463518 -0.084106922 0.17960545
-0.12430182 -0.082966 0.17977738
-0.12396829 -0.081824288 0.17994943
-0.12363452 -0.080681816 0.18012157
-0.12330054 -0.079538539 0.18029386
-0.1229663 -0.078394517 0.18046629
-0.12263188 -0.077249691 0.18063876
-0.12229717 -0.076104134 0.18081146
-0.12196225 -0.074957788 0.18098414
-0.12162714 -0.073810622 0.18115699
-0.12129177 -0.072662741 0.18133
-0.12095619 -0.07151404 0.18150318
-0.12062038 -0.070364565 0.18167636
-0.12028433 -0.069214329 0.18184969
-0.11994807 -0.068063289 0.18202317
-0.11961159 -0.066911459 0.18219674
-0.11927485 -0.065758869 0.18237042
-0.11893793 -0.06460546 0.18254411
-0.11860078 -0.06345132 0.18271807
-0.11826335 -0.062296346 0.18289205
-0.11792577 -0.061140597 0.18306619
-0.11758789 -0.059984073 0.18324053
-0.11724979 -0.058826759 0.18341491
-0.11691146 -0.057668656 0.18358943
-0.11657292 -0.056509748 0.18376395
-0.11623412 -0.05535008 0.18393871
-0.1158951 -0.054189622 0.18411365
-0.11555585 -0.053028345 0.18428859
-0.11521641 -0.051866293 0.18446368
-0.11487669 -0.050703421 0.18463892
-0.11453674 -0.04953979 0.18481427
-0.11419661 -0.048375323 0.18498969
-0.1138562 -0.047210097 0.18516529
-0.11344609 -0.046079352 0.18541035
-0.11283405 -0.045051619 0.18585721
-0.11222264 -0.0440249 0.18630359
-0.11161181 -0.042999193 0.18674955
-0.1110016 -0.0419745 0.18719506
-0.11039194 -0.040950805 0.18764022
-0.10978295 -0.039928123 0.18808481
-0.10917448 -0.038906455 0.18852904
-0.10856666 -0.03788577 0.18897283
-0.1079594 -0.036866114 0.18941626
-0.10735277 -0.035847455 0.18985909
-0.10674675 -0.034829766 0.19030154
-0.10614128 -0.033813104 0.19074363
-0.10553644 -0.032797396 0.19118524
-0.10493215 -0.031782746 0.19162646
-0.10432848 -0.03076905 0.19206718
-0.10372539 -0.029756352 0.19250754
-0.1031229 -0.028744653 0.19294739
-0.10252098 -0.027733937 0.19338685
-0.10191967 -0.02672419 0.19382587
-0.10131893 -0.025715455 0.19426447
-0.1007188 -0.024707675 0.19470263
-0.10011923 -0.023700908 0.1951403
-0.099520236 -0.022695124 0.19557771
-0.098921873 -0.021690279 0.19601455
-0.098324046 -0.020686463 0.19645107
-0.097726814 -0.019683585 0.19688705
-0.097273327 -0.018592492 0.19717771
-0.097318009 -0.017188728 0.19696331
-0.097362861 -0.015780509 0.19674823
-0.097407892 -0.014367774 0.19653252
-0.097453013 -0.01295054 0.19631603
-0.097498298 -0.01152879 0.19609895
-0.097543769 -0.010102451 0.19588104
-0.097589351 -0.008671537 0.19566253
-0.097635046 -0.0072360486 0.19544327
-0.097680911 -0.0057959259 0.19522339
-0.097726986 -0.0043511391 0.19500268
-0.097773142 -0.002901718 0.19478136
-0.09781944 -0.0014475882 0.19455931
-0.097865865 1.1220574e-05 0.19433653
-0.097912453 0.0014747679 0.19411305
-0.097959183 0.0029430687 0.1938889
-0.098006062 0.0044161528 0.19366392
-0.098053068 0.0058940202 0.19343832
-0.098100245 0.0073767453 0.19321191
-0.098147601 0.0088643134 0.19298467
-0.098195091 0.010356739 0.19275683
-0.098242715 0.011854082 0.19252825
-0.098290518 0.013356343 0.19229889
-0.098338485 0.014863551 0.1920687
-0.09838663 0.01637575 0.19183779
-0.098434873 0.017892912 0.19160616
-0.098483309 0.01941511 0.19137374
-0.098531917 0.020942375 0.19114056
-0.098580696 0.022474721 0.19090658
-0.098629594 0.024012119 0.19067183
-0.098678693 0.025554672 0.1904363
-0.098727956 0.027102381 0.19019997
-0.098777369 0.028655246 0.18996283
-0.098929606 0.030293077 0.18961897
-0.10209682 0.034294873 0.18616125
-0.10533917 0.038391605 0.18262145
-0.10865959 0.042586818 0.17899638
-0.11206149 0.046884611 0.17528248
-0.11554703 0.051288113 0.1714772
-0.11911941 0.055801287 0.16757718
-0.12278187 0.060428277 0.16357884
-0.12653789 0.065173417 0.15947825
-0.13416922 -0.12169032 0.17374638
-0.13365182 -0.12062572 0.17410043
-0.13332389 -0.11951123 0.17427
-0.13299742 -0.11839555 0.17443812
-0.1326707 -0.11727914 0.17460638
-0.13234378 -0.11616197 0.17477468
-0.13201666 -0.11504409 0.17494321
-0.13168928 -0.11392544 0.17511168
-0.13136171 -0.11280605 0.17528039
-0.13103387 -0.1116859 0.17544922
-0.13070586 -0.11056499 0.17561814
-0.13037762 -0.10944338 0.17578715
-0.13004918 -0.10832095 0.17595628
-0.12972051 -0.10719779 0.17612556
-0.12939161 -0.10607389 0.17629486
-0.12906249 -0.10494922 0.17646432
-0.12873317 -0.10382383 0.17663389
-0.12840359 -0.10269766 0.17680365
-0.12807378 -0.10157074 0.17697352
-0.12774377 -0.10044305 0.17714342
-0.12741357 -0.0993146 0.17731348
-0.12708309 -0.098185405 0.17748362
-0.12675244 -0.097055435 0.17765388
-0.12642156 -0.095924705 0.17782435
-0.12609044 -0.09479323 0.17799482
-0.12575909 -0.09366101 0.17816544
-0.12542751 -0.092528 0.17833617
-0.12509575 -0.091394231 0.17850697
-0.12476373 -0.090259701 0.17867795
-0.12443149 -0.089124396 0.17884907
-0.12409905 -0.087988332 0.17902026
-0.12376636 -0.086851522 0.1791915
-0.12343347 -0.085713923 0.17936292
-0.12310036 -0.084575549 0.17953444
-0.122767 -0.08343643 0.17970613
-0.12243339 -0.082296535 0.17987794
-0.12209957 -0.081155881 0.18004981
-0.12176557 -0.080014423 0.18022183
-0.12143129 -0.078872234 0.18039393
-0.1210968 -0.077729255 0.18056622
-0.12076209 -0.076585487 0.18073857
-0.12042716 -0.075440958 0.180911
-0.12009199 -0.074295655 0.18108365
-0.11975658 -0.073149562 0.18125635
-0.11942095 -0.072002724 0.18142918
-0.11908513 -0.070855081 0.18160215
-0.11874907 -0.069706663 0.18177515
-0.11841275 -0.068557486 0.18194836
-0.11807626 -0.067407489 0.18212157
-0.11773954 -0.066256732 0.18229493
-0.11740255 -0.065105185 0.18246847
-0.11706537 -0.063952863 0.18264213
-0.11672793 -0.062799782 0.18281591
-0.11639027 -0.06164588 0.18298975
-0.11605237 -0.060491219 0.18316376
-0.11571427 -0.059335753 0.18333784
-0.11537591 -0.058179513 0.18351203
-0.11503733 -0.057022497 0.18368641
-0.11469854 -0.055864662 0.18386081
-0.1143595 -0.054706082 0.18403545
-0.11402021 -0.053546667 0.18421012
-0.1136807 -0.052386507 0.18438491
-0.113341 -0.051225513 0.18455982
-0.11300102 -0.050063759 0.18473494
-0.11266083 -0.0489012 0.18491006
-0.11232041 -0.047737822 0.18508539
-0.11192733 -0.046600357 0.18531343
-0.11131686 -0.045573831 0.18575972
-0.11070706 -0.044548288 0.18620554
-0.11009782 -0.043523803 0.18665093
-0.10948923 -0.042500272 0.18709588
-0.10888117 -0.041477785 0.18754038
-0.10827377 -0.04045628 0.18798444
-0.10766689 -0.039435789 0.18842813
-0.10706069 -0.038416281 0.18887132
-0.10645501 -0.037397802 0.18931416
-0.10584997 -0.036380306 0.18975645
-0.10524555 -0.035363793 0.1901983
-0.10464165 -0.034348309 0.19063976
-0.10403837 -0.033333763 0.19108084
-0.10343566 -0.032320276 0.19152144
-0.10283359 -0.031307727 0.19196165
-0.10223208 -0.030296177 0.19240144
-0.10163115 -0.029285625 0.1928407
-0.10103078 -0.028276071 0.19327965
-0.10043105 -0.027267456 0.19371805
-0.099831901 -0.026259869 0.19415617
-0.099233314 -0.025253251 0.1945937
-0.098635308 -0.024247602 0.19503093
-0.098037884 -0.02324295 0.19546768
-0.097441077 -0.022239283 0.19590405
-0.096844792 -0.021236569 0.19633994
-0.096249118 -0.020234838 0.19677535
-0.095654011 -0.019234091 0.19721049
-0.095495321 -0.017960191 0.19720107
-0.095537186 -0.016556725 0.19698691
-0.095579147 -0.015148818 0.19677213
-0.095621288 -0.013736382 0.19655657
-0.095663562 -0.012319461 0.19634035
-0.095705926 -0.010898024 0.19612351
-0.095748439 -0.0094720274 0.19590592
-0.095791124 -0.0080414265 0.19568756
-0.09583392 -0.0066062659 0.1954686
-0.095876843 -0.0051664859 0.1952489
-0.095919944 -0.0037220418 0.19502854
-0.095963143 -0.0022729486 0.19480741
-0.096006475 -0.00081919134 0.19458559
-0.096049935 0.00063924491 0.19436306
-0.096093528 0.0021024346 0.19413984
-0.096137255 0.0035703778 0.1939159
-0.096181095 0.0050430596 0.19369122
-0.096225098 0.0065205544 0.19346586
-0.096269265 0.0080028921 0.19323975
-0.096313573 0.0094900578 0.19301286
-0.096357986 0.010982066 0.19278523
-0.096402563 0.012479007 0.19255689
-0.096447326 0.01398088 0.19232777
-0.096492223 0.015487686 0.1920979
-0.096537225 0.016999409 0.19186729
-0.096582413 0.018516153 0.19163591
-0.09662775 0.020037949 0.19140372
-0.096673228 0.021564752 0.19117078
-0.09671884 0.023096621 0.19093713
-0.096764624 0.024633586 0.19070262
-0.096810564 0.026175663 0.19046736
-0.096856669 0.02772291 0.19023129
-0.09690287 0.029275283 0.18999454
-0.098169215 0.031789124 0.18849039
-0.10133596 0.035819188 0.18501019
-0.10457797 0.039945066 0.18144718
-0.10789859 0.044170663 0.17779785
-0.11130064 0.048499659 0.174059
-0.11478659 0.052935421 0.17022803
-0.11835958 0.057481959 0.16630128
-0.12202294 0.062143475 0.16227531
-0.12578015 0.066924393 0.15814614
-0.13425994 -0.12527443 0.17255417
-0.13374281 -0.12420963 0.17290825
-0.13322595 -0.12314531 0.17326218
-0.13270923 -0.12208141 0.17361593
-0.13219281 -0.12101804 0.17396963
-0.13179469 -0.11992368 0.17420748
-0.13146816 -0.11880976 0.17437539
-0.13114142 -0.11769508 0.17454335
-0.13081445 -0.11657967 0.17471144
-0.13048726 -0.1154635 0.17487967
-0.13015988 -0.11434661 0.17504793
-0.12983227 -0.11322893 0.17521635
-0.1295044 -0.11211056 0.17538491
-0.12917632 -0.1109914 0.17555356
-0.12884805 -0.10987152 0.1757223
-0.12851956 -0.10875085 0.17589119
-0.12819085 -0.10762946 0.17606014
-0.1278619 -0.10650733 0.17622924
-0.12753274 -0.10538441 0.17639849
-0.12720336 -0.10426077 0.17656782
-0.12687379 -0.10313635 0.17673722
-0.12654394 -0.1020112 0.17690682
-0.12621389 -0.10088529 0.17707646
-0.12588361 -0.09975864 0.17724621
-0.12555316 -0.098631203 0.17741606
-0.12522244 -0.097503021 0.17758608
-0.12489151 -0.09637408 0.17775625
-0.12456037 -0.095244363 0.17792642
-0.12422899 -0.094113931 0.17809683
-0.12389739 -0.092982695 0.17826727
-0.12356554 -0.091850713 0.17843792
-0.1232335 -0.090718001 0.1786086
-0.12290123 -0.089584514 0.17877936
-0.12256876 -0.088450208 0.17895031
-0.12223603 -0.087315172 0.17912135
-0.12190309 -0.086179405 0.1792925
-0.12156995 -0.085042834 0.17946374
-0.12123657 -0.083905518 0.17963511
-0.12090292 -0.082767442 0.17980668
-0.12056908 -0.081628561 0.17997828
-0.12023502 -0.08048895 0.18015003
-0.11990073 -0.079348564 0.18032187
-0.11956619 -0.078207374 0.18049386
-0.11923146 -0.077065438 0.18066585
-0.11889651 -0.075922728 0.18083805
-0.11856131 -0.074779227 0.18101043
-0.11822589 -0.073634982 0.18118289
-0.11789021 -0.072489992 0.18135545
-0.11755437 -0.071344152 0.18152809
-0.11721826 -0.070197582 0.18170083
-0.11688193 -0.069050223 0.18187371
-0.11654539 -0.067902088 0.18204674
-0.11620863 -0.066753164 0.1822198
-0.11587163 -0.06560348 0.18239307
-0.11553439 -0.064453006 0.18256643
-0.11519693 -0.063301757 0.18273988
-0.11485927 -0.062149689 0.18291348
-0.11452136 -0.060996875 0.18308714
-0.11418319 -0.059843287 0.18326098
-0.11384483 -0.058688894 0.18343493
-0.11350621 -0.057533726 0.18360901
-0.11316741 -0.056377769 0.18378314
-0.11282833 -0.055221021 0.18395752
-0.11248905 -0.054063484 0.18413186
-0.11214951 -0.052905187 0.18430641
-0.11180976 -0.05174607 0.18448108
-0.11146978 -0.050586164 0.18465585
-0.11112955 -0.049425483 0.1848307
-0.11078908 -0.048264027 0.18500572
-0.11041281 -0.047119886 0.18521678
-0.10980397 -0.046094567 0.18566251
-0.10919575 -0.045070216 0.18610775
-0.10858811 -0.044046909 0.18655255
-0.10798109 -0.043024585 0.18699688
-0.10737465 -0.042003274 0.18744087
-0.10676882 -0.040982932 0.18788439
-0.10616355 -0.039963648 0.18832746
-0.10555892 -0.038945317 0.18877012
-0.10495488 -0.03792797 0.18921223
-0.10435139 -0.036911666 0.18965405
-0.10374852 -0.035896331 0.19009537
-0.10314621 -0.034881979 0.19053632
-0.10254452 -0.033868611 0.1909768
-0.10194341 -0.032856256 0.19141683
-0.10134288 -0.031844884 0.19185647
-0.10074292 -0.030834496 0.19229564
-0.10014357 -0.029825106 0.19273439
-0.099544786 -0.028816685 0.19317275
-0.098946616 -0.027809247 0.19361064
-0.098349012 -0.026802778 0.19404811
-0.09775199 -0.025797307 0.19448516
-0.097155549 -0.024792805 0.19492173
-0.096559659 -0.023789272 0.19535798
-0.095964395 -0.022786722 0.19579375
-0.095369659 -0.021785155 0.19622913
-0.09477555 -0.020784542 0.19666401
-0.09418197 -0.019784942 0.19709858
-0.093681753 -0.018727824 0.1974377
-0.093720622 -0.017329097 0.19722444
-0.093759649 -0.015925899 0.19701052
-0.093798749 -0.014518291 0.19679591
-0.093837999 -0.013106197 0.19658062
-0.093877397 -0.011689559 0.19636464
-0.093916886 -0.01026842 0.19614798
-0.093956515 -0.0088427365 0.19593063
-0.093996242 -0.0074125081 0.19571263
-0.09403614 -0.0059776455 0.19549382
-0.094076127 -0.0045382231 0.19527441
-0.094116256 -0.0030941367 0.19505429
-0.094156548 -0.0016454011 0.19483334
-0.094196938 -0.00019198656 0.19461182
-0.094237402 0.0012661219 0.19438955
-0.09427803 0.0027289391 0.19416663
-0.094318755 0.004196465 0.19394293
-0.094359629 0.0056687891 0.19371855
-0.094400622 0.0071458966 0.1934934
-0.094441757 0.0086278468 0.19326749
-0.094483025 0.010114625 0.19304088
-0.094524443 0.011606246 0.19281355
-0.09456598 0.01310277 0.19258544
-0.094607659 0.014604226 0.19235659
-0.094649464 0.016110569 0.19212699
-0.094691411 0.017621905 0.19189662
-0.094733514 0.019138232 0.19166553
-0.094775751 0.020659551 0.19143364
-0.094818093 0.022185907 0.191201
-0.094860621 0.023717359 0.19096753
-0.094903283 0.025253862 0.19073334
-0.094946072 0.026795477 0.19049838
-0.094988994 0.028342202 0.19026271
-0.095032081 0.029894128 0.1900261
-0.097404771 0.033293068 0.18735597
-0.10057097 0.037351608 0.18385297
-0.10381268 0.041506946 0.1802665
-0.10713346 0.045763224 0.17659265
-0.11053553 0.050123632 0.17282876
-0.11402182 0.054591954 0.16897178
-0.11759546 0.059172198 0.16501811
-0.12125969 0.063868582 0.16096425
-0.13435057 -0.12885442 0.17136326
-0.13383372 -0.12778947 0.17171744
-0.13331711 -0.12672497 0.17207146
-0.13280068 -0.12566091 0.17242527
-0.13228452 -0.12459734 0.17277896
-0.13176861 -0.12353422 0.17313248
-0.13125287 -0.12247157 0.1734859
-0.13073733 -0.1214094 0.17383915
-0.13026986 -0.12033497 0.17414522
-0.12994327 -0.11922278 0.17431283
-0.1296165 -0.11810984 0.1744805
-0.12928951 -0.11699615 0.17464828
-0.12896228 -0.11588174 0.17481634
-0.12863483 -0.11476655 0.17498434
-0.12830716 -0.11365065 0.17515251
-0.12797929 -0.11253399 0.17532077
-0.12765117 -0.11141659 0.17548913
-0.12732287 -0.11029845 0.17565763
-0.12699434 -0.10917953 0.17582625
-0.12666556 -0.10805991 0.17599499
-0.1263366 -0.10693951 0.17616379
-0.12600739 -0.10581835 0.17633274
-0.12567797 -0.10469648 0.17650181
-0.12534833 -0.10357378 0.176671
-0.12501848 -0.10245042 0.17684025
-0.12468837 -0.1013263 0.17700967
-0.12435807 -0.10020138 0.17717919
-0.12402757 -0.099075705 0.17734879
-0.12369683 -0.097949296 0.17751855
-0.12336585 -0.096822128 0.17768842
-0.12303469 -0.095694229 0.17785838
-0.12270326 -0.094565541 0.17802843
-0.12237164 -0.093436107 0.17819861
-0.12203974 -0.092305928 0.17836896
-0.12170768 -0.09117496 0.1785394
-0.12137538 -0.090043247 0.17870989
-0.12104287 -0.088910758 0.17888057
-0.12071013 -0.08777754 0.17905137
-0.12037715 -0.086643547 0.17922226
-0.12004396 -0.085508779 0.17939323
-0.11971052 -0.084373236 0.17956436
-0.11937688 -0.083236948 0.17973557
-0.11904298 -0.082099915 0.17990693
-0.11870889 -0.080962092 0.18007845
-0.11837459 -0.079823509 0.18025002
-0.11804002 -0.078684136 0.18042171
-0.11770526 -0.077544004 0.18059349
-0.11737026 -0.076403126 0.18076545
-0.11703506 -0.075261459 0.18093747
-0.11669961 -0.074119017 0.18110958
-0.11636391 -0.072975814 0.18128181
-0.11602801 -0.071831837 0.18145424
-0.11569189 -0.07068707 0.18162671
-0.11535558 -0.069541529 0.18179929
-0.115019 -0.068395227 0.18197206
-0.1146822 -0.067248166 0.18214488
-0.11434519 -0.066100284 0.18231785
-0.1140079 -0.064951658 0.18249094
-0.11367041 -0.063802242 0.18266419
-0.1133327 -0.062652051 0.18283743
-0.11299478 -0.061501071 0.18301079
-0.1126566 -0.06034933 0.18318442
-0.11231818 -0.059196785 0.18335807
-0.11197959 -0.058043465 0.18353182
-0.11164072 -0.056889355 0.18370569
-0.11130163 -0.055734485 0.18387973
-0.11096229 -0.054578826 0.18405387
-0.1106228 -0.053422347 0.18422815
-0.11028299 -0.052265123 0.1844025
-0.10994296 -0.051107109 0.18457702
-0.10960276 -0.04994826 0.18475163
-0.10926227 -0.048788667 0.1849263
-0.10890254 -0.047637984 0.18512046
-0.1082953 -0.046613842 0.18556562
-0.10768869 -0.045590699 0.18601018
-0.10708265 -0.044568568 0.18645453
-0.10647722 -0.043547422 0.18689826
-0.10587234 -0.042527303 0.18734166
-0.10526811 -0.041508138 0.18778455
-0.10466444 -0.040489987 0.18822709
-0.10406137 -0.039472833 0.18866917
-0.10345893 -0.038456678 0.18911073
-0.10285699 -0.037441522 0.18955195
-0.10225572 -0.036427349 0.1899927
-0.10165499 -0.035414159 0.19043308
-0.10105485 -0.034401983 0.19087294
-0.1004553 -0.033390775 0.19131246
-0.099856347 -0.032380536 0.19175154
-0.099257946 -0.031371295 0.19219014
-0.098660171 -0.030363053 0.19262829
-0.09806297 -0.029355764 0.19306606
-0.09746632 -0.028349474 0.19350341
-0.096870273 -0.027344167 0.19394037
-0.096274763 -0.026339844 0.19437686
-0.095679894 -0.025336459 0.19481295
-0.095085554 -0.024334088 0.1952486
-0.094491832 -0.023332655 0.19568381
-0.093898639 -0.022332221 0.19611859
-0.09330608 -0.021332741 0.19655296
-0.092714019 -0.020334244 0.196987
-0.092122599 -0.019336686 0.19742051
-0.091913208 -0.018097535 0.19746071
-0.091949239 -0.01669912 0.19724771
-0.091985397 -0.015296236 0.19703403
-0.092021652 -0.013888925 0.19681963
-0.092058048 -0.01247713 0.19660461
-0.092094533 -0.011060849 0.19638887
-0.09213116 -0.0096400082 0.19617245
-0.092167892 -0.0082146674 0.19595537
-0.092204735 -0.0067847371 0.19573757
-0.092241742 -0.0053502172 0.19551903
-0.092278808 -0.0039111227 0.19529989
-0.092315994 -0.0024673939 0.19508001
-0.092353322 -0.0010190159 0.19485939
-0.092390805 0.00043405592 0.19463801
-0.092428319 0.0018917769 0.19441599
-0.092465959 0.0033542216 0.19419333
-0.092503719 0.0048213899 0.19396988
-0.092541598 0.0062933415 0.1937457
-0.092579611 0.0077700764 0.19352087
-0.092617735 0.0092516094 0.19329524
-0.092655972 0.010737985 0.19306886
-0.092694379 0.012229249 0.1928418
-0.092732891 0.01372534 0.19261393
-0.092771493 0.015226349 0.19238535
-0.092810258 0.016732305 0.19215605
-0.09284915 0.018243209 0.19192597
-0.092888176 0.019759104 0.19169512
-0.092927307 0.021279991 0.19146353
-0.092966571 0.022805899 0.19123113
-0.093005985 0.024336874 0.19099802
-0.09304554 0.025872931 0.19076404
-0.093085177 0.027414054 0.19052941
-0.093124963 0.028960347 0.19029391
-0.093543753 0.030812025 0.1896598
-0.09663631 0.034805 0.1862154
-0.099801913 0.038892299 0.18268961
-0.10304325 0.043077335 0.17907944
-0.10636407 0.047364503 0.17538083
-0.10976622 0.051756695 0.17159164
-0.11325278 0.056257829 0.16770843
-0.11682694 0.060872033 0.16372773
-0.12049198 0.065603614 0.15964571
-0.13392451 -0.13136521 0.17052802
-0.13340816 -0.13030052 0.17088205
-0.13289204 -0.12923633 0.17123592
-0.13237616 -0.12817256 0.17158964
-0.13186049 -0.12710926 0.17194328
-0.13134502 -0.12604646 0.1722967
-0.13082983 -0.1249841 0.17265001
-0.13031484 -0.12392218 0.17300311
-0.12980004 -0.12286077 0.17335609
-0.12928547 -0.12179981 0.17370895
-0.12877114 -0.12073931 0.1740616
-0.12842275 -0.1196346 0.17425042
-0.12809592 -0.11852339 0.17441788
-0.12776889 -0.11741143 0.17458543
-0.12744161 -0.11629875 0.17475313
-0.12711416 -0.11518531 0.17492086
-0.12678646 -0.11407112 0.17508876
-0.12645853 -0.11295621 0.17525682
-0.1261304 -0.11184055 0.1754249
-0.12580201 -0.11072415 0.17559317
-0.12547344 -0.109607 0.17576155
-0.12514465 -0.10848908 0.17592996
-0.12481564 -0.10737045 0.17609856
-0.1244864 -0.10625106 0.17626724
-0.12415694 -0.10513088 0.17643598
-0.1238273 -0.10401002 0.1766049
-0.12349741 -0.10288838 0.17677394
-0.12316725 -0.10176601 0.17694309
-0.12283694 -0.10064285 0.17711234
-0.12250637 -0.099518955 0.17728168
-0.1221756 -0.098394334 0.17745113
-0.1218446 -0.097268909 0.1776208
-0.12151338 -0.096142754 0.1777904
-0.12118197 -0.095015839 0.17796022
-0.12085027 -0.093888208 0.17813018
-0.1205184 -0.092759773 0.17830023
-0.12018625 -0.091630593 0.1784704
-0.11985394 -0.090500683 0.17864066
-0.11952137 -0.089369982 0.17881107
-0.11918859 -0.088238508 0.17898154
-0.11885559 -0.087106317 0.17915219
-0.11852238 -0.085973367 0.17932287
-0.11818892 -0.084839642 0.17949376
-0.11785523 -0.083705127 0.17966467
-0.1175213 -0.082569882 0.1798358
-0.11718717 -0.081433862 0.18000698
-0.11685283 -0.080297068 0.18017831
-0.11651827 -0.079159528 0.18034971
-0.11618347 -0.078021199 0.18052122
-0.11584843 -0.076882124 0.18069291
-0.1155132 -0.075742275 0.18086466
-0.11517771 -0.07460165 0.18103656
-0.11484201 -0.073460236 0.18120855
-0.11450613 -0.072318062 0.1813806
-0.11416997 -0.071175158 0.18155286
-0.11383358 -0.070031449 0.18172517
-0.11349703 -0.068886951 0.18189758
-0.11316018 -0.067741677 0.18207017
-0.11282314 -0.066595674 0.18224281
-0.11248584 -0.065448865 0.18241569
-0.11214837 -0.064301282 0.18258855
-0.11181059 -0.063152924 0.18276161
-0.11147261 -0.062003821 0.18293473
-0.11113446 -0.060853869 0.18310803
-0.11079602 -0.059703186 0.18328136
-0.11045735 -0.058551729 0.1834549
-0.11011846 -0.057399482 0.1836285
-0.10977938 -0.05624643 0.18380222
-0.10944003 -0.055092633 0.18397611
-0.10910045 -0.053938046 0.18415007
-0.10876067 -0.05278264 0.18432418
-0.10842063 -0.051626489 0.18449834
-0.10808036 -0.050469533 0.18467268
-0.10773984 -0.049311817 0.18484718
-0.10739652 -0.048154622 0.18502441
-0.10679088 -0.047131658 0.18546891
-0.10618587 -0.046109676 0.18591297
-0.1055814 -0.045088753 0.18635669
-0.10497756 -0.044068769 0.18679985
-0.10437429 -0.043049812 0.18724266
-0.10377163 -0.042031854 0.18768504
-0.10316952 -0.041014865 0.18812698
-0.10256805 -0.039998889 0.18856844
-0.10196713 -0.038983896 0.18900952
-0.1013668 -0.037969902 0.18945017
-0.10076709 -0.036956877 0.18989033
-0.1001679 -0.035944879 0.19033012
-0.09956935 -0.034933835 0.19076946
-0.098971359 -0.03392379 0.19120839
-0.09837395 -0.032914713 0.19164684
-0.097777121 -0.03190662 0.192085
-0.097180896 -0.03089951 0.19252259
-0.096585222 -0.029893368 0.19295982
-0.095990151 -0.028888226 0.19339654
-0.095395617 -0.027884066 0.19383299
-0.094801672 -0.02688086 0.19426888
-0.094208345 -0.025878608 0.19470441
-0.093615547 -0.024877355 0.19513947
-0.093023352 -0.023877084 0.19557413
-0.092431709 -0.022877753 0.19600844
-0.091840662 -0.021879405 0.19644228
-0.091250166 -0.020882025 0.19687566
-0.090660267 -0.0198856 0.19730869
-0.09011475 -0.018862218 0.19769588
-0.090147898 -0.017468452 0.19748375
-0.090181082 -0.016070321 0.19727093
-0.090214394 -0.014667779 0.19705752
-0.090247855 -0.013260722 0.19684339
-0.090281367 -0.011849225 0.19662854
-0.090315014 -0.010433272 0.1964131
-0.090348743 -0.0090127885 0.19619691
-0.090382621 -0.007587716 0.19598007
-0.09041658 -0.0061581284 0.19576246
-0.09045063 -0.004723981 0.19554418
-0.090484835 -0.0032852143 0.19532526
-0.0905191 -0.0018418431 0.19510564
-0.090553507 -0.00039380789 0.19488525
-0.090588018 0.0010589063 0.19466418
-0.090622626 0.0025162846 0.19444236
-0.090657279 0.0039783269 0.19422001
-0.090692088 0.0054451376 0.19399679
-0.090727016 0.0069167167 0.19377291
-0.090762042 0.0083930492 0.19354823
-0.090797156 0.0098741949 0.19332296
-0.090832382 0.011360168 0.19309685
-0.090867803 0.012851015 0.19286999
-0.090903282 0.014346719 0.19264242
-0.090938859 0.01584731 0.1924141
-0.090974577 0.017352834 0.19218507
-0.091010407 0.01886332 0.19195524
-0.091046341 0.020378754 0.19172463
-0.091082416 0.021899194 0.19149333
-0.091118619 0.023424685 0.19126123
-0.091154933 0.024955198 0.19102833
-0.091191337 0.026490763 0.19079471
-0.091227897 0.028031453 0.19056028
-0.091264576 0.02957727 0.19032508
-0.092771977 0.032303885 0.18853557
-0.09586373 0.036324933 0.18506882
-0.099028729 0.04044126 0.18151993
-0.1022699 0.044656485 0.17788565
-0.10559047 0.048974633 0.17416239
-0.10899261 0.053398848 0.17034766
-0.1124794 0.057933122 0.16643798
-0.11605404 0.062581658 0.16242984
-0.1197198 0.067348681 0.15831947
-0.13401517 -0.1349369 0.16933998
-0.13349913 -0.13387205 0.16969401
-0.13298328 -0.13280766 0.17004797
-0.13246766 -0.13174373 0.17040178
-0.13195223 -0.13068025 0.17075545
-0.13143712 -0.12961726 0.1711089
-0.13092217 -0.12855472 0.17146224
-0.13040745 -0.12749265 0.17181545
-0.12989296 -0.12643106 0.17216846
-0.12937865 -0.12536989 0.17252138
-0.12886457 -0.12430924 0.17287406
-0.12835076 -0.12324901 0.17322668
-0.12783709 -0.12218925 0.17357916
-0.12732373 -0.12112997 0.17393139
-0.12690657 -0.12004529 0.17418826
-0.1265797 -0.11893578 0.17435548
-0.12625264 -0.11782554 0.17452273
-0.12592533 -0.11671457 0.17469013
-0.12559782 -0.11560287 0.17485765
-0.12527008 -0.1144904 0.17502531
-0.12494214 -0.11337723 0.17519307
-0.12461395 -0.11226328 0.17536086
-0.12428553 -0.11114861 0.17552888
-0.12395692 -0.11003323 0.17569694
-0.12362809 -0.10891704 0.17586517
-0.12329905 -0.10780014 0.17603347
-0.12296979 -0.10668248 0.17620191
-0.1226403 -0.1055641 0.17637038
-0.12231061 -0.10444498 0.17653906
-0.12198067 -0.10332508 0.17670777
-0.12165052 -0.10220446 0.17687666
-0.12132014 -0.10108308 0.17704564
-0.12098954 -0.099960923 0.17721477
-0.12065873 -0.098838046 0.17738399
-0.1203277 -0.097714409 0.1775533
-0.11999646 -0.096590012 0.17772272
-0.119665 -0.09546487 0.17789227
-0.1193333 -0.094339013 0.17806193
-0.11900136 -0.093212351 0.17823175
-0.1186692 -0.092084959 0.17840159
-0.11833684 -0.090956792 0.17857164
-0.11800426 -0.08982788 0.17874175
-0.11767147 -0.088698208 0.17891192
-0.11733841 -0.087567806 0.1790823
-0.11700515 -0.086436599 0.1792528
-0.11667168 -0.085304663 0.17942336
-0.11633798 -0.084171966 0.17959398
-0.11600405 -0.083038494 0.17976487
-0.11566986 -0.081904277 0.17993575
-0.11533549 -0.080769286 0.18010685
-0.11500089 -0.079633534 0.18027794
-0.11466605 -0.078497022 0.18044922
-0.11433099 -0.077359736 0.18062064
-0.11399575 -0.076221675 0.18079212
-0.11366026 -0.075082853 0.18096367
-0.11332455 -0.073943272 0.18113539
-0.11298859 -0.072802931 0.1813072
-0.11265245 -0.071661815 0.18147919
-0.11231604 -0.070519909 0.1816512
-0.11197942 -0.069377244 0.1818234
-0.11164257 -0.068233818 0.18199566
-0.11130551 -0.067089617 0.1821681
-0.11096819 -0.065944642 0.18234062
-0.11063065 -0.064798906 0.18251324
-0.1102929 -0.063652366 0.18268597
-0.10995492 -0.062505051 0.18285882
-0.10961669 -0.061356992 0.18303186
-0.10927825 -0.060208142 0.18320492
-0.10893957 -0.059058502 0.18337816
-0.10860066 -0.057908103 0.18355152
-0.10826152 -0.056756914 0.183725
-0.10792219 -0.05560495 0.1838986
-0.10758257 -0.054452196 0.18407223
-0.10724273 -0.053298682 0.18424603
-0.10690269 -0.052144378 0.18442002
-0.10656241 -0.050989285 0.18459404
-0.1062219 -0.049833417 0.18476823
-0.10588114 -0.048676759 0.18494251
-0.1052907 -0.047648028 0.1853725
-0.10468724 -0.046627238 0.18581599
-0.10408436 -0.045607463 0.18625915
-0.1034821 -0.044588685 0.1867018
-0.10288039 -0.043570906 0.18714398
-0.10227931 -0.04255411 0.1875858
-0.10167883 -0.041538283 0.18802708
-0.10107887 -0.040523469 0.1884681
-0.10047954 -0.039509639 0.18890849
-0.09988077 -0.038496807 0.18934861
-0.0992826 -0.037484944 0.18978825
-0.098685011 -0.036474094 0.19022748
-0.098087989 -0.035464197 0.19066629
-0.09749154 -0.034455314 0.19110462
-0.096895695 -0.033447385 0.19154254
-0.096300408 -0.032440454 0.19198003
-0.09570574 -0.031434491 0.19241714
-0.095111623 -0.030429497 0.19285375
-0.094518065 -0.029425472 0.19328997
-0.093925104 -0.028422445 0.19372582
-0.093332708 -0.027420357 0.19416121
-0.092740908 -0.026419252 0.19459611
-0.092149623 -0.025419146 0.19503069
-0.091558978 -0.024419978 0.19546485
-0.090968847 -0.023421794 0.1958985
-0.090379335 -0.022424549 0.19633183
-0.089790389 -0.021428272 0.19676459
-0.089201972 -0.020432979 0.19719714
-0.088614158 -0.019438624 0.19762912
-0.088355497 -0.01823397 0.19771856
-0.088385828 -0.016840518 0.19750667
-0.088416196 -0.015442699 0.19729415
-0.088446699 -0.014040425 0.19708097
-0.088477284 -0.012633711 0.19686705
-0.08850798 -0.011222526 0.19665247
-0.088538773 -0.0098068565 0.19643721
-0.088569656 -0.0083866864 0.19622132
-0.088600665 -0.0069619715 0.19600463
-0.088631757 -0.0055327266 0.19578734
-0.088662922 -0.0040989071 0.19556934
-0.088694185 -0.0026604831 0.19535065
-0.088725612 -0.0012174249 0.19513121
-0.088757083 0.00023025274 0.19491112
-0.088788666 0.0016825795 0.19469023
-0.088820294 0.0031395853 0.19446877
-0.08885204 0.0046012849 0.19424659
-0.088883892 0.0060677081 0.1940237
-0.08891584 0.0075388998 0.1938
-0.08894787 0.00901483 0.19357568
-0.088980049 0.010495603 0.19335055
-0.08901231 0.011981189 0.19312471
-0.089044698 0.013471633 0.19289815
-0.089077123 0.01496689 0.19267085
-0.089109719 0.016467065 0.1924428
-0.089142412 0.017972201 0.19221398
-0.089175195 0.01948224 0.19198439
-0.089208052 0.020997226 0.19175413
-0.089241087 0.022517249 0.19152308
-0.089274213 0.024042293 0.19129118
-0.08930745 0.02557236 0.19105861
-0.089340754 0.027107462 0.19082531
-0.089374222 0.028647691 0.19059113
-0.089407772 0.030193016 0.19035617
-0.091996163 0.033803657 0.18740541
-0.095087051 0.037853003 0.18391609
-0.098251335 0.041998565 0.18034396
-0.10149229 0.046244264 0.17668533
-0.1048126 0.050593659 0.17293712
-0.10821464 0.055050194 0.16909668
-0.11170164 0.059617937 0.1651603
-0.11527668 0.064301044 0.16112459
-0.13410577 -0.13850452 0.1681532
-0.13358997 -0.13743949 0.16850734
-0.1330744 -0.13637492 0.16886139
-0.13255909 -0.13531081 0.16921523
-0.13204396 -0.13424717 0.16956887
-0.13152906 -0.13318402 0.16992253
-0.13101438 -0.13212129 0.1702759
-0.13049994 -0.13105904 0.17062908
-0.12998572 -0.12999727 0.17098215
-0.12947172 -0.12893595 0.1713351
-0.12895796 -0.1278751 0.1716879
-0.12844434 -0.12681472 0.17204055
-0.12793104 -0.12575477 0.17239302
-0.12741792 -0.1246953 0.17274538
-0.12690499 -0.12363632 0.17309755
-0.12639233 -0.12257777 0.17344958
-0.12587987 -0.12151967 0.17380142
-0.12539467 -0.12045479 0.17412624
-0.12506779 -0.11934701 0.17429322
-0.12474066 -0.11823848 0.17446023
-0.12441335 -0.11712922 0.17462736
-0.12408578 -0.11601923 0.17479455
-0.12375802 -0.1149085 0.17496198
-0.12343003 -0.11379704 0.17512944
-0.12310182 -0.11268482 0.17529705
-0.12277341 -0.11157191 0.17546478
-0.12244473 -0.11045823 0.17563263
-0.12211588 -0.10934381 0.17580056
-0.12178679 -0.10822864 0.17596862
-0.12145752 -0.10711271 0.17613667
-0.12112796 -0.10599607 0.176305
-0.12079823 -0.10487869 0.17647338
-0.1204683 -0.10376054 0.17664185
-0.12013812 -0.10264164 0.1768105
-0.11980767 -0.10152203 0.17697924
-0.11947704 -0.10040163 0.17714807
-0.11914621 -0.099280506 0.17731699
-0.11881515 -0.098158628 0.17748606
-0.11848386 -0.097036019 0.17765516
-0.11815237 -0.09591262 0.1778245
-0.11782064 -0.094788522 0.17799386
-0.11748871 -0.093663603 0.17816335
-0.11715652 -0.092537984 0.17833301
-0.11682409 -0.09141162 0.1785028
-0.1164915 -0.090284482 0.17867264
-0.11615862 -0.089156583 0.1788426
-0.11582556 -0.088027939 0.17901272
-0.11549232 -0.086898521 0.17918286
-0.11515878 -0.085768357 0.17935318
-0.11482506 -0.084637433 0.17952353
-0.11449112 -0.08350575 0.17969409
-0.11415692 -0.082373336 0.17986482
-0.1138225 -0.081240147 0.18003553
-0.1134879 -0.080106184 0.18020642
-0.11315307 -0.07897146 0.18037733
-0.112818 -0.077835962 0.18054846
-0.1124827 -0.076699719 0.1807197
-0.11214718 -0.075562686 0.18089104
-0.11181145 -0.074424922 0.18106243
-0.11147545 -0.073286369 0.18123403
-0.11113927 -0.072147071 0.18140569
-0.11080287 -0.071006984 0.18157744
-0.11046621 -0.069866121 0.18174943
-0.11012936 -0.068724513 0.18192142
-0.10979224 -0.06758213 0.18209353
-0.10945493 -0.066438958 0.18226573
-0.10911737 -0.065295041 0.18243814
-0.10877957 -0.064150363 0.18261057
-0.10844158 -0.063004866 0.18278319
-0.10810333 -0.061858639 0.18295592
-0.10776488 -0.060711622 0.18312877
-0.10742617 -0.05956383 0.18330169
-0.10708726 -0.058415249 0.18347478
-0.10674811 -0.057265922 0.18364793
-0.10640872 -0.056115806 0.1838212
-0.10606911 -0.054964885 0.18399462
-0.10572926 -0.053813219 0.18416822
-0.10538919 -0.052660763 0.18434185
-0.10504888 -0.051507518 0.18451563
-0.10470834 -0.050353497 0.18468949
-0.10436758 -0.049198702 0.18486351
-0.10379469 -0.048162967 0.18527648
-0.10319281 -0.04714334 0.18571937
-0.10259151 -0.046124741 0.18616188
-0.10199083 -0.045107126 0.18660399
-0.1013907 -0.044090509 0.1870456
-0.10079116 -0.043074876 0.1874868
-0.10019225 -0.042060226 0.18792757
-0.099593863 -0.041046605 0.18836799
-0.098996095 -0.040033922 0.18880785
-0.098398872 -0.039022252 0.18924734
-0.097802281 -0.038011521 0.18968645
-0.097206205 -0.037001833 0.19012511
-0.096610762 -0.035993084 0.19056329
-0.096015848 -0.034985363 0.19100118
-0.09542156 -0.033978581 0.19143853
-0.094827846 -0.032972768 0.1918754
-0.09423469 -0.031967953 0.19231194
-0.093642108 -0.030964091 0.19274804
-0.0930501 -0.029961228 0.19318375
-0.092458665 -0.028959304 0.19361895
-0.091867775 -0.027958393 0.19405383
-0.091277517 -0.026958421 0.19448823
-0.090687774 -0.025959402 0.19492221
-0.090098649 -0.024961367 0.1953558
-0.089510038 -0.023964316 0.19578895
-0.088922054 -0.022968188 0.19622168
-0.088334605 -0.021973029 0.19665396
-0.08774773 -0.020978853 0.19708592
-0.087161399 -0.019985616 0.19751742
-0.086575635 -0.018993348 0.19794846
-0.086599469 -0.017606899 0.19774127
-0.086626969 -0.016213745 0.19752964
-0.086654589 -0.01481621 0.19731736
-0.086682245 -0.013414234 0.19710433
-0.086710028 -0.012007833 0.19689068
-0.086737886 -0.010596961 0.19667634
-0.086765863 -0.0091815889 0.19646138
-0.086793885 -0.0077617615 0.19624561
-0.086822011 -0.0063373893 0.19602928
-0.086850233 -0.0049084723 0.19581217
-0.086878523 -0.0034749806 0.19559443
-0.086906932 -0.0020368993 0.19537598
-0.086935408 -0.00059422851 0.19515684
-0.086964019 0.00085312128 0.1949369
-0.086992674 0.0023051053 0.1947163
-0.087021396 0.0037617236 0.19449505
-0.0870502 0.0052230507 0.19427314
-0.087079123 0.0066891164 0.19405046
-0.087108083 0.0081598908 0.19382703
-0.087137185 0.0096354783 0.19360298
-0.087166384 0.011115819 0.19337818
-0.087195665 0.012601018 0.19315252
-0.087224998 0.014091 0.19292623
-0.087254487 0.015585899 0.19269919
-0.087284058 0.017085686 0.19247139
-0.087313741 0.018590376 0.19224286
-0.087343447 0.020099968 0.19201356
-0.087373324 0.021614537 0.19178355
-0.087403312 0.023134112 0.19155279
-0.087433368 0.024658695 0.19132116
-0.087463468 0.026188269 0.19108886
-0.087493733 0.02772294 0.19085577
-0.087524116 0.029262707 0.19062194
-0.088197321 0.031327128 0.18970045
-0.091216236 0.035311311 0.18626922
-0.094306208 0.039389238 0.18275726
-0.097469769 0.043564305 0.17916164
-0.10071042 0.0478407 0.17547843
-0.10403041 0.052221656 0.17170513
-0.10743237 0.056710839 0.16783863
-0.11091946 0.061312303 0.16387534
-0.11449488 0.066030338 0.15981174
-0.13419625 -0.14206809 0.16696787
-0.13368073 -0.14100286 0.1673221
-0.13316545 -0.13993812 0.16767612
-0.13265036 -0.13887386 0.16803002
-0.13213551 -0.13781005 0.16838378
-0.13162088 -0.1367467 0.16873738
-0.13110653 -0.1356838 0.16909087
-0.13059233 -0.13462141 0.16944417
-0.13007836 -0.13355945 0.16979727
-0.12956464 -0.13249794 0.17015031
-0.12905115 -0.13143691 0.17050311
-0.12853788 -0.13037634 0.17085579
