ply
format ascii 1.0
comment PCL generated
element vertex 1351
property float x
property float y
property float z
element face 0
element camera 0
property float view_px
property float view_py
property float view_pz
property float x_axisx
property float x_axisy
property float x_axisz
property float y_axisx
property float y_axisy
property float y_axisz
property float z_axisx
property float z_axisy
property float z_axisz
property float focal
property float scalex
property float scaley
property float centerx
property float centery
property int viewportx
property int viewporty
property float k1
property float k2
end_header
-0.12690991 -0.21338946 0.13887811
-0.12856238 -0.21307319 0.13902491
-0.13021664 -0.21275653 0.13917184
-0.13187288 -0.21243955 0.139319
-0.13353093 -0.2121222 0.13946635
0.13436359 -0.33488593 0.055227399
0.13436279 -0.32384673 0.064295411
0.13436262 -0.31321838 0.073025882
0.13436224 -0.30298319 0.081433475
0.13436227 -0.29311633 0.089538544
0.1343646 -0.28358534 0.097367793
0.13436496 -0.27440009 0.104913
0.13436525 -0.26553041 0.11219889
0.13315818 -0.26423687 0.1131781
0.13179588 -0.26389018 0.11336893
0.13043262 -0.26354322 0.11355984
0.1290684 -0.26319605 0.1137509
0.12770323 -0.26284862 0.11394203
0.12633717 -0.26250091 0.1141333
0.12497015 -0.26215303 0.11432478
0.12360218 -0.26180488 0.11451632
0.12223326 -0.26145649 0.11470804
0.12086339 -0.26110789 0.11489987
0.1194926 -0.26075906 0.1150918
0.11812085 -0.26040989 0.11528391
0.11674815 -0.26006052 0.11547616
0.11537453 -0.25971085 0.11566859
0.1139999 -0.25936097 0.11586115
0.11262441 -0.25901082 0.11605382
0.11124792 -0.25866044 0.11624664
0.10987047 -0.25830984 0.11643955
0.10849208 -0.25795892 0.11663261
0.10711273 -0.25760788 0.11682585
0.10573241 -0.25725648 0.11701924
0.10435116 -0.2569049 0.11721271
0.10296895 -0.25655305 0.11740625
0.10158578 -0.25620091 0.11760008
0.10020164 -0.25584865 0.11779395
0.098816566 -0.25549605 0.11798799
0.09743049 -0.25514323 0.11818212
0.096043482 -0.25479016 0.11837643
0.094655469 -0.25443688 0.11857083
-0.093672037 -0.33347398 0.040648341
-0.093672484 -0.32971454 0.043736458
-0.093673021 -0.32599774 0.046789527
-0.09367355 -0.32232267 0.049808383
-0.093674123 -0.3186886 0.052793503
-0.09367466 -0.3150948 0.055745542
-0.094916925 -0.31366673 0.05683285
-0.097007453 -0.31369171 0.056668043
-0.099103324 -0.31371671 0.056502879
-0.10120458 -0.31374177 0.056337237
-0.10331124 -0.3137669 0.056171179
-0.10542335 -0.31379214 0.056004703
-0.1075409 -0.31381738 0.05583787
-0.093673445 -0.28771025 0.078240395
-0.09367349 -0.28445029 0.080918252
-0.093672641 -0.28122321 0.083569229
-0.093672633 -0.2780312 0.086191237
-0.093672633 -0.27487239 0.088786006
-0.093672618 -0.27174628 0.091353893
-0.093672335 -0.26865193 0.093895733
-0.093672246 -0.26558957 0.096411288
-0.093672127 -0.26255843 0.098901212
-0.093672045 -0.25955799 0.10136586
-0.093671955 -0.25658789 0.1038056
-0.093671866 -0.2536476 0.10622102
-0.093671747 -0.25073662 0.10861212
-0.093671657 -0.24785461 0.11097956
-0.093671553 -0.24500108 0.11332357
-0.093671486 -0.24217571 0.11564445
-0.093671821 -0.23937862 0.11794209
-0.093672015 -0.23660849 0.12021756
-0.093671992 -0.23386498 0.12247115
-0.093672037 -0.23114803 0.12470299
-0.093672067 -0.22845717 0.12691337
-0.093672104 -0.22579201 0.12910265
-0.093672074 -0.22315216 0.13127112
-0.093672112 -0.22053735 0.13341904
-0.093672156 -0.21794719 0.13554662
-0.093672164 -0.21538132 0.13765442
-0.094750814 -0.21433812 0.13843679
-0.096356004 -0.21402806 0.13858068
-0.097962953 -0.21371768 0.13872486
-0.099571735 -0.21340692 0.13886911
-0.1011823 -0.21309583 0.13901347
-0.10279466 -0.21278436 0.13915795
-0.10440887 -0.2124726 0.13930267
-0.10602485 -0.21216047 0.13944757
-0.10764267 -0.21184796 0.13959259
-0.10926231 -0.21153516 0.13973778
-0.11088374 -0.21122196 0.1398831
-0.112507 -0.21090843 0.14002872
-0.11413208 -0.21059448 0.14017439
-0.11575891 -0.21028014 0.1403203
-0.11738759 -0.20996548 0.14046639
-0.11901811 -0.20965041 0.1406126
-0.12065049 -0.20933504 0.14075905
-0.12228467 -0.20901926 0.14090562
-0.1239207 -0.20870316 0.14105231
-0.1255586 -0.20838669 0.14119929
-0.12719835 -0.20806991 0.14134628
-0.12883997 -0.20775275 0.14149356
-0.13048336 -0.20743519 0.14164096
-0.13212864 -0.20711727 0.14178854
-0.13377583 -0.20679903 0.1419363
0.13436344 -0.33604759 0.052303791
0.13436326 -0.32493016 0.061473966
0.13436231 -0.31423771 0.070293486
0.13436222 -0.30393562 0.078791201
0.13436224 -0.29400763 0.086980283
0.13436441 -0.28442022 0.094888538
0.13436475 -0.27518106 0.10250944
0.1343651 -0.26626065 0.10986742
0.13426742 -0.25823432 0.1164811
0.13291901 -0.257889 0.11667109
0.13156973 -0.25754347 0.11686122
0.13021952 -0.25719777 0.11705142
0.1288684 -0.25685176 0.11724183
0.1275163 -0.25650549 0.11743236
0.12616335 -0.25615907 0.11762303
0.12480943 -0.25581229 0.11781383
0.12345459 -0.25546533 0.11800471
0.12209885 -0.25511816 0.11819568
0.12074217 -0.25477064 0.11838692
0.11938453 -0.25442293 0.11857834
0.11802605 -0.25407499 0.11876979
0.11666658 -0.25372678 0.11896136
0.11530619 -0.25337833 0.11915311
0.11394486 -0.25302964 0.11934498
0.11258261 -0.25268069 0.11953706
0.11121943 -0.25233155 0.11972916
0.10985532 -0.25198218 0.11992142
0.10849027 -0.25163251 0.12011382
0.10712428 -0.25128266 0.12030634
0.10575733 -0.25093251 0.12049913
0.10438949 -0.25058219 0.12069187
0.10302068 -0.25023156 0.12088478
0.10165095 -0.24988072 0.1210779
0.10028027 -0.24952967 0.12127107
0.098908648 -0.24917831 0.1214644
0.097536094 -0.24882677 0.12165785
0.096162558 -0.24847497 0.12185138
0.094788104 -0.2481229 0.12204519
-0.093672432 -0.33257061 0.039135635
-0.093672886 -0.3288112 0.042236567
-0.093673319 -0.32509419 0.045302629
-0.093673833 -0.32141909 0.048333883
-0.093674429 -0.31778514 0.051331282
-0.093674973 -0.31419152 0.054295421
-0.095674418 -0.31405416 0.054268181
-0.097773857 -0.31407964 0.0540995
-0.099878728 -0.3141053 0.053930283
-0.10198906 -0.31413093 0.053760767
-0.10410482 -0.31415668 0.053590775
-0.10622606 -0.31418252 0.053420305
-0.10835275 -0.31420833 0.053249419
-0.09367355 -0.28680959 0.076881528
-0.093673564 -0.28355017 0.079569995
-0.093672857 -0.28032386 0.082231224
-0.093672842 -0.27713248 0.084863663
-0.093672842 -0.27397439 0.087468684
-0.093672648 -0.27084872 0.090046823
-0.093672276 -0.26775494 0.092598796
-0.093672171 -0.26469332 0.095124066
-0.093672112 -0.26166305 0.097623646
-0.093671992 -0.25866348 0.10009778
-0.093671896 -0.25569424 0.10254699
-0.093671799 -0.25275478 0.10497165
-0.093671702 -0.24984474 0.10737193
-0.093671635 -0.24696372 0.10974836
-0.093671523 -0.24411115 0.11210132
-0.093671635 -0.24128701 0.11443079
-0.093672022 -0.23849098 0.11673707
-0.093672112 -0.23572181 0.11902118
-0.093672119 -0.23297939 0.12128329
-0.093672149 -0.23026349 0.12352347
-0.093672186 -0.22757372 0.12574208
-0.093672194 -0.22490965 0.12793958
-0.093672201 -0.22227097 0.13011605
-0.093672216 -0.21965732 0.13227195
-0.093672238 -0.2170683 0.13440746
-0.093672276 -0.21450363 0.13652295
-0.09367229 -0.21196292 0.13861871
-0.093672298 -0.20944583 0.14069486
-0.095244214 -0.20910594 0.14086461
-0.09683919 -0.20879503 0.14100897
-0.098435909 -0.20848377 0.14115345
-0.10003438 -0.2081721 0.14129806
-0.10163467 -0.20786016 0.14144284
-0.10323673 -0.20754784 0.14158779
-0.10484057 -0.20723519 0.14173293
-0.10644621 -0.2069222 0.14187813
-0.10805363 -0.20660886 0.14202356
-0.10966286 -0.20629518 0.14216918
-0.11127387 -0.20598112 0.14231497
-0.11288664 -0.20566666 0.14246088
-0.11450125 -0.2053519 0.14260697
-0.1161177 -0.20503683 0.14275318
-0.11773587 -0.20472132 0.14289963
-0.11935584 -0.20440543 0.14304632
-0.12097763 -0.20408916 0.14319307
-0.1226012 -0.20377256 0.14334005
-0.12422661 -0.20345561 0.14348722
-0.12585385 -0.20313832 0.1436345
-0.12748291 -0.20282064 0.1437819
-0.12911381 -0.20250258 0.1439296
-0.13074654 -0.20218424 0.14407736
-0.13238108 -0.20186546 0.14422542
-0.13401748 -0.20154639 0.14437348
0.13436331 -0.33722034 0.049352169
0.13436347 -0.32602549 0.058624506
0.13436203 -0.31526616 0.067536116
0.13436216 -0.30489659 0.076124966
0.13436221 -0.29490682 0.084399194
0.13436295 -0.28527084 0.092380553
0.13436462 -0.27596873 0.10008532
0.13436492 -0.26699707 0.10751632
0.13436522 -0.25833091 0.11469436
0.13402003 -0.25200629 0.11990806
0.13268441 -0.25166219 0.12009743
0.13134788 -0.25131786 0.12028691
0.13001047 -0.25097331 0.12047651
0.12867215 -0.2506285 0.12066624
0.12733291 -0.25028345 0.12085605
0.1259928 -0.24993819 0.12104607
0.1246518 -0.24959259 0.12123626
0.12330984 -0.24924678 0.12142649
0.12196703 -0.24890074 0.12161699
0.12062325 -0.24855447 0.12180749
0.11927863 -0.24820797 0.12199816
0.11793306 -0.24786122 0.12218899
0.1165866 -0.24751423 0.12237996
0.11523918 -0.24716702 0.12257105
0.11389089 -0.24681962 0.12276217
0.11254166 -0.24647193 0.12295353
0.11119152 -0.24612395 0.12314498
0.10984049 -0.24577579 0.12333661
0.1084885 -0.24542743 0.1235283
0.10713561 -0.24507885 0.12372008
0.10578183 -0.24472994 0.12391213
0.10442706 -0.24438085 0.1241042
0.10307146 -0.24403149 0.12429652
0.10171487 -0.24368191 0.12448886
0.1003574 -0.2433321 0.12468138
0.098998979 -0.24298204 0.124874
0.097639628 -0.24263176 0.12506679
0.096279375 -0.24228123 0.12525967
0.094918177 -0.24193043 0.12545267
-0.093672819 -0.33166474 0.037618816
-0.093673266 -0.32790521 0.040732741
-0.093673706 -0.32418823 0.043811381
-0.093674198 -0.32051313 0.04685533
-0.093674727 -0.31687924 0.049865127
-0.094334587 -0.31441838 0.051856101
-0.096437678 -0.31444445 0.051683843
-0.098546177 -0.31447065 0.051511168
-0.10066009 -0.31449676 0.051338077
-0.10277954 -0.31452304 0.051164448
-0.10490444 -0.31454936 0.050990462
-0.10703492 -0.31457579 0.05081594
-0.10917089 -0.31460226 0.05064106
-0.11131247 -0.31462881 0.050465584
-0.093673602 -0.28264764 0.078218341
-0.093673065 -0.27942222 0.08088994
-0.093673065 -0.27623156 0.083532631
-0.093673006 -0.27307406 0.086147904
-0.093672514 -0.26994857 0.088736713
-0.093672246 -0.26685578 0.091298401
-0.093672141 -0.26379499 0.093833566
-0.093672037 -0.26076543 0.096342921
-0.093671933 -0.25776666 0.098826706
-0.093671829 -0.25479826 0.10128534
-0.093671761 -0.25185978 0.10371929
-0.093671687 -0.2489507 0.10612875
-0.093671568 -0.24607059 0.10851425
-0.093671471 -0.24321902 0.11087608
-0.093671888 -0.24039635 0.11321402
-0.093672186 -0.23760122 0.11552918
-0.093672238 -0.23483303 0.11782199
-0.093672216 -0.23209165 0.12009257
-0.093672268 -0.22937687 0.12234116
-0.09367229 -0.22668819 0.1245681
-0.093672328 -0.22402534 0.12677372
-0.093672335 -0.22138779 0.12895828
-0.09367235 -0.21877529 0.13112211
-0.09367238 -0.21618749 0.13326555
-0.093672372 -0.21362396 0.13538891
-0.093672425 -0.21108449 0.13749224
-0.093672417 -0.20856866 0.13957602
-0.093672432 -0.2060761 0.1416406
-0.094148129 -0.20425315 0.14311635
-0.095731229 -0.20394175 0.14326093
-0.097316094 -0.20362997 0.14340559
-0.098902687 -0.20331788 0.14355049
-0.10049105 -0.20300543 0.14369547
-0.10208113 -0.20269263 0.14384064
-0.10367302 -0.20237952 0.1439859
-0.10526666 -0.20206602 0.14413145
-0.10686209 -0.20175223 0.14427707
-0.10845923 -0.20143807 0.14442289
-0.11005815 -0.20112351 0.14456889
-0.11165888 -0.2008087 0.14471498
-0.11326133 -0.20049341 0.14486128
-0.11486559 -0.20017786 0.14500779
-0.11647166 -0.19986197 0.14515442
-0.11807948 -0.19954573 0.14530116
-0.11968909 -0.19922911 0.14544815
-0.1213005 -0.19891211 0.14559525
-0.12291362 -0.1985947 0.14574254
-0.12452856 -0.19827697 0.14589006
-0.12614526 -0.19795881 0.1460377
-0.12776379 -0.19764036 0.14618552
-0.12938415 -0.19732155 0.14633358
-0.13100627 -0.19700235 0.14648175
-0.13263021 -0.19668283 0.14663011
-0.13425596 -0.1963629 0.14677858
0.13436334 -0.32713372 0.055746198
0.13436176 -0.31630412 0.064753175
0.13436218 -0.30586636 0.073434532
0.13436218 -0.2958141 0.081795096
0.13436286 -0.28611976 0.089858174
0.13436441 -0.27676323 0.097640306
0.13436477 -0.26773968 0.10514534
0.13436507 -0.25902474 0.11239374
0.13436539 -0.25060272 0.1193985
0.13377731 -0.24589586 0.12327042
0.13245419 -0.24555294 0.12345913
0.13113025 -0.24520984 0.12364793
0.12980537 -0.24486646 0.12383685
0.12847969 -0.24452275 0.12402594
0.12715304 -0.24417888 0.12421522
0.12582554 -0.24383479 0.12440452
0.12449714 -0.24349044 0.12459406
0.12316789 -0.24314584 0.12478369
0.12183772 -0.24280103 0.12497342
0.12050664 -0.242456 0.12516329
0.11917467 -0.24211071 0.12535328
0.11784183 -0.24176525 0.12554342
0.1165081 -0.24141949 0.12573361
0.11517344 -0.24107352 0.12592402
0.11383793 -0.24072729 0.12611461
0.11250144 -0.24038091 0.12630519
0.11116416 -0.24003424 0.12649593
0.10981354 -0.23974197 0.12664056
0.10845637 -0.23947264 0.12676552
0.10709778 -0.23920305 0.1268906
0.10573784 -0.23893318 0.12701592
0.10437652 -0.23866303 0.12714124
0.10301381 -0.23839264 0.12726673
0.10164972 -0.23812194 0.12739238
0.1002842 -0.23785098 0.12751812
0.098917335 -0.23757976 0.12764403
0.097549014 -0.23730823 0.12776998
0.096179336 -0.23703644 0.12789619
0.094808243 -0.23676434 0.12802243
-0.093673192 -0.33075631 0.036097765
-0.093673639 -0.32699674 0.039224565
-0.093674071 -0.32327977 0.042316079
-0.093674526 -0.31960469 0.045372665
-0.093675062 -0.31597093 0.048394859
-0.095094644 -0.31481114 0.049255908
-0.097206749 -0.31483775 0.049079657
-0.099324353 -0.31486446 0.048902988
-0.10144749 -0.31489134 0.048725784
-0.10357614 -0.31491822 0.048548102
-0.10571035 -0.31494522 0.048369944
-0.10785013 -0.31497231 0.048191369
-0.10999542 -0.31499934 0.048012316
-0.11214639 -0.31502652 0.047832787
-0.093673691 -0.28174287 0.07686311
-0.093673319 -0.27851835 0.079544961
-0.093673296 -0.27532825 0.082198262
-0.093672879 -0.27217087 0.084824264
-0.093672387 -0.26904616 0.087423205
-0.093672223 -0.26595426 0.089994848
-0.093672104 -0.26289427 0.092539907
-0.093672007 -0.25986558 0.095058918
-0.093671948 -0.25686777 0.097552299
-0.093671843 -0.25390026 0.10002047
-0.093671724 -0.25096264 0.10246366
-0.093671627 -0.24805449 0.10488248
-0.093671508 -0.2451753 0.1072771
-0.093671665 -0.2423251 0.10964763
-0.093672022 -0.23950341 0.11199456
-0.09367232 -0.2367093 0.11431843
-0.093672328 -0.23394209 0.11661988
-0.093672372 -0.23120189 0.11889905
-0.09367238 -0.22848815 0.1211561
-0.093672417 -0.22580062 0.12339133
-0.093672432 -0.22313887 0.12560523
-0.093672432 -0.22050248 0.12779784
-0.093672477 -0.2178912 0.12996972
-0.093672454 -0.21530454 0.13212109
-0.093672492 -0.2127423 0.13425219
-0.093672499 -0.21020399 0.13636333
-0.093672521 -0.20768942 0.13845474
-0.093672574 -0.20519818 0.14052674
-0.093672588 -0.20272991 0.14257964
-0.093672588 -0.20028435 0.14461371
-0.094638787 -0.19915637 0.14548135
-0.096211962 -0.19884416 0.14562625
-0.097786851 -0.19853167 0.14577127
-0.099363446 -0.19821876 0.14591643
-0.10094184 -0.19790559 0.14606187
-0.10252187 -0.19759198 0.14620736
-0.10410369 -0.19727811 0.1463531
-0.10568723 -0.19696385 0.14649892
-0.10727256 -0.19664925 0.14664495
-0.10885958 -0.1963343 0.1467911
-0.11044835 -0.19601901 0.14693746
-0.1120389 -0.19570339 0.14708388
-0.11363117 -0.19538741 0.14723063
-0.11522523 -0.19507109 0.14737734
-0.11682102 -0.19475438 0.14752433
-0.11841857 -0.19443734 0.14767149
-0.1200179 -0.19411997 0.14781883
-0.12161899 -0.19380224 0.14796627
-0.12322184 -0.19348411 0.14811391
-0.12482648 -0.19316567 0.14826176
-0.12643287 -0.19284686 0.14840963
-0.12804097 -0.19252761 0.1485579
-0.12965089 -0.19220808 0.14870626
-0.13126254 -0.19188812 0.14885479
-0.13287604 -0.19156787 0.14900345
0.13436319 -0.3282524 0.052840412
0.1343617 -0.31735054 0.061945319
0.13436182 -0.30684695 0.070717752
0.13436215 -0.29672956 0.079167604
0.1343628 -0.28697613 0.087313563
0.13436426 -0.27756462 0.095173985
0.13436456 -0.26848862 0.10275418
0.13436492 -0.25972435 0.11007389
0.13436523 -0.2512559 0.11714664
0.13436551 -0.2430687 0.12398449
0.13353784 -0.23990674 0.12656379
0.1322135 -0.23964167 0.12668684
0.13088781 -0.23937632 0.12681004
0.12956075 -0.23911071 0.12693328
0.12823243 -0.23884481 0.12705666
0.12690271 -0.23857865 0.12718016
0.1255717 -0.23831224 0.12730378
0.12423933 -0.23804559 0.12742752
0.12290564 -0.2377786 0.12755147
0.12157059 -0.23751143 0.12767547
0.12023421 -0.23724389 0.1277996
0.11889648 -0.23697612 0.12792397
0.11755739 -0.23670813 0.1280483
0.11621698 -0.23643984 0.12817279
0.11487516 -0.23617126 0.12829748
0.11353203 -0.23590244 0.12842217
0.11218753 -0.23563333 0.1285471
0.11084172 -0.23536395 0.12867215
0.1094945 -0.23509432 0.12879723
0.10814589 -0.2348244 0.12892246
0.106796 -0.23455419 0.12904787
0.10544471 -0.2342837 0.12917346
0.10409202 -0.23401301 0.12929904
0.102738 -0.23374197 0.12942484
0.10138261 -0.23347062 0.12955081
0.10002578 -0.23319912 0.12967679
0.098667614 -0.23292725 0.129803
0.097308084 -0.23265509 0.1299293
0.095947221 -0.23238263 0.13005581
0.094584927 -0.23210993 0.1301823
-0.093673602 -0.32984537 0.034572363
-0.093674041 -0.32608575 0.037712336
-0.093674473 -0.32236883 0.040816605
-0.093674913 -0.31869379 0.043885827
-0.093675345 -0.31505999 0.046920717
-0.095689155 -0.31491348 0.046893537
-0.097766422 -0.31486788 0.046777308
-0.099848524 -0.31482223 0.046660781
-0.10193548 -0.31477645 0.046544015
-0.10402727 -0.31473053 0.046426952
-0.10612396 -0.31468454 0.04630965
-0.10822556 -0.31463847 0.04619205
-0.11033206 -0.31459218 0.046074152
-0.11244351 -0.31454593 0.045956016
-0.093673736 -0.28083566 0.075504422
-0.093673505 -0.27761203 0.078196704
-0.093673237 -0.27442223 0.080860794
-0.093672745 -0.27126545 0.083497286
-0.093672283 -0.26814157 0.08610636
-0.093672194 -0.26505056 0.088687897
-0.093672074 -0.26199138 0.091242969
-0.093671955 -0.25896347 0.093771756
-0.093671881 -0.25596651 0.096274793
-0.093671754 -0.2529999 0.098752499
-0.093671679 -0.25006324 0.10120511
-0.093671575 -0.24715605 0.10363317
-0.093671508 -0.24427791 0.10603696
-0.093671896 -0.24142911 0.10841614
-0.093672216 -0.23860833 0.11077201
-0.093672432 -0.23581517 0.11310482
-0.093672469 -0.23304908 0.11541498
-0.093672484 -0.23030992 0.11770266
-0.093672514 -0.22759737 0.11996818
-0.093672499 -0.22491091 0.12221181
-0.093672566 -0.22225039 0.12443393
-0.093672551 -0.21961515 0.12663472
-0.093672581 -0.21700504 0.1288147
-0.093672588 -0.21441963 0.13097394
-0.093672596 -0.21185857 0.13311291
-0.093672641 -0.20932159 0.13523173
-0.093672633 -0.20680819 0.13733089
-0.093672663 -0.20431824 0.13941047
-0.093672693 -0.20185125 0.14147085
-0.093672708 -0.19940703 0.14351222
-0.093672723 -0.19698513 0.1455349
-0.093672752 -0.19458543 0.14753917
-0.095123202 -0.19412494 0.14781597
-0.09668649 -0.193812 0.14796129
-0.098251544 -0.19349872 0.1481066
-0.099818334 -0.19318515 0.14825216
-0.10138678 -0.1928712 0.14839783
-0.10295691 -0.19255689 0.14854378
-0.10452879 -0.19224223 0.14868981
-0.10610239 -0.19192728 0.14883599
-0.10767771 -0.19161193 0.14898229
-0.10925477 -0.19129628 0.14912882
-0.11083351 -0.19098024 0.14927545
-0.11241402 -0.19066392 0.14942229
-0.11399622 -0.19034716 0.1495693
-0.11558016 -0.19003013 0.14971644
-0.11716586 -0.18971272 0.14986372
-0.11875329 -0.189395 0.15001118
-0.12034247 -0.1890769 0.15015879
-0.12193339 -0.18875849 0.15030664
-0.12352601 -0.18843965 0.15045458
-0.12512045 -0.18812051 0.15060276
-0.1267166 -0.18780102 0.15075099
-0.12831452 -0.18748116 0.1508995
-0.12991419 -0.18716094 0.15104809
-0.13151558 -0.18684031 0.15119687
-0.13311872 -0.18651932 0.15134591
0.13436306 -0.32938176 0.04990685
0.13436212 -0.31840315 0.059114218
0.13436155 -0.30783647 0.067975998
0.13436213 -0.29765329 0.07651639
0.13436273 -0.28784016 0.084746361
0.13436407 -0.27837291 0.092686325
0.13436443 -0.26924402 0.10034245
0.13436472 -0.26042986 0.10773459
0.13436505 -0.25191447 0.11487621
0.13436538 -0.24368303 0.12177965
0.13436534 -0.23572333 0.12845516
0.13307288 -0.23532915 0.1286881
0.13175671 -0.23506351 0.1288113
0.13043918 -0.23479758 0.12893474
0.12912039 -0.23453139 0.12905824
0.12780029 -0.23426491 0.12918195
0.12647885 -0.23399819 0.12930572
0.12515609 -0.23373117 0.12942964
0.12383207 -0.23346388 0.12955368
0.12250665 -0.23319639 0.12967786
0.1211799 -0.23292857 0.12980217
0.11985186 -0.23266049 0.12992656
0.11852253 -0.23239218 0.13005108
0.1171918 -0.23212357 0.13017571
0.11585976 -0.23185471 0.13030052
0.11452642 -0.23158552 0.13042548
0.11319174 -0.23131613 0.13055044
0.11185569 -0.23104642 0.13067558
0.11051825 -0.23077653 0.1308009
0.10917956 -0.23050633 0.13092625
0.10783948 -0.2302358 0.13105187
0.10649806 -0.22996505 0.13117751
0.10515533 -0.22969396 0.13130331
0.10381118 -0.22942272 0.13142917
0.10246573 -0.22915109 0.1315552
0.10111889 -0.22887921 0.13168135
0.099770717 -0.22860706 0.13180771
0.098421201 -0.22833461 0.13193417
0.097070292 -0.22806184 0.13206083
0.095718071 -0.22778885 0.13218749
0.094364449 -0.22751553 0.13231438
-0.093673989 -0.32893193 0.033042669
-0.093674421 -0.32517222 0.036195695
-0.093674876 -0.32145533 0.039312899
-0.093675338 -0.31778049 0.042394936
-0.093760759 -0.31429309 0.045313179
-0.095837191 -0.31424671 0.045195103
-0.097918488 -0.31420031 0.045076609
-0.10000455 -0.3141537 0.044957995
-0.10209553 -0.31410706 0.044838965
-0.10419143 -0.31406033 0.044719696
-0.10629219 -0.31401348 0.044600189
-0.10839786 -0.31396648 0.044480383
-0.11050851 -0.31391943 0.04436028
-0.11262409 -0.31387228 0.044239879
-0.11474463 -0.31382495 0.044119239
-0.093673609 -0.27670321 0.076845109
-0.093673103 -0.27351376 0.079520106
-0.093672611 -0.27035773 0.08216697
-0.093672238 -0.26723474 0.084786117
-0.093672119 -0.26414445 0.087377787
-0.093672015 -0.26108611 0.089942813
-0.093671925 -0.25805911 0.092481434
-0.093671836 -0.25506306 0.094994128
-0.093671717 -0.25209737 0.09748131
-0.09367165 -0.24916166 0.099943399
-0.093671545 -0.24625543 0.10238081
-0.093671612 -0.24337853 0.10479355
-0.093672089 -0.24053085 0.10718173
-0.093672402 -0.23771113 0.10954654
-0.093672551 -0.23491892 0.11188823
-0.093672559 -0.23215389 0.11420715
-0.093672611 -0.22941592 0.11650342
-0.093672611 -0.22670445 0.11877745
-0.093672641 -0.22401918 0.1210295
-0.093672648 -0.22135971 0.1232599
-0.093672656 -0.2187257 0.12546891
-0.0936727 -0.21611685 0.12765694
-0.093672708 -0.21353267 0.12982422
-0.09367273 -0.21097286 0.13197094
-0.09367273 -0.20843706 0.1340977
-0.093672745 -0.205925 0.13620448
-0.093672782 -0.20343632 0.13829166
-0.093672819 -0.20097065 0.14035949
-0.093672797 -0.19852768 0.14240834
-0.093672805 -0.19610716 0.14443836
-0.093672834 -0.19370873 0.14644977
-0.093672872 -0.19133213 0.14844298
-0.094049439 -0.18947087 0.14997551
-0.095601402 -0.18915761 0.15012094
-0.097155027 -0.18884397 0.1502665
-0.098710366 -0.18853 0.1504122
-0.10026734 -0.18821569 0.15055808
-0.10182603 -0.18790103 0.15070412
-0.1033864 -0.18758607 0.15085027
-0.1049485 -0.18727076 0.15099663
-0.10651227 -0.18695512 0.1511431
-0.10807772 -0.1866391 0.15128973
-0.1096449 -0.18632276 0.15143654
-0.11121375 -0.18600605 0.15158352
-0.11278433 -0.18568902 0.15173069
-0.11435659 -0.18537159 0.151878
-0.11593056 -0.18505387 0.15202549
-0.11750632 -0.18473585 0.15217307
-0.11908372 -0.18441741 0.15232089
-0.12066289 -0.18409868 0.15246874
-0.12224372 -0.18377954 0.15261695
-0.12382631 -0.18346004 0.15276518
-0.12541066 -0.18314026 0.15291354
-0.12699667 -0.18282005 0.15306216
-0.12858447 -0.18249957 0.15321091
-0.13017398 -0.18217872 0.15335989
-0.13176525 -0.18185751 0.15350893
-0.13335827 -0.18153594 0.15365818
0.13436289 -0.33052188 0.046945155
0.13436258 -0.31946561 0.056256473
0.13399002 -0.31131944 0.063088298
0.13237521 -0.3116217 0.06270951
0.13436268 -0.28871179 0.08215639
0.13436389 -0.27918833 0.090176821
0.13436422 -0.27000585 0.097910136
0.13436456 -0.26114133 0.10537559
0.1343649 -0.25257856 0.11258695
0.13436522 -0.24430236 0.11955687
0.13436532 -0.23629983 0.12629637
0.13392051 -0.23107544 0.13066193
0.1326137 -0.23080947 0.13078538
0.13130563 -0.23054323 0.130909
0.12999626 -0.23027673 0.13103262
0.12868562 -0.23001002 0.13115636
0.12737362 -0.229743 0.13128036
0.12606034 -0.22947574 0.1314044
0.12474577 -0.22920817 0.13152853
0.12342989 -0.22894035 0.13165286
0.1221127 -0.2286723 0.13177717
0.12079424 -0.2284039 0.1319018
0.11947442 -0.2281353 0.13202649
0.11815332 -0.22786644 0.13215122
0.11683087 -0.22759725 0.13227621
0.11550713 -0.22732787 0.13240117
0.11418207 -0.22705819 0.13252634
0.11285572 -0.22678824 0.1326516
0.11152803 -0.22651802 0.13277698
0.110199 -0.22624753 0.13290256
0.10886862 -0.22597679 0.13302815
0.10753696 -0.22570574 0.133154
0.10620395 -0.22543444 0.13327992
0.10486963 -0.22516289 0.13340592
0.10353393 -0.22489105 0.13353202
0.10219696 -0.22461881 0.13365847
0.10085861 -0.22434638 0.13378492
0.099518925 -0.22407366 0.13391143
0.098177925 -0.22380066 0.13403821
0.096835583 -0.22352743 0.13416502
0.095491871 -0.22325389 0.13429198
0.094146825 -0.2229801 0.13441908
-0.093673907 -0.33181897 0.028305948
-0.093674377 -0.3280158 0.031508744
-0.093674794 -0.32425612 0.034674942
-0.093675271 -0.32053936 0.03780514
-0.093675636 -0.3168644 0.040899992
-0.093905337 -0.31362474 0.043610692
-0.095985755 -0.3135775 0.04349035
-0.098071046 -0.31353018 0.04336971
-0.1001612 -0.31348282 0.043248892
-0.10225624 -0.31343532 0.043127596
-0.1043562 -0.31338772 0.043006122
-0.10646104 -0.31333998 0.042884409
-0.10857087 -0.31329215 0.042762339
-0.11068562 -0.31324416 0.04264003
-0.11280533 -0.31319606 0.042517304
-0.11493 -0.31314781 0.042394519
-0.09367346 -0.27579167 0.075490355
-0.093672976 -0.27260295 0.078175843
-0.093672439 -0.26944757 0.080833197
-0.093672201 -0.26632556 0.083462536
-0.093672082 -0.26323617 0.086064398
-0.093671948 -0.2601786 0.088639319
-0.093671903 -0.25715256 0.091187835
-0.093671806 -0.25415736 0.093710244
-0.093671657 -0.2511926 0.096207082
-0.093671605 -0.24825788 0.098678648
-0.093671478 -0.24535257 0.10112536
-0.093671784 -0.24247704 0.10354704
-0.093672268 -0.23963039 0.10594434
-0.093672551 -0.23681168 0.10831821
-0.093672663 -0.2340205 0.11066878
-0.093672678 -0.2312566 0.11299646
-0.0936727 -0.22851971 0.11530143
-0.093672737 -0.22580941 0.11758393
-0.093672745 -0.22312531 0.11984444
-0.093672767 -0.22046705 0.12208307
-0.09367279 -0.21783428 0.1243003
-0.093672782 -0.21522653 0.12649649
-0.093672834 -0.21264361 0.12867177
-0.093672834 -0.21008506 0.13082653
-0.093672872 -0.20755059 0.13296098
-0.093672872 -0.2050398 0.13507551
-0.093672894 -0.20255238 0.13717026
-0.093672909 -0.20008801 0.13924566
-0.093672924 -0.19764642 0.14130196
-0.093672961 -0.19522724 0.14333928
-0.093672954 -0.19283016 0.14535806
-0.093672983 -0.1904549 0.14735839
-0.093672976 -0.18810114 0.14934069
-0.093673006 -0.18576863 0.15130505
-0.094531126 -0.18456696 0.15225103
-0.096073538 -0.18425305 0.15239665
-0.097617611 -0.18393877 0.15254256
-0.099163339 -0.18362421 0.15268856
-0.10071073 -0.18330927 0.15283474
-0.10225978 -0.18299399 0.15298104
-0.10381046 -0.18267834 0.15312755
-0.10536284 -0.18236235 0.15327418
-0.10691693 -0.18204609 0.15342095
-0.10847265 -0.18172942 0.15356788
-0.11003007 -0.18141246 0.15371501
-0.11158915 -0.18109512 0.15386227
-0.11314992 -0.18077743 0.15400973
-0.11471239 -0.1804594 0.15415734
-0.11627656 -0.18014106 0.15430507
-0.11788699 -0.17987534 0.15440494
-0.11951655 -0.17962924 0.15448684
-0.12114852 -0.17938283 0.15456873
-0.12278288 -0.1791361 0.15465078
-0.12441961 -0.17888896 0.154733
-0.12605867 -0.17864141 0.15481529
-0.12770021 -0.17839356 0.15489772
-0.12934411 -0.17814532 0.15498027
-0.1309904 -0.17789671 0.155063
-0.13263912 -0.17764775 0.15514579
-0.13429029 -0.17739852 0.15522867
0.13436283 -0.3316727 0.043955386
0.13436295 -0.32053864 0.05337137
0.13385107 -0.31326178 0.059485257
0.13226916 -0.31328323 0.059343278
0.13436262 -0.28959125 0.079543293
0.13436343 -0.28001267 0.087643802
0.1343641 -0.27077425 0.095456719
0.13436441 -0.26185882 0.10299653
0.13436472 -0.25324813 0.11027852
0.13436504 -0.24492684 0.1173158
0.13436531 -0.23688091 0.12412024
0.13436483 -0.22910067 0.13069978
0.1334592 -0.22661306 0.13273266
0.13216034 -0.22634654 0.1328564
0.13086024 -0.22607982 0.13298017
0.12955892 -0.22581279 0.13310409
0.12825622 -0.22554553 0.13322809
0.12695234 -0.22527801 0.13335228
0.12564713 -0.2250102 0.13347659
0.12434062 -0.22474216 0.13360089
0.12303281 -0.22447382 0.13372552
0.12172376 -0.22420524 0.13385007
0.12041339 -0.22393633 0.13397491
0.11910173 -0.22366722 0.13409984
0.11778877 -0.22339782 0.13422489
0.11647449 -0.22312821 0.13434997
0.11515898 -0.22285824 0.13447523
0.11384211 -0.22258806 0.13460067
0.11252395 -0.22231764 0.13472617
0.11120448 -0.22204688 0.13485181
0.10988372 -0.2217759 0.13497755
0.10856163 -0.22150466 0.13510349
0.10723826 -0.22123313 0.13522941
0.10591353 -0.22096133 0.13535562
0.10458754 -0.22068918 0.13548195
0.10326024 -0.2204168 0.13560838
0.1019316 -0.22014408 0.13573498
0.10060164 -0.21987112 0.13586169
0.099270374 -0.21959795 0.13598841
0.097937733 -0.21932447 0.1361154
0.096603826 -0.21905071 0.13624242
0.095268585 -0.21877667 0.13636974
0.093931973 -0.2185024 0.13649699
-0.093674324 -0.33090034 0.0267542
-0.093674757 -0.32709718 0.029970467
-0.093675196 -0.32333755 0.033150017
-0.093675584 -0.31962067 0.036293209
-0.093675897 -0.31594574 0.039401054
-0.094050407 -0.31295389 0.041901946
-0.096134879 -0.31290585 0.041779339
-0.098224238 -0.31285775 0.041656435
-0.10031844 -0.31280947 0.041533351
-0.10241752 -0.31276101 0.041409969
-0.10452156 -0.31271255 0.04128617
-0.10663053 -0.31266391 0.041162193
-0.10874446 -0.31261516 0.041037917
-0.11086337 -0.31256631 0.040913284
-0.11298722 -0.31251734 0.040788472
-0.11511621 -0.31246835 0.040663183
-0.093673363 -0.27487785 0.074132025
-0.093672842 -0.27168977 0.076828241
-0.093672305 -0.26853523 0.079496086
-0.093672171 -0.26541415 0.082135499
-0.093672067 -0.26232556 0.084747553
-0.093671948 -0.25926891 0.087332606
-0.093671843 -0.25624365 0.089891016
-0.093671754 -0.25324938 0.092423141
-0.093671627 -0.25028557 0.094929695
-0.093671553 -0.2473518 0.097410798
-0.093671575 -0.24444772 0.099866629
-0.093672141 -0.24157359 0.10229731
-0.093672447 -0.23872772 0.10470396
-0.093672737 -0.23591012 0.10708678
-0.093672805 -0.23311996 0.10944635
-0.093672819 -0.23035716 0.11178291
-0.093672819 -0.22762138 0.11409646
-0.093672849 -0.22491224 0.11638755
-0.093672857 -0.22222929 0.11865658
-0.093672901 -0.21957226 0.12090349
-0.093672894 -0.21694067 0.12312907
-0.093672916 -0.21433422 0.12533337
-0.093672931 -0.21175252 0.12751663
-0.093672939 -0.20919521 0.12967938
-0.093672983 -0.20666201 0.13182163
-0.093673006 -0.20415258 0.13394386
-0.093672991 -0.20166643 0.13604641
-0.093673028 -0.19920343 0.13812932
-0.093673036 -0.19676313 0.14019305
-0.09367305 -0.19434531 0.14223781
-0.093673095 -0.19194962 0.1442638
-0.093673088 -0.18957572 0.14627135
-0.09367311 -0.18722337 0.14826071
-0.093673095 -0.18489221 0.15023223
-0.093673125 -0.18258205 0.15218589
-0.09367314 -0.18029256 0.15412205
-0.095065854 -0.17980008 0.15442947
-0.096655861 -0.17955747 0.1545102
-0.098248146 -0.17931448 0.15459102
-0.099842727 -0.1790712 0.15467191
-0.10143961 -0.17882752 0.15475297
-0.10303881 -0.17858353 0.15483406
-0.10464028 -0.17833917 0.15491533
-0.10624403 -0.17809445 0.15499675
-0.1078501 -0.17784932 0.15507829
-0.10945854 -0.17760393 0.15515989
-0.11106928 -0.17735818 0.15524164
-0.11268236 -0.17711207 0.15532345
-0.11429774 -0.17686553 0.15540546
-0.11591548 -0.17661871 0.15548754
-0.11753554 -0.17637147 0.15556973
-0.11915799 -0.17612393 0.15565208
-0.12078276 -0.17587601 0.15573457
-0.1224099 -0.17562772 0.15581712
-0.12403939 -0.17537908 0.15589979
-0.1256713 -0.1751301 0.15598264
-0.12730554 -0.17488073 0.15606549
-0.12894213 -0.17463101 0.15614861
-0.13058116 -0.17438093 0.15623176
-0.13222255 -0.17413044 0.15631509
-0.13386633 -0.17387962 0.15639845
0.13436252 -0.33283621 0.040935159
0.13436283 -0.32162538 0.050455749
0.13395275 -0.31360033 0.057238281
0.13236563 -0.31362221 0.057093203
0.13436246 -0.29047912 0.076906204
0.13436328 -0.28084224 0.08509025
0.13436387 -0.27154931 0.092982173
0.13436422 -0.26258236 0.10059726
0.13436453 -0.25392333 0.10795084
0.13436487 -0.24555638 0.11505634
0.1343652 -0.23746704 0.1219261
0.1343648 -0.22964591 0.12856799
0.1342932 -0.22247301 0.13465384
0.13300355 -0.22220631 0.13477761
0.13171263 -0.22193934 0.13490152
0.13042043 -0.22167206 0.13502559
0.12912698 -0.22140457 0.13514975
0.12783228 -0.22113684 0.13527393
0.12653627 -0.22086884 0.13539833
0.12523901 -0.22060052 0.13552284
0.12394053 -0.22033195 0.13564748
0.12264071 -0.22006318 0.13577223
0.12133966 -0.21979408 0.1358971
0.12003732 -0.21952477 0.13602215
0.11873372 -0.21925518 0.13614723
0.1174288 -0.2189853 0.13627246
0.11612263 -0.21871518 0.13639778
0.11481515 -0.21844478 0.13652331
0.11350641 -0.21817414 0.13664886
0.11219636 -0.2179032 0.13677466
0.11088502 -0.21763203 0.13690051
0.10957245 -0.21736053 0.13702655
0.10825852 -0.21708882 0.13715258
0.10694334 -0.21681675 0.13727891
0.10562686 -0.21654442 0.13740534
0.10430906 -0.21627186 0.13753179
0.10299 -0.21599898 0.13765848
0.10166959 -0.21572587 0.13778523
0.10034794 -0.21545243 0.13791218
0.099024892 -0.21517882 0.1380392
0.097700618 -0.21490484 0.13816634
0.096374989 -0.21463065 0.13829365
0.09504807 -0.2143562 0.13842106
0.093719833 -0.21408144 0.13854858
-0.093674727 -0.32997918 0.025198162
-0.093675144 -0.32617593 0.028427958
-0.093675561 -0.32241628 0.031620741
-0.093675852 -0.31869933 0.034777343
-0.09367618 -0.31502458 0.037897885
-0.094196096 -0.31228068 0.040186763
-0.096284553 -0.31223172 0.040061951
-0.09837795 -0.31218272 0.039936841
-0.10047623 -0.31213349 0.039811492
-0.10257941 -0.31208423 0.039685845
-0.10468755 -0.31203485 0.039559901
-0.10680066 -0.31198537 0.039433599
-0.10891873 -0.31193569 0.039306998
-0.11104187 -0.31188616 0.03918004
-0.11316997 -0.31183627 0.039052844
-0.11530308 -0.31178641 0.03892529
-0.093673185 -0.27396157 0.072770298
-0.093672663 -0.27077425 0.075477123
-0.093672231 -0.26762056 0.078155398
-0.093672104 -0.26450035 0.080805182
-0.093672015 -0.26141262 0.083427429
-0.093671888 -0.25835678 0.086022496
-0.093671784 -0.25533247 0.08859092
-0.093671709 -0.25233918 0.091132879
-0.09367162 -0.2493763 0.093649149
-0.093671523 -0.24644352 0.096139729
-0.093671814 -0.24354087 0.098604739
-0.093672283 -0.24066764 0.10104477
-0.093672596 -0.23782289 0.10346061
-0.093672909 -0.23500635 0.10585248
-0.093672909 -0.23221721 0.10822105
-0.093672954 -0.22945559 0.11056632
-0.093672931 -0.2267209 0.11288875
-0.093672991 -0.224013 0.11518842
-0.093673006 -0.22133124 0.11746579
-0.093672998 -0.21867535 0.11972129
-0.093673036 -0.21604502 0.12195504
-0.093673006 -0.21343978 0.12416744
-0.093673058 -0.2108594 0.12635887
-0.09367308 -0.20830338 0.12852949
-0.093673095 -0.20577148 0.13067973
-0.093673103 -0.20326325 0.13280976
-0.093673103 -0.20077848 0.13491988
-0.093673125 -0.19831678 0.13701046
-0.093673155 -0.19587786 0.13908166
-0.093673162 -0.19346139 0.14113384
-0.09367317 -0.19106704 0.14316723
-0.093673207 -0.18869457 0.14518192
-0.093673207 -0.1863436 0.1471785
-0.093673252 -0.18401389 0.14915696
-0.093673229 -0.18170513 0.15111765
-0.093673214 -0.17941701 0.15306076
-0.093673199 -0.17714933 0.15498662
-0.094814681 -0.17634629 0.1555776
-0.096397825 -0.17610215 0.15565887
-0.097983249 -0.17585769 0.15574017
-0.099570997 -0.17561294 0.15582156
-0.101161 -0.17536785 0.15590307
-0.10275328 -0.1751224 0.15598473
-0.10434785 -0.17487657 0.15606651
-0.10594467 -0.17463036 0.15614834
-0.1075438 -0.17438385 0.1562303
-0.10914525 -0.17413695 0.15631244
-0.11074899 -0.1738897 0.15639469
-0.11235502 -0.1736421 0.15647703
-0.11396339 -0.17339416 0.15655953
-0.11557404 -0.17314583 0.15664208
-0.11718707 -0.1728972 0.15672478
-0.11880241 -0.17264818 0.15680754
-0.12042008 -0.17239879 0.15689045
-0.12204008 -0.17214905 0.15697357
-0.12366243 -0.17189896 0.15705672
-0.12528713 -0.17164847 0.15714002
-0.12691419 -0.17139764 0.15722343
-0.1285436 -0.17114645 0.15730697
-0.13017537 -0.17089491 0.15739065
-0.13180952 -0.17064299 0.15747443
-0.13344605 -0.17039071 0.15755826
0.13436197 -0.33401287 0.037883997
0.13436268 -0.32272258 0.047512293
0.13405515 -0.31394115 0.054976165
0.1324628 -0.31396347 0.054828107
0.13086684 -0.31398588 0.054679692
0.13436306 -0.2816799 0.082513452
0.13436371 -0.27233109 0.090486139
0.13436407 -0.26331219 0.098177403
0.1343644 -0.25460413 0.10560369
0.13436474 -0.24619114 0.11277828
0.13436505 -0.23805849 0.11971378
0.13436477 -0.2301956 0.12641922
0.13436434 -0.22258735 0.13290745
0.13383551 -0.21812135 0.13667318
0.13255358 -0.21785417 0.13679719
0.13127047 -0.21758677 0.13692135
0.12998606 -0.21731903 0.13704553
0.12870044 -0.21705115 0.1371699
0.12741356 -0.21678288 0.13729438
0.12612544 -0.21651441 0.13741902
0.12483607 -0.21624571 0.13754371
0.12354543 -0.21597667 0.13766852
0.12225351 -0.21570744 0.13779345
0.12096035 -0.21543796 0.13791859
0.11966591 -0.21516813 0.13804382
0.11837026 -0.21489811 0.13816914
0.1170733 -0.21462779 0.13829452
0.11577512 -0.21435724 0.13842005
0.11447563 -0.21408643 0.13854575
0.11317488 -0.21381532 0.13867161
0.11187292 -0.21354394 0.13879755
0.1105696 -0.21327229 0.13892362
0.10926504 -0.21300034 0.13904992
0.10795922 -0.21272811 0.13917625
0.10665213 -0.21245559 0.13930273
0.10534374 -0.21218291 0.13942927
0.10403409 -0.21190986 0.13955608
0.10272315 -0.21163656 0.13968289
0.1014109 -0.21136303 0.13980982
0.10009737 -0.21108916 0.13993695
0.098782569 -0.2108151 0.14006418
0.097466454 -0.21054073 0.14019156
0.096149065 -0.2102661 0.14031902
0.094830364 -0.20999125 0.1404466
-0.093675107 -0.32905537 0.023637652
-0.093675539 -0.32525212 0.02688098
-0.093675859 -0.32149234 0.030087233
-0.093676187 -0.31777555 0.033256948
-0.093676493 -0.31410098 0.036390662
-0.094342269 -0.31160495 0.038465202
-0.096434772 -0.31155503 0.038338304
-0.0985322 -0.31150514 0.038210869
-0.10063461 -0.31145513 0.038083196
-0.1027419 -0.31140497 0.037955344
-0.10485418 -0.31135473 0.037827015
-0.10697149 -0.31130439 0.037698388
-0.10909377 -0.31125396 0.037569523
-0.11122107 -0.31120342 0.03744024
-0.11335341 -0.31115276 0.037310719
-0.11549075 -0.31110194 0.037180901
-0.09367305 -0.27304298 0.071404994
-0.093672521 -0.26985642 0.074122548
-0.093672208 -0.26670367 0.076811194
-0.093672104 -0.26358432 0.079471469
-0.09367197 -0.26049739 0.082103968
-0.093671866 -0.2574425 0.084709108
-0.093671761 -0.25441906 0.087287545
-0.093671635 -0.25142667 0.089839458
-0.09367156 -0.24846478 0.092365324
-0.093671545 -0.24553308 0.094865441
-0.093672015 -0.24263175 0.09733969
-0.093672469 -0.23975952 0.099789023
-0.093672775 -0.23691581 0.10221416
-0.093673006 -0.23410031 0.10461521
-0.093673036 -0.23131229 0.10699278
-0.093673043 -0.22855178 0.10934693
-0.09367305 -0.22581831 0.111678
-0.093673088 -0.22311155 0.11398637
-0.093673132 -0.22043106 0.11627233
-0.093673117 -0.21777637 0.11853611
-0.09367314 -0.21514726 0.12077826
-0.093673147 -0.21254331 0.12299889
-0.093673162 -0.20996416 0.12519836
-0.093673199 -0.20740946 0.12737703
-0.093673192 -0.20487879 0.12953514
-0.093673214 -0.20237197 0.13167298
-0.093673222 -0.19988851 0.13379091
-0.093673259 -0.19742818 0.13588899
-0.093673266 -0.19499062 0.1379678
-0.093673259 -0.19257548 0.1400274
-0.093673296 -0.19018254 0.14206812
-0.093673311 -0.18781143 0.14409009
-0.093673311 -0.18546189 0.14609382
-0.093673363 -0.18313363 0.14807934
-0.093673311 -0.18082625 0.15004706
-0.093673244 -0.17853953 0.15199724
-0.093673252 -0.1762733 0.15392983
-0.093673259 -0.17402722 0.15584534
-0.094565578 -0.17292115 0.15671626
-0.096141979 -0.17267561 0.15679795
-0.097720601 -0.17242974 0.15687975
-0.099301487 -0.17218351 0.15696162
-0.1008847 -0.17193699 0.15704367
-0.10247012 -0.17169009 0.15712574
-0.10405781 -0.17144281 0.157208
-0.1056478 -0.17119524 0.15729028
-0.10724007 -0.17094728 0.15737274
-0.10883459 -0.170699 0.15745533
-0.1104314 -0.17045033 0.15753803
-0.11203049 -0.1702013 0.15762088
-0.11363186 -0.1699519 0.15770376
-0.11523554 -0.16970216 0.15778688
-0.11684152 -0.16945206 0.15787005
-0.11844983 -0.16920161 0.15795329
-0.12006045 -0.16895081 0.15803677
-0.12167341 -0.16869964 0.15812024
-0.12328864 -0.16844808 0.15820387
-0.12490621 -0.16819619 0.1582877
-0.12652615 -0.16794392 0.1583716
-0.12814836 -0.16769129 0.15845564
-0.12977301 -0.16743833 0.15853971
-0.13139996 -0.16718495 0.15862402
-0.13302925 -0.16693123 0.15870836
0.13436259 -0.32382971 0.044541121
0.13415824 -0.31428432 0.052698731
0.1325606 -0.31430712 0.052547634
0.13095933 -0.31433004 0.052396059
0.13436277 -0.28252494 0.079913676
0.13436352 -0.27311978 0.087968141
0.13436389 -0.26404819 0.095736861
0.13436423 -0.25529066 0.10323668
0.13436453 -0.24683113 0.11048123
0.13436487 -0.23865466 0.1174835
0.13436475 -0.23074964 0.12425318
0.13436428 -0.22310242 0.13080204
0.13436384 -0.21569866 0.13714239
0.13338342 -0.21382329 0.13866767
0.13210917 -0.21355566 0.13879189
0.13083376 -0.21328783 0.13891622
0.12955707 -0.21301973 0.13904062
0.12827916 -0.21275134 0.13916516
0.12700002 -0.21248269 0.13928983
0.12571964 -0.21221381 0.13941467
0.12443803 -0.21194462 0.1395396
0.1231552 -0.21167526 0.13966462
0.12187108 -0.21140561 0.13978973
0.12058577 -0.21113564 0.13991499
0.11929915 -0.21086544 0.14004046
0.11801133 -0.21059501 0.14016595
0.11672225 -0.21032427 0.14029154
0.11543191 -0.21005332 0.14041731
0.11414035 -0.20978211 0.14054313
0.1128475 -0.20951054 0.14066926
0.11155344 -0.20923871 0.14079538
0.11025809 -0.20896667 0.14092165
0.10896153 -0.20869422 0.14104813
0.10766367 -0.2084216 0.14117473
0.10636454 -0.20814878 0.14130133
0.10506415 -0.20787558 0.14142811
0.10376249 -0.20760223 0.14155504
0.10245959 -0.20732853 0.14168209
0.10115542 -0.20705454 0.14180925
0.099849984 -0.20678033 0.14193651
0.098543234 -0.20650586 0.14206392
0.097235203 -0.20623115 0.14219141
0.095925927 -0.2059561 0.14231911
0.094615377 -0.20568083 0.14244685
-0.093675494 -0.32812887 0.022072792
-0.093675822 -0.32432544 0.025329947
-0.093676165 -0.32056582 0.028549552
-0.093676455 -0.31684905 0.03173244
-0.093676798 -0.31317472 0.034879148
-0.094488986 -0.31092656 0.036737442
-0.096585594 -0.31087586 0.0366081
-0.098687112 -0.31082508 0.03647846
-0.10079365 -0.31077427 0.036348462
-0.10290512 -0.31072327 0.036218166
-0.10502155 -0.31067219 0.036087632
-0.10714298 -0.31062093 0.03595674
-0.10926945 -0.31056961 0.035825491
-0.11140095 -0.31051815 0.035693884
-0.11353748 -0.31046653 0.035562098
-0.11567906 -0.31041479 0.035429955
-0.093672879 -0.27212191 0.070036173
-0.093672402 -0.26893616 0.072764397
-0.093672149 -0.26578435 0.075463653
-0.093672015 -0.26266578 0.078134298
-0.09367194 -0.25957981 0.080777049
-0.093671806 -0.25652578 0.083392441
-0.093671717 -0.25350335 0.085980892
-0.093671612 -0.25051185 0.08854264
-0.093671545 -0.24755102 0.091078281
-0.093671784 -0.24462076 0.093587697
-0.093672357 -0.2417206 0.096071303
-0.09367267 -0.23884919 0.098530293
-0.093672916 -0.2360065 0.10096467
-0.093673125 -0.23319206 0.1033749
-0.093673162 -0.2304052 0.10576153
-0.093673185 -0.22764584 0.10812455
-0.093673192 -0.22491357 0.11046445
-0.093673229 -0.22220798 0.11278141
-0.093673222 -0.21952865 0.11507595
-0.093673244 -0.21687526 0.11734825
-0.093673252 -0.21424739 0.11959875
-0.093673252 -0.21164471 0.1218276
-0.093673289 -0.20906685 0.12403524
-0.093673319 -0.20651345 0.1262219
-0.093673326 -0.20398414 0.12838799
-0.093673311 -0.20147859 0.13053364
-0.093673356 -0.19899654 0.13265926
-0.093673348 -0.19653754 0.13476509
-0.093673348 -0.1941013 0.13685143
-0.093673401 -0.19168763 0.1389184
-0.093673401 -0.18929608 0.1409665
-0.09367343 -0.18692641 0.1429958
-0.093673445 -0.18457828 0.14500675
-0.093673445 -0.18225144 0.14699939
-0.093673281 -0.17994532 0.1489743
-0.093673289 -0.17766014 0.1509313
-0.093673266 -0.17539535 0.15287083
-0.093673311 -0.17315076 0.15479302
-0.093673311 -0.17092603 0.15669823
-0.094318569 -0.16952443 0.15784538
-0.095888264 -0.1692775 0.15792751
-0.097460166 -0.16903022 0.15800977
-0.099034347 -0.16878261 0.15809211
-0.10061069 -0.16853461 0.15817472
-0.10218935 -0.16828631 0.15825728
-0.10377024 -0.16803767 0.15834001
-0.10535339 -0.16778865 0.15842277
-0.10693879 -0.1675393 0.15850568
-0.10852648 -0.16728961 0.15858877
-0.1101164 -0.16703954 0.15867195
-0.11170863 -0.16678917 0.15875518
-0.11330307 -0.16653836 0.1588386
-0.11489987 -0.16628724 0.15892208
-0.11649887 -0.16603574 0.15900576
-0.11810023 -0.16578391 0.15908945
-0.11970384 -0.16553168 0.15917337
-0.12130976 -0.16527911 0.15925735
-0.12291798 -0.16502616 0.15934148
-0.12452853 -0.1647729 0.15942571
-0.12614137 -0.16451922 0.15951011
-0.12775655 -0.16426519 0.15959454
-0.12937401 -0.16401078 0.1596792
-0.1309938 -0.163756 0.1597639
-0.13261598 -0.16350088 0.15984872
-0.13424043 -0.16324538 0.15993375
0.13436258 -0.32494727 0.041541517
0.13426201 -0.31462985 0.0504058
0.13265908 -0.31465313 0.050251603
0.13105249 -0.31467643 0.050096929
0.1343625 -0.28337762 0.077290654
0.13436337 -0.27391529 0.085428149
0.13436371 -0.26479059 0.093275279
0.13436407 -0.25598308 0.10084957
0.13436441 -0.24747653 0.10816509
0.13436469 -0.23925574 0.11523485
0.13436475 -0.23130812 0.12206966
0.13436429 -0.22362156 0.12867996
0.13436383 -0.2161807 0.135079
0.13420232 -0.20984554 0.1405136
0.13293687 -0.20957775 0.14063787
0.13167024 -0.2093098 0.14076215
0.1304024 -0.20904157 0.14088669
0.12913333 -0.20877306 0.14101121
0.12786305 -0.20850435 0.14113599
0.12659155 -0.20823528 0.14126083
0.12531884 -0.20796601 0.14138582
0.12404491 -0.20769647 0.1415109
0.12276975 -0.20742664 0.1416361
0.12149335 -0.2071566 0.14176142
0.12021573 -0.20688629 0.14188695
0.11893689 -0.20661567 0.14201248
0.11765683 -0.20634484 0.14213818
0.11637551 -0.20607376 0.14226404
0.11509299 -0.20580234 0.14238995
0.11380918 -0.20553073 0.14251605
0.11252419 -0.20525879 0.14264226
0.11123794 -0.20498659 0.14276859
0.10995045 -0.2047141 0.14289513
0.10866173 -0.20444135 0.14302173
0.10737174 -0.20416839 0.14314839
0.10608051 -0.20389512 0.14327526
0.10478804 -0.20362161 0.14340222
0.1034943 -0.20334785 0.14352927
0.10219932 -0.2030738 0.14365652
0.10090309 -0.20279948 0.14378387
0.099605605 -0.20252489 0.14391124
0.098306872 -0.20225005 0.14403892
0.097006865 -0.20197493 0.14416659
0.095705599 -0.20169954 0.14429441
0.094403014 -0.20142397 0.14442229
-0.093675517 -0.32719922 0.020503938
-0.093675971 -0.323396 0.023774683
-0.093676373 -0.31963655 0.027007699
-0.093676776 -0.31592008 0.0302037
-0.093677081 -0.31224585 0.033363402
-0.094636269 -0.31024581 0.035003126
-0.096737027 -0.31019434 0.03487134
-0.09884268 -0.3101427 0.034739435
-0.10095331 -0.31009096 0.034607112
-0.10304216 -0.30999476 0.034514964
-0.10513008 -0.30988932 0.034430683
-0.10722249 -0.30978352 0.034346402
-0.10931946 -0.30967766 0.034261823
-0.11142094 -0.30957147 0.034177005
-0.11352698 -0.30946508 0.034092188
-0.11563762 -0.30935848 0.034007013
-0.11775278 -0.30925161 0.033921778
-0.093672283 -0.2680136 0.071402788
-0.093672127 -0.26486278 0.074112535
-0.093671978 -0.26174504 0.076793611
-0.093671903 -0.25865993 0.079446852
-0.093671784 -0.25560683 0.082072496
-0.093671672 -0.25258529 0.084671021
-0.093671568 -0.24959481 0.087242723
-0.093671523 -0.24663498 0.089788139
-0.093671978 -0.24370605 0.092306852
-0.093672514 -0.24080691 0.094800055
-0.093672819 -0.23793659 0.097268462
-0.093673125 -0.23509504 0.099712133
-0.093673244 -0.2322816 0.10213161
-0.093673281 -0.22949593 0.10452724
-0.093673304 -0.22673774 0.10689926
-0.093673311 -0.22400664 0.10924792
-0.093673334 -0.22130224 0.1115737
-0.093673334 -0.21862416 0.11387682
-0.093673356 -0.21597202 0.11615753
-0.093673371 -0.21334542 0.11841643
-0.093673386 -0.21074401 0.12065357
-0.093673408 -0.20816748 0.12286937
-0.093673423 -0.20561536 0.12506413
-0.093673423 -0.20308737 0.12723809
-0.093673438 -0.2005832 0.12939173
-0.093673453 -0.19810246 0.1315251
-0.09367349 -0.19564489 0.13363856
-0.093673497 -0.19321005 0.13573247
-0.093673512 -0.19079776 0.13780698
-0.093673527 -0.18840763 0.13986251
-0.09367355 -0.18603937 0.14189914
