ply
format ascii 1.0
comment PCL generated
element vertex 1338
property float x
property float y
property float z
element face 0
element camera 0
property float view_px
property float view_py
property float view_pz
property float x_axisx
property float x_axisy
property float x_axisz
property float y_axisx
property float y_axisy
property float y_axisz
property float z_axisx
property float z_axisy
property float z_axisz
property float focal
property float scalex
property float scaley
property float centerx
property float centery
property int viewportx
property int viewporty
property float k1
property float k2
end_header
-0.10833888 0.0061566904 0.19260624
-0.10866597 0.0074063241 0.19239628
-0.10899326 0.0086569265 0.19218615
-0.1093209 0.0099084973 0.19197589
-0.10964874 0.011161029 0.19176546
-0.10997683 0.012414541 0.19155487
-0.11030515 0.013669021 0.19134414
-0.11063375 0.01492447 0.1911332
-0.11096265 0.016180895 0.19092202
-0.11129177 0.0174383 0.19071084
-0.1116211 0.018696677 0.19049942
-0.11195073 0.019956026 0.1902878
-0.11228062 0.021216355 0.19007605
-0.11261077 0.022477668 0.18986416
-0.11294119 0.023739956 0.18965212
-0.11327182 0.025003236 0.18943989
-0.11360272 0.026267495 0.18922746
-0.11393392 0.027532727 0.18901488
-0.11426532 0.028798956 0.18880212
-0.11487357 0.030033018 0.18836939
-0.11623448 0.031182118 0.18733841
-0.11760334 0.03233799 0.18630144
-0.11898036 0.033500649 0.18525836
-0.12036549 0.034670215 0.18420905
-0.12175878 0.035846718 0.18315354
-0.12316044 0.037030216 0.1820918
-0.12457051 0.038220778 0.18102357
-0.12598905 0.03941847 0.17994899
-0.12741618 0.040623344 0.17886788
-0.12885186 0.041835487 0.1777803
-0.13029619 0.043054957 0.17668614
-0.13174933 0.044281811 0.17558539
-0.13321121 0.045516133 0.17447796
-0.13468201 0.046757974 0.17336375
-0.13616189 0.048007414 0.1722427
-0.13765088 0.04926452 0.17111474
-0.139149 0.050529361 0.16997984
-0.14065635 0.051802017 0.16883793
-0.14217302 0.053082541 0.16768903
-0.14369914 0.054371029 0.16653287
-0.14523473 0.055667542 0.16536966
-0.14677992 0.056972168 0.16419914
-0.14833483 0.058284961 0.16302124
-0.13420334 -0.14938197 0.16440949
-0.13349843 -0.14747377 0.1650444
-0.13279644 -0.14557359 0.16567668
-0.13209741 -0.14368147 0.16630626
-0.13140135 -0.1417973 0.16693315
-0.13070822 -0.13992105 0.16755745
-0.130018 -0.1380527 0.16817912
-0.12933066 -0.13619214 0.16879821
-0.12864622 -0.13433939 0.16941467
-0.12796462 -0.13249435 0.17002863
-0.12728581 -0.13065699 0.17063993
-0.12661001 -0.1288273 0.17124858
-0.12593694 -0.12700517 0.17185488
-0.12526673 -0.12519065 0.17245856
-0.1245992 -0.12338354 0.17305976
-0.12393446 -0.12158389 0.17365852
-0.12347658 -0.11988971 0.17408884
-0.12325516 -0.11831287 0.17432666
-0.12303421 -0.11673917 0.17456412
-0.1228137 -0.11516857 0.17480105
-0.1225936 -0.11360107 0.17503756
-0.12237394 -0.11203666 0.1752736
-0.12215474 -0.11047534 0.1755091
-0.12193595 -0.10891709 0.17574421
-0.12171757 -0.10736187 0.17597887
-0.12149966 -0.10580975 0.176213
-0.12128212 -0.10426062 0.17644677
-0.12106508 -0.10271458 0.17668
-0.12084843 -0.10117155 0.17691272
-0.1206322 -0.099631518 0.17714506
-0.12041642 -0.098094523 0.17737696
-0.12020099 -0.096560501 0.17760843
-0.11998601 -0.095029466 0.17783943
-0.11977151 -0.093501449 0.17806992
-0.11955735 -0.091976374 0.17829999
-0.11934361 -0.090454265 0.17852968
-0.11913033 -0.088935122 0.17875889
-0.11891745 -0.087418936 0.17898759
-0.118705 -0.085905686 0.17921588
-0.11849295 -0.084395364 0.17944375
-0.11828133 -0.082887977 0.17967108
-0.11807008 -0.081383482 0.17989814
-0.11785923 -0.079881899 0.18012467
-0.1176488 -0.078383207 0.18035078
-0.11743879 -0.076887414 0.18057638
-0.11722918 -0.075394489 0.18080163
-0.11701998 -0.073904447 0.1810264
-0.11681119 -0.072417267 0.18125078
-0.11660284 -0.070932955 0.18147469
-0.11639489 -0.069451511 0.18169811
-0.11618736 -0.067972891 0.18192112
-0.11598021 -0.066497102 0.18214375
-0.11577342 -0.065024108 0.18236595
-0.11556709 -0.063553967 0.18258768
-0.11536108 -0.062086608 0.18280908
-0.11515555 -0.060622074 0.18302992
-0.11495031 -0.059160296 0.18325046
-0.11474553 -0.057701316 0.18347049
-0.11454116 -0.056245122 0.18369019
-0.11433712 -0.05479167 0.18390939
-0.11413345 -0.053340979 0.1841282
-0.11393024 -0.051893059 0.18434659
-0.11372738 -0.05044787 0.18456459
-0.11352488 -0.049005404 0.18478224
-0.11332281 -0.047565687 0.18499929
-0.11297701 -0.04608408 0.18533227
-0.11218859 -0.044470541 0.18602189
-0.11140399 -0.042864755 0.18670818
-0.11062311 -0.041266628 0.18739119
-0.10984595 -0.03967613 0.18807098
-0.10907252 -0.038093209 0.18874747
-0.10830273 -0.036517777 0.18942082
-0.10753657 -0.034949828 0.19009092
-0.10677409 -0.033389278 0.19075787
-0.10601515 -0.031836081 0.19142166
-0.10525979 -0.030290183 0.19208238
-0.104508 -0.028751548 0.19273993
-0.10375968 -0.0272201 0.19339448
-0.1030149 -0.025695812 0.19404593
-0.10227358 -0.024178624 0.19469437
-0.10153568 -0.022668481 0.19533977
-0.1008012 -0.021165334 0.19598222
-0.10007016 -0.019669164 0.19662166
-0.09984374 -0.018304508 0.19685516
-0.10016428 -0.017076686 0.19664896
-0.10048504 -0.015847929 0.1964426
-0.10080604 -0.014618222 0.1962361
-0.10112731 -0.013387568 0.19602948
-0.10144877 -0.012155972 0.19582266
-0.10177049 -0.010923427 0.19561574
-0.10209247 -0.0096899495 0.19540861
-0.10241474 -0.0084555224 0.19520128
-0.1027372 -0.0072201453 0.19499385
-0.1030599 -0.0059838034 0.19478628
-0.10338289 -0.0047465302 0.19457844
-0.10370611 -0.0035082996 0.19437054
-0.10402964 -0.0022691339 0.19416243
-0.10435341 -0.0010290071 0.19395411
-0.10467742 0.00021207705 0.1937457
-0.1050017 0.0014541075 0.19353712
-0.10532622 0.0026970953 0.19332832
-0.10565105 0.0039410293 0.19311935
-0.10597606 0.0051859468 0.19291022
-0.10630135 0.006431818 0.19270101
-0.10662687 0.0076786466 0.19249156
-0.10695267 0.0089264363 0.19228193
-0.10727873 0.010175187 0.19207224
-0.107605 0.011424907 0.19186229
-0.10793154 0.012675591 0.19165224
-0.10825831 0.013927255 0.19144207
-0.10858542 0.015179869 0.19123158
-0.10891271 0.016433459 0.19102103
-0.10924022 0.017688021 0.19081029
-0.10956801 0.018943552 0.19059947
-0.10989612 0.020200051 0.19038841
-0.11022441 0.021457527 0.19017714
-0.11055296 0.02271599 0.18996587
-0.1108818 0.023975413 0.18975425
-0.11121087 0.025235821 0.18954259
-0.11154024 0.026497204 0.18933073
-0.11186981 0.027759571 0.18911868
-0.11219966 0.02902291 0.1889064
-0.11293638 0.030238476 0.18836927
-0.11428878 0.031385865 0.1873405
-0.11564924 0.032539971 0.18630561
-0.11701759 0.033700868 0.18526462
-0.1183941 0.034868635 0.18421754
-0.1197788 0.036043312 0.18316418
-0.12117163 0.037224971 0.18210465
-0.12257284 0.038413651 0.18103874
-0.12398254 0.03960944 0.17996633
-0.1254006 0.040812399 0.17888758
-0.12682728 0.042022586 0.17780232
-0.12826252 0.043240067 0.17671055
-0.12970643 0.044464912 0.17561212
-0.13115911 0.045697197 0.17450705
-0.13262053 0.046936989 0.17339531
-0.13409102 0.048184328 0.17227668
-0.13557047 0.049439311 0.17115128
-0.13705897 0.050701998 0.17001891
-0.13855667 0.051972479 0.16887957
-0.14006364 0.053250797 0.16773322
-0.14157991 0.054537028 0.16657975
-0.14310566 0.055831276 0.16541913
-0.14464088 0.057133593 0.16425127
-0.14618574 0.058444053 0.16307604
-0.14774026 0.059762739 0.16189352
-0.13387938 -0.15437338 0.16274858
-0.13317262 -0.15244773 0.16338927
-0.13246883 -0.15053029 0.1640273
-0.13176806 -0.14862096 0.16466254
-0.13107026 -0.14671971 0.16529515
-0.13037534 -0.14482644 0.16592512
-0.12968342 -0.14294124 0.16655245
-0.12899433 -0.14106384 0.16717717
-0.12830819 -0.13919441 0.16779912
-0.12762491 -0.13733275 0.16841859
-0.12694454 -0.13547888 0.1690354
-0.12626687 -0.13363272 0.16964969
-0.12559217 -0.13179427 0.17026138
-0.12492034 -0.1299635 0.17087051
-0.12425122 -0.12814027 0.17147705
-0.12358494 -0.12632459 0.17208105
-0.1229213 -0.12451638 0.17268273
-0.12226048 -0.12271564 0.17328182
-0.12160243 -0.1209223 0.1738784
-0.12131001 -0.11931108 0.17417598
-0.12109125 -0.11773851 0.1744132
-0.12087293 -0.11616904 0.17464998
-0.12065507 -0.11460266 0.17488626
-0.12043764 -0.11303937 0.17512211
-0.12022065 -0.11147916 0.17535752
-0.120004 -0.10992198 0.17559251
-0.11978787 -0.10836789 0.17582694
-0.11957206 -0.10681682 0.17606094
-0.11935674 -0.10526881 0.17629451
-0.11914185 -0.10372382 0.17652759
-0.11892734 -0.10218184 0.17676023
-0.11871332 -0.1006429 0.17699233
-0.11849968 -0.09910696 0.1772241
-0.11828645 -0.097573996 0.17745534
-0.11807361 -0.096044019 0.17768621
-0.11786121 -0.094517007 0.17791659
-0.11764924 -0.092992991 0.17814648
-0.11743763 -0.09147191 0.17837599
-0.11722648 -0.089953788 0.17860502
-0.1170157 -0.0884386 0.17883357
-0.11680545 -0.086926378 0.17906168
-0.11659548 -0.085417055 0.17928943
-0.11638592 -0.083910659 0.17951673
-0.11617681 -0.082407162 0.17974353
-0.11596805 -0.080906548 0.17996994
-0.11575975 -0.079408854 0.18019581
-0.1155518 -0.077914007 0.18042141
-0.11534429 -0.076422073 0.18064654
-0.11513719 -0.074933 0.18087107
-0.11493054 -0.07344681 0.18109524
-0.11472426 -0.071963459 0.181319
-0.11451843 -0.070482954 0.18154228
-0.1143129 -0.069005266 0.18176514
-0.11410786 -0.067530416 0.18198764
-0.11390312 -0.066058367 0.1822097
-0.11369878 -0.064589128 0.18243134
-0.11349489 -0.063122697 0.18265256
-0.11329135 -0.061659064 0.18287328
-0.11308821 -0.060198214 0.18309367
-0.11288545 -0.058740132 0.18331358
-0.11268307 -0.057284825 0.18353307
-0.11248103 -0.055832263 0.18375221
-0.11227944 -0.054382484 0.18397087
-0.11207825 -0.052935433 0.18418914
-0.11187743 -0.05149113 0.18440697
-0.11167695 -0.05004954 0.18462446
-0.11147685 -0.048610676 0.18484145
-0.11127716 -0.047174539 0.18505803
-0.11054751 -0.045576621 0.18570402
-0.10976739 -0.043969426 0.18639055
-0.10899107 -0.042369939 0.18707371
-0.1082184 -0.040778056 0.1877538
-0.10744947 -0.039193753 0.18843046
-0.10668413 -0.03761695 0.18910399
-0.1059224 -0.036047608 0.18977442
-0.1051643 -0.034485694 0.19044155
-0.10440975 -0.032931112 0.19110557
-0.10365874 -0.031383842 0.19176653
-0.10291128 -0.029843833 0.19242436
-0.10216729 -0.02831101 0.19307911
-0.10142678 -0.026785344 0.19373083
-0.10068971 -0.025266789 0.19437942
-0.099956065 -0.023755271 0.19502515
-0.099225804 -0.022250764 0.1956678
-0.098498985 -0.020753212 0.19630745
-0.097775415 -0.01926256 0.19694424
-0.097846106 -0.017975751 0.19693911
-0.09816511 -0.016750623 0.1967335
-0.098484382 -0.015524574 0.1965276
-0.098803833 -0.014297571 0.19632167
-0.099123567 -0.013069633 0.19611552
-0.09944357 -0.011840768 0.1959092
-0.099763796 -0.01061096 0.1957027
-0.10008428 -0.0093802027 0.19549614
-0.10040498 -0.0081485063 0.19528937
-0.10072595 -0.0069158711 0.19508246
-0.10104716 -0.0056822896 0.19487533
-0.10136861 -0.0044477582 0.19466808
-0.10169034 -0.0032122843 0.19446066
-0.10201229 -0.0019758642 0.19425309
-0.10233454 -0.00073849782 0.19404528
-0.10265703 0.00049981847 0.1938374
-0.10297982 0.0017390661 0.19362924
-0.10330281 0.0029792786 0.19342098
-0.10362606 0.0042204559 0.19321257
-0.10394955 0.0054625832 0.19300401
-0.10427327 0.0067056641 0.19279528
-0.1045973 0.0079496875 0.19258639
-0.10492155 0.0091946833 0.1923773
-0.10524605 0.010440648 0.19216809
-0.10557076 0.011687562 0.19195867
-0.1058958 0.012935434 0.19174913
-0.10622105 0.01418427 0.19153944
-0.10654654 0.015434071 0.19132957
-0.10687226 0.016684849 0.19111952
-0.10719828 0.017936576 0.19090942
-0.10752456 0.01918928 0.19069901
-0.10785104 0.020442944 0.19048849
-0.10817778 0.021697577 0.19027784
-0.10850479 0.022953194 0.19006699
-0.10883208 0.02420976 0.18985593
-0.10915959 0.025467318 0.18964478
-0.10948735 0.026725847 0.18943346
-0.10981537 0.027985353 0.18922201
-0.11014363 0.029245827 0.18901032
-0.11100689 0.030443121 0.18836927
-0.11235099 0.031588782 0.18734252
-0.11370295 0.032741148 0.18630978
-0.11506289 0.033900272 0.18527091
-0.11643078 0.03506624 0.18422598
-0.11780681 0.036239091 0.18317485
-0.11919096 0.037418913 0.18211743
-0.12058342 0.038605731 0.18105379
-0.12198422 0.039799627 0.17998371
-0.12339343 0.041000661 0.17890719
-0.12481108 0.042208895 0.17782423
-0.1262373 0.043424405 0.17673475
-0.12767202 0.044647258 0.17563877
-0.12911549 0.045877509 0.17453608
-0.13056776 0.047115222 0.17342669
-0.13202882 0.048360489 0.17231059
-0.13349882 0.049613364 0.1711877
-0.13497786 0.050873905 0.17005786
-0.13646595 0.052142203 0.16892102
-0.13796327 0.053418323 0.16777724
-0.13946979 0.054702334 0.16662639
-0.14098568 0.055994302 0.16546842
-0.14251104 0.057294324 0.16430318
-0.14404589 0.05860246 0.16313067
-0.14559036 0.059918784 0.16195089
-0.14714456 0.061243378 0.16076359
-0.14870858 0.062576316 0.15956879
-0.13426477 -0.16135202 0.16042641
-0.1335531 -0.15940046 0.16107577
-0.13284455 -0.15745723 0.1617223
-0.13213897 -0.15552229 0.16236612
-0.13143641 -0.15359557 0.16300726
-0.13073677 -0.15167701 0.16364563
-0.13004017 -0.14976659 0.16428131
-0.12934649 -0.14786425 0.16491425
-0.12865569 -0.1459699 0.1655446
-0.12796786 -0.14408356 0.16617227
-0.12728289 -0.1422051 0.16679731
-0.12660082 -0.14033455 0.16741964
-0.12592155 -0.13847178 0.1680395
-0.12524512 -0.13661681 0.16865665
-0.12457153 -0.13476956 0.16927132
-0.12390089 -0.13293004 0.16988334
-0.12323296 -0.13109814 0.17049277
-0.12256786 -0.12927383 0.17109972
-0.1219054 -0.12745702 0.1717042
-0.12124576 -0.12564771 0.17230609
-0.12058881 -0.12384586 0.17290559
-0.11993459 -0.12205141 0.17350253
-0.11937007 -0.12030662 0.17402562
-0.11915353 -0.11873519 0.17426267
-0.11893745 -0.11716683 0.1744993
-0.11872174 -0.11560156 0.17473543
-0.11850651 -0.1140394 0.17497113
-0.11829163 -0.11248027 0.17520636
-0.11807726 -0.11092422 0.17544106
-0.11786322 -0.1093712 0.17567542
-0.11764964 -0.10782123 0.17590925
-0.11743654 -0.10627431 0.17614257
-0.11722375 -0.10473037 0.17637563
-0.11701146 -0.10318949 0.176608
-0.11679956 -0.1016516 0.17684001
-0.11658803 -0.10011669 0.17707163
-0.11637697 -0.098584801 0.17730272
-0.11616628 -0.097055867 0.17753342
-0.11595601 -0.095529899 0.17776361
-0.11574614 -0.094006896 0.17799339
-0.1155367 -0.092486858 0.17822272
-0.11532764 -0.090969756 0.1784516
-0.11511904 -0.089455605 0.17868
-0.11491081 -0.087944366 0.17890799
-0.11470298 -0.086436048 0.17913556
-0.11449552 -0.084930636 0.17936265
-0.11428845 -0.083428122 0.17958933
-0.11408187 -0.081928529 0.17981556
-0.1138756 -0.080431804 0.18004143
-0.11366975 -0.07893794 0.18026677
-0.11346437 -0.077446982 0.18049166
-0.11325942 -0.0759589 0.18071613
-0.11305481 -0.074473657 0.18094015
-0.11285062 -0.072991267 0.18116367
-0.11264677 -0.071511686 0.18138692
-0.11244337 -0.070034951 0.18160966
-0.11224033 -0.068561032 0.18183202
-0.11203766 -0.067089915 0.18205389
-0.11183542 -0.065621607 0.18227535
-0.11163351 -0.0641561 0.1824964
-0.111432 -0.062693372 0.18271706
-0.11123091 -0.061233435 0.1829372
-0.11103015 -0.059776258 0.18315706
-0.11082979 -0.058321845 0.18337646
-0.11062984 -0.0568702 0.18359539
-0.11043021 -0.055421282 0.18381393
-0.11023103 -0.053975124 0.18403202
-0.11003219 -0.052531689 0.18424982
-0.1098337 -0.051090974 0.18446711
-0.10963564 -0.049652986 0.18468398
-0.10943791 -0.048217703 0.18490052
-0.10890895 -0.046680924 0.18538663
-0.10813341 -0.045072369 0.18607339
-0.10736158 -0.043471504 0.18675679
-0.1065934 -0.041878242 0.18743709
-0.10582888 -0.040292561 0.18811396
-0.105068 -0.038714398 0.18878776
-0.10431072 -0.037143689 0.18945834
-0.10355696 -0.035580382 0.19012573
-0.10280682 -0.034024451 0.19079
-0.10206015 -0.03247581 0.19145119
-0.10131703 -0.030934431 0.1921092
-0.10057732 -0.029400248 0.19276419
-0.099841088 -0.027873207 0.19341615
-0.099108294 -0.026353288 0.19406497
-0.098378867 -0.024840403 0.19471091
-0.097652823 -0.023334529 0.19535387
-0.096930161 -0.021835618 0.19599375
-0.096210793 -0.020343598 0.19663072
-0.09554036 -0.018869985 0.19722775
-0.095857635 -0.017648492 0.19702271
-0.096175149 -0.016426064 0.19681752
-0.096492872 -0.015202697 0.19661227
-0.096810892 -0.013978414 0.19640681
-0.097129136 -0.012753192 0.19620115
-0.097447634 -0.011527028 0.19599539
-0.097766355 -0.010299925 0.19578937
-0.098085314 -0.0090718977 0.19558325
-0.098404512 -0.0078429244 0.19537705
-0.098723978 -0.0066130087 0.19517061
-0.099043697 -0.0053821616 0.19496405
-0.09936364 -0.004150372 0.19475728
-0.099683821 -0.0029176287 0.1945504
-0.10000426 -0.0016839504 0.1943433
-0.100325 -0.00044934452 0.19413608
-0.10064602 0.00078621507 0.1939286
-0.10096724 0.0020227209 0.19372106
-0.10128872 0.0032601729 0.1935133
-0.10161044 0.0044985786 0.19330546
-0.10193245 0.0057379268 0.19309738
-0.10225464 0.0069782361 0.19288915
-0.10257711 0.008219488 0.19268075
-0.10289985 0.0094616972 0.19247222
-0.10322279 0.010704871 0.19226351
-0.10354602 0.011948988 0.1920546
-0.10386947 0.013194066 0.19184566
-0.10419318 0.014440112 0.19163647
-0.10451715 0.015687104 0.19142711
-0.10484138 0.01693505 0.19121763
-0.10516584 0.01818398 0.19100797
-0.10549055 0.019433856 0.1907981
-0.10581549 0.0206847 0.19058812
-0.1061407 0.021936513 0.19037798
-0.1064662 0.023189284 0.19016764
-0.1067919 0.024443027 0.1899572
-0.10711786 0.025697742 0.18974656
-0.10744408 0.026953422 0.18953577
-0.10777058 0.02821007 0.18932474
-0.10809727 0.029467698 0.18911362
-0.10908521 0.030646939 0.18836921
-0.11042102 0.031790867 0.18734455
-0.11176458 0.032941498 0.18631387
-0.11311607 0.034098864 0.18527716
-0.11447546 0.03526305 0.18423438
-0.11584289 0.036434092 0.18318537
-0.11721846 0.037612062 0.18213019
-0.1186021 0.038797028 0.18106881
-0.11999412 0.039989028 0.18000096
-0.12139449 0.041188151 0.17892677
-0.12280321 0.042394448 0.17784607
-0.12422039 0.043607987 0.17675897
-0.12564614 0.044828836 0.17566526
-0.12708047 0.046057068 0.17456499
-0.12852353 0.047292732 0.17345801
-0.12997529 0.048535913 0.17234436
-0.13143593 0.049786672 0.17122385
-0.1329055 0.05104509 0.17009658
-0.13438413 0.052311219 0.1689623
-0.13587183 0.053585134 0.16782108
-0.13736871 0.054866925 0.1666728
-0.13887486 0.056156635 0.16551739
-0.14039034 0.057454363 0.16435486
-0.14191529 0.058760174 0.16318506
-0.14344978 0.060074143 0.16200796
-0.14499387 0.061396353 0.16082346
-0.14654773 0.06272687 0.15963152
-0.14811134 0.064065792 0.15843204
-0.13393798 -0.1664331 0.15873563
-0.1332245 -0.16446361 0.15939096
-0.13251407 -0.16250257 0.16004345
-0.13180669 -0.16054992 0.16069317
-0.13110232 -0.15860561 0.16134012
-0.13040093 -0.15666959 0.16198429
-0.12970257 -0.15474176 0.16262576
-0.12900715 -0.15282214 0.16326445
-0.12831463 -0.15091062 0.16390052
-0.12762509 -0.14900717 0.16453388
-0.12693845 -0.14711174 0.16516459
-0.12625466 -0.1452243 0.16579258
-0.12557374 -0.14334473 0.16641799
-0.12489572 -0.14147308 0.16704071
-0.12422049 -0.13960925 0.16766089
-0.12354809 -0.13775316 0.16827849
-0.12287857 -0.13590486 0.16889343
-0.12221184 -0.13406423 0.16950583
-0.12154789 -0.13223124 0.17011565
-0.12088673 -0.13040583 0.1707229
-0.12022823 -0.12858792 0.17132771
-0.11957246 -0.12677753 0.17193004
-0.11891943 -0.12497456 0.17252988
-0.118269 -0.12317898 0.17312723
-0.11762132 -0.12139078 0.17372212
-0.11722101 -0.11972917 0.17411259
-0.11700714 -0.11816196 0.17434904
-0.11679362 -0.11659782 0.17458501
-0.11658055 -0.11503676 0.17482045
-0.11636789 -0.11347873 0.1750555
-0.11615565 -0.11192377 0.17529017
-0.1159438 -0.11037184 0.17552429
-0.11573242 -0.10882297 0.17575794
-0.11552142 -0.10727712 0.17599115
-0.1153108 -0.10573427 0.17622396
-0.11510065 -0.10419445 0.17645624
-0.11489083 -0.10265761 0.1766881
-0.11468148 -0.10112377 0.17691955
-0.11447252 -0.099592909 0.17715043
-0.11426397 -0.098065026 0.17738098
-0.11405586 -0.096540116 0.17761105
-0.11384808 -0.095018134 0.17784071
-0.11364077 -0.093499132 0.17806983
-0.11343384 -0.09198305 0.1782985
-0.11322731 -0.090469904 0.17852679
-0.11302119 -0.088959694 0.17875469
-0.11281544 -0.087452367 0.17898208
-0.11261009 -0.085947961 0.17920899
-0.11240517 -0.084446445 0.17943555
-0.1122006 -0.08294782 0.17966166
-0.11199643 -0.081452079 0.17988729
-0.11179276 -0.079959229 0.18011245
-0.11158943 -0.078469247 0.18033722
-0.11138657 -0.076982126 0.18056148
-0.111184 -0.075497836 0.18078545
-0.11098182 -0.074016377 0.18100885
-0.11078008 -0.072537765 0.18123189
-0.11057867 -0.071061954 0.18145448
-0.11037764 -0.069588959 0.18167672
-0.11017707 -0.068118796 0.18189842
-0.10997683 -0.066651411 0.18211982
-0.10977696 -0.065186821 0.18234068
-0.10957749 -0.063725017 0.18256119
-0.10937837 -0.062265966 0.18278128
-0.10917968 -0.060809709 0.18300089
-0.10898134 -0.059356201 0.18322018
-0.10878335 -0.057905428 0.18343905
-0.10858577 -0.056457423 0.18365738
-0.10838854 -0.055012137 0.18387538
-0.10819168 -0.053569566 0.18409297
-0.10799523 -0.052129738 0.1843102
-0.10779911 -0.050692607 0.18452695
-0.10760337 -0.04925818 0.18474334
-0.10727306 -0.047783501 0.1850698
-0.106502 -0.046173576 0.18575674
-0.10573468 -0.044571344 0.18644038
-0.10497099 -0.042976722 0.1871208
-0.10421087 -0.041389663 0.18779805
-0.10345446 -0.039810132 0.18847197
-0.10270156 -0.038238056 0.18914279
-0.10195218 -0.036673393 0.18981043
-0.10120642 -0.035116095 0.1904749
-0.10046406 -0.033566091 0.1911363
-0.099725187 -0.032023326 0.19179466
-0.098989829 -0.030487798 0.19244981
-0.09825784 -0.028959408 0.193102
-0.097529247 -0.027438112 0.19375113
-0.096804082 -0.025923882 0.19439724
-0.096082225 -0.024416644 0.19504035
-0.095363706 -0.022916369 0.19568056
-0.09464851 -0.021423005 0.19631779
-0.093936577 -0.019936491 0.19695204
-0.093562499 -0.01854156 0.19731045
-0.093878299 -0.017322741 0.19710591
-0.094194308 -0.016102985 0.19690129
-0.094510585 -0.014882322 0.19669649
-0.094827101 -0.013660718 0.19649151
-0.09514387 -0.012438186 0.19628635
-0.095460892 -0.011214733 0.19608104
-0.095778063 -0.0099903233 0.19587567
-0.096095547 -0.0087649971 0.19567001
-0.096413285 -0.0075387433 0.19546428
-0.09673126 -0.006311547 0.19525832
-0.097049475 -0.0050834194 0.1950523
-0.097367883 -0.0038543381 0.19484609
-0.097686589 -0.0026243404 0.19463965
-0.098005533 -0.0013934001 0.19443315
-0.098324761 -0.00016151369 0.19422635
-0.098644257 0.0010712929 0.19401947
-0.098963976 0.0023050606 0.19381246
-0.099283919 0.0035397634 0.19360518
-0.09960416 0.0047754087 0.19339785
-0.099924639 0.0060120001 0.19319028
-0.10024534 0.007249549 0.19298255
-0.10056627 0.0084880404 0.19277471
-0.10088752 0.0097274669 0.19256663
-0.10120896 0.010967858 0.19235846
-0.10153064 0.012209203 0.19215012
-0.10185257 0.013451498 0.19194168
-0.10217474 0.01469475 0.19173303
-0.10249721 0.015938953 0.19152415
-0.10281986 0.017184116 0.19131514
-0.1031428 0.018430229 0.19110608
-0.10346597 0.019677307 0.19089678
-0.10378942 0.020925339 0.19068727
-0.10411309 0.022174332 0.19047761
-0.10443699 0.023424286 0.19026783
-0.10476118 0.024675205 0.19005793
-0.10508558 0.025927093 0.1898478
-0.10541031 0.02717993 0.18963754
-0.10573523 0.028433751 0.18942708
-0.1060604 0.029688533 0.18921652
-0.10717122 0.030849941 0.18836915
-0.10849877 0.031992164 0.18734658
-0.10983405 0.033141039 0.18631795
-0.1111771 0.034296665 0.18528336
-0.11252812 0.035459049 0.1842427
-0.11388699 0.036628287 0.18319595
-0.11525397 0.037804432 0.18214291
-0.11662896 0.038987532 0.18108371
-0.11801226 0.040177654 0.18001816
-0.11940385 0.041374855 0.17894617
-0.12080371 0.042579215 0.17786777
-0.12221195 0.043790795 0.176783
-0.12362871 0.045009658 0.17569163
-0.12505397 0.046235867 0.17459375
-0.12648785 0.047469497 0.17348918
-0.12793043 0.0487106 0.17237791
-0.12938175 0.049959265 0.17125994
-0.13084194 0.051215544 0.17013514
-0.13231111 0.052479506 0.16900337
-0.13378926 0.053751238 0.16786471
-0.13527653 0.055030808 0.16671908
-0.13677303 0.056318268 0.16556624
-0.1382788 0.057613708 0.16440639
-0.13979387 0.05891721 0.16323921
-0.14131841 0.06022884 0.16206485
-0.1428525 0.06154868 0.1608831
-0.14439623 0.062876783 0.1596939
-0.14594969 0.064213254 0.15849727
-0.14751293 0.065558165 0.15729302
-0.13432728 -0.173547 0.15636849
-0.13360888 -0.17155081 0.15703267
-0.13289353 -0.1695632 0.15769398
-0.13218126 -0.16758418 0.15835249
-0.13147207 -0.16561362 0.1590082
-0.13076586 -0.1636515 0.15966105
-0.13006271 -0.16169778 0.16031113
-0.1293626 -0.1597524 0.16095841
-0.12866542 -0.15781528 0.16160297
-0.12797116 -0.15588635 0.16224489
-0.12727991 -0.15396568 0.16288388
-0.12659152 -0.15205303 0.16352028
-0.12590611 -0.15014854 0.16415399
-0.12522353 -0.14825201 0.16478503
-0.12454386 -0.14636347 0.16541335
-0.12386701 -0.14448284 0.16603917
-0.12319298 -0.14261007 0.16666234
-0.12252182 -0.14074515 0.16728285
-0.12185334 -0.13888796 0.1679008
-0.12118787 -0.13703859 0.16851607
-0.12052514 -0.13519686 0.16912881
-0.11986513 -0.13336278 0.16973895
-0.11920784 -0.13153626 0.17034671
-0.11855327 -0.12971728 0.17095184
-0.1179014 -0.12790579 0.17155448
-0.11725223 -0.12610172 0.17215472
-0.11660567 -0.12430505 0.17275241
-0.11596179 -0.12251574 0.17334771
-0.11532056 -0.12073372 0.17394057
-0.11508195 -0.11915439 0.17419913
-0.11487064 -0.11759137 0.17443499
-0.11465974 -0.11603142 0.17467028
-0.11444923 -0.11447451 0.17490521
-0.11423911 -0.11292064 0.17513961
-0.11402947 -0.11136983 0.17537358
-0.11382021 -0.10982203 0.17560712
-0.11361136 -0.10827726 0.17584014
-0.11340292 -0.10673551 0.17607278
-0.11319485 -0.10519673 0.17630488
-0.11298724 -0.10366097 0.17653662
-0.11277999 -0.10212819 0.17676786
-0.11257312 -0.10059835 0.17699865
-0.11236674 -0.099071532 0.17722896
-0.11216067 -0.097547635 0.17745891
-0.11195508 -0.096026726 0.17768839
-0.11174986 -0.094508737 0.17791733
-0.11154501 -0.092993669 0.17814595
-0.1113406 -0.091481552 0.17837402
-0.11113654 -0.089972332 0.17860171
-0.11093286 -0.088466004 0.17882901
-0.11072962 -0.086962603 0.17905581
-0.11052677 -0.085462078 0.17928213
-0.11032435 -0.083964467 0.17950806
-0.11012231 -0.082469732 0.17973357
-0.10992065 -0.08097785 0.17995852
-0.10971944 -0.079488851 0.18018311
-0.10951853 -0.078002676 0.18040732
-0.109318 -0.076519325 0.18063113
-0.10911793 -0.075038835 0.18085444
-0.10891818 -0.073561162 0.1810773
-0.1087188 -0.07208629 0.18129975
-0.10851987 -0.070614263 0.1815218
-0.10832125 -0.069144994 0.18174341
-0.10812303 -0.067678541 0.18196467
-0.10792522 -0.066214874 0.18218538
-0.10772772 -0.064753979 0.18240574
-0.10753071 -0.063295871 0.18262565
-0.10733396 -0.061840486 0.18284521
-0.10713761 -0.060387872 0.18306428
-0.10694164 -0.058938008 0.18328303
-0.10674603 -0.057490878 0.18350127
-0.10655081 -0.056046471 0.18371919
-0.10635597 -0.054604806 0.1839366
-0.10616146 -0.053165827 0.18415368
-0.10596728 -0.051729567 0.18437037
-0.10577352 -0.050296001 0.18458655
-0.10558012 -0.048865139 0.18480241
-0.10487315 -0.047273051 0.1854406
-0.10411033 -0.045669451 0.18612444
-0.10335107 -0.044073462 0.1868051
-0.10259543 -0.042485055 0.18748257
-0.10184342 -0.040904175 0.18815672
-0.10109487 -0.039330725 0.18882778
-0.1003499 -0.037764709 0.18949559
-0.099608436 -0.036206052 0.19016027
-0.098870397 -0.034654677 0.19082192
-0.098135829 -0.033110566 0.19148046
-0.097404763 -0.031573683 0.1921359
-0.09667702 -0.03004393 0.1927883
-0.095952645 -0.028521281 0.19343767
-0.095231682 -0.027005699 0.19408396
-0.094514012 -0.025497112 0.19472742
-0.093799636 -0.023995478 0.19536778
-0.093088612 -0.022500768 0.19600523
-0.092380792 -0.021012906 0.19663975
-0.09167622 -0.019531868 0.19727141
-0.091593683 -0.018214621 0.19739282
-0.091907978 -0.016998462 0.19718882
-0.092222556 -0.015781399 0.19698462
-0.092537373 -0.0145634 0.19678029
-0.092852399 -0.013344482 0.19657588
-0.093167648 -0.012124624 0.19637126
-0.093483195 -0.01090385 0.19616646
-0.093798965 -0.0096821524 0.19596151
-0.094114929 -0.0084595159 0.19575638
-0.094431221 -0.0072359666 0.19555104
-0.094747633 -0.00601146 0.19534573
-0.095064387 -0.0047860444 0.19514018
-0.095381334 -0.0035596862 0.19493443
-0.095698565 -0.0023323968 0.19472855
-0.096015975 -0.0011041723 0.1945225
-0.096333697 0.00012498349 0.1943163
-0.096651673 0.0013550743 0.19410986
-0.096969947 0.0025860965 0.19390336
-0.097288385 0.0038180612 0.19369659
-0.097607121 0.0050509684 0.19348973
-0.097926065 0.0062848255 0.19328272
-0.098245263 0.0075196065 0.1930756
-0.098564759 0.0087553374 0.19286817
-0.098884434 0.0099920258 0.19266075
-0.099204376 0.011229653 0.19245306
-0.099524543 0.012468226 0.19224524
-0.099845007 0.013707746 0.19203722
-0.10016567 0.014948212 0.19182906
-0.10048656 0.016189646 0.1916208
-0.10080774 0.017432019 0.19141236
-0.10112913 0.018675346 0.19120368
-0.10145082 0.019919619 0.19099495
-0.10177271 0.021164857 0.19078597
-0.10209487 0.022411048 0.19057685
-0.10241723 0.023658205 0.19036764
-0.10273989 0.024906311 0.19015822
-0.10306282 0.026155367 0.18994859
-0.10338594 0.027405404 0.18973884
-0.10370935 0.02865639 0.189529
-0.10403296 0.029908344 0.18931887
-0.10526498 0.031052124 0.18836913
-0.10658427 0.03219264 0.18734863
-0.10791129 0.033339791 0.18632209
-0.10924602 0.034493644 0.18528962
-0.11058861 0.035654258 0.18425101
-0.11193909 0.036821689 0.18320638
-0.11329746 0.037996009 0.18215564
-0.11466394 0.039177246 0.18109855
-0.11603854 0.040365499 0.18003526
-0.11742135 0.041560803 0.17896557
-0.11881244 0.042763233 0.17788947
-0.12021183 0.043972854 0.17680693
-0.12161957 0.045189738 0.17571798
-0.12303586 0.046413925 0.17462242
-0.12446064 0.04764552 0.17352027
-0.12589407 0.048884567 0.17241141
-0.1273362 0.050131127 0.17129588
-0.12878704 0.051385283 0.17017359
-0.13024685 0.052647099 0.16904429
-0.13171554 0.053916641 0.16790813
-0.13319331 0.055193998 0.16676506
-0.13468015 0.056479208 0.16561493
-0.13617617 0.057772383 0.16445762
-0.13768153 0.059073575 0.16329315
-0.13919623 0.060382865 0.16212144
-0.14072043 0.061700329 0.16094244
-0.14225414 0.063026033 0.159756
-0.14379743 0.064360067 0.15856215
-0.14535046 0.06570252 0.15736082
-0.14881717 0.067003526 0.15460888
-0.13399769 -0.17872027 0.15464702
-0.13327734 -0.1767056 0.1553174
-0.13256016 -0.17469968 0.15598479
-0.13184603 -0.17270243 0.15664938
-0.13113502 -0.17071375 0.15731111
-0.13042703 -0.16873366 0.15796995
-0.12972207 -0.16676202 0.15862602
-0.12902011 -0.16479881 0.15927917
-0.12832122 -0.16284403 0.15992963
-0.12762527 -0.16089755 0.16057733
-0.12693228 -0.15895936 0.16122219
-0.12624218 -0.15702936 0.16186443
-0.12555508 -0.15510759 0.16250381
-0.12487087 -0.15319389 0.16314057
-0.1241895 -0.15128829 0.16377461
-0.12351102 -0.1493907 0.16440603
-0.12283541 -0.14750107 0.16503474
-0.1221626 -0.14561935 0.16566089
-0.12149265 -0.14374551 0.16628438
-0.12082544 -0.1418795 0.16690525
-0.12016106 -0.14002126 0.16752356
-0.11949953 -0.13817078 0.16813922
-0.11884074 -0.13632795 0.16875228
-0.11818472 -0.13449281 0.16936278
-0.11753125 -0.13266517 0.1699709
-0.11688066 -0.13084511 0.17057636
-0.11623266 -0.12903252 0.17117944
-0.11558732 -0.12722737 0.17178002
-0.11494462 -0.12542962 0.17237815
-0.11430457 -0.1236392 0.17297375
-0.11366712 -0.12185608 0.17356703
-0.11316195 -0.12014421 0.17404968
-0.11295278 -0.11858229 0.17428535
-0.11274405 -0.11702345 0.17452046
-0.1125357 -0.11546765 0.17475522
-0.1123278 -0.11391489 0.1749894
-0.11212021 -0.11236514 0.17522329
-0.11191308 -0.11081844 0.17545664
-0.11170639 -0.10927475 0.17568952
-0.11150005 -0.10773405 0.17592201
-0.11129411 -0.10619634 0.17615399
-0.11108859 -0.10466164 0.17638549
-0.11088349 -0.10312992 0.17661655
-0.11067879 -0.10160118 0.17684725
-0.11047447 -0.10007538 0.17707735
-0.11027057 -0.09855254 0.17730713
-0.11006701 -0.097032629 0.17753643
-0.10986386 -0.095515668 0.17776537
-0.1096611 -0.094001621 0.17799374
-0.10945877 -0.092490509 0.17822176
-0.10925683 -0.090982318 0.17844918
-0.10905525 -0.089477003 0.17867631
-0.10885407 -0.087974593 0.17890292
-0.10865331 -0.086475089 0.17912918
-0.10845296 -0.084978454 0.17935488
-0.108253 -0.083484702 0.17958024
-0.10805345 -0.081993818 0.17980507
-0.10785419 -0.080505759 0.18002954
-0.10765535 -0.079020545 0.18025362
-0.10745692 -0.077538192 0.18047717
-0.10725881 -0.076058634 0.18070036
-0.1070611 -0.074581891 0.1809231
-0.10686381 -0.073107988 0.1811454
-0.10666683 -0.071636878 0.18136731
-0.10647032 -0.07016857 0.18158874
-0.10627407 -0.068703026 0.18180984
-0.10607825 -0.067240268 0.18203044
-0.10588282 -0.065780297 0.18225071
-0.10568771 -0.064323068 0.18247053
-0.10549296 -0.06286861 0.18268991
-0.10529867 -0.061416909 0.18290883
-0.10510466 -0.059967928 0.1831274
-0.10491101 -0.058521677 0.18334562
-0.10471781 -0.057078172 0.18356326
-0.10452491 -0.05563736 0.18378061
-0.10433234 -0.054199256 0.18399757
-0.10414021 -0.052763872 0.18421406
-0.10394835 -0.051331166 0.18443024
-0.10375695 -0.049901169 0.18464589
-0.10324688 -0.04837079 0.1851249
-0.10248844 -0.046765827 0.18580905
-0.10173371 -0.045168504 0.18648982
-0.10098249 -0.043578725 0.1871675
-0.10023484 -0.041996486 0.18784195
-0.099490717 -0.040421706 0.18851316
-0.098750085 -0.038854323 0.18918124
-0.098012909 -0.037294306 0.18984625
-0.097279236 -0.035741594 0.19050801
-0.09654893 -0.034196138 0.19116682
-0.095822141 -0.032657899 0.19182241
-0.0950986 -0.031126793 0.19247505
-0.094378471 -0.029602803 0.19312465
-0.093661726 -0.028085876 0.19377127
-0.092948198 -0.026575938 0.19441485
-0.092237994 -0.025072962 0.19505548
-0.091531098 -0.023576904 0.19569319
-0.090827376 -0.022087704 0.19632789
-0.090126887 -0.020605318 0.19695985
-0.089429647 -0.019129705 0.1975888
-0.089633852 -0.017889194 0.19747478
-0.089946717 -0.016675688 0.19727123
-0.090259835 -0.015461277 0.19706756
-0.090573162 -0.014245942 0.19686371
-0.090886727 -0.013029683 0.19665977
-0.091200531 -0.011812504 0.19645566
-0.091514573 -0.010594405 0.19625139
-0.091828868 -0.0093753822 0.19604689
-0.092143416 -0.008155439 0.1958423
-0.092458144 -0.0069345608 0.19563761
-0.092773154 -0.0057127625 0.19543272
-0.093088418 -0.0044900365 0.19522762
-0.093403891 -0.003266383 0.19502243
-0.093719631 -0.0020417944 0.19481707
-0.094035581 -0.00081627443 0.19461149
-0.094351783 0.00041016936 0.19440582
-0.094668329 0.001637537 0.19419989
-0.094985053 0.0028658435 0.1939939
-0.09530203 0.0040950812 0.19378766
-0.095619261 0.0053252615 0.19358134
-0.095936701 0.0065563768 0.19337484
-0.096254438 0.0077884309 0.19316813
-0.096572399 0.0090214238 0.19296128
-0.096890584 0.010255352 0.19275436
-0.097209021 0.01149023 0.19254714
-0.097527727 0.012726042 0.19233987
-0.097846657 0.013962805 0.19213235
-0.09816581 0.015200511 0.19192478
-0.098485231 0.016439173 0.19171697
-0.098804861 0.017678779 0.19150901
-0.099124804 0.018919323 0.1913009
-0.099444956 0.020160817 0.19109267
-0.099765345 0.021403275 0.19088417
-0.10008596 0.022646673 0.19067565
-0.10040689 0.023891032 0.19046691
-0.10072799 0.025136337 0.190258
-0.10104936 0.026382599 0.19004887
-0.10137099 0.027629822 0.18983972
-0.10169286 0.028878 0.18963039
-0.10206264 0.030121256 0.18938181
-0.10336626 0.031253498 0.1883691
-0.10467747 0.032392304 0.1873506
-0.10599622 0.033537738 0.18632621
-0.10732277 0.03468984 0.18529573
-0.10865697 0.035848685 0.18425927
-0.10999903 0.037014317 0.18321681
-0.11134896 0.038186807 0.18216822
-0.11270688 0.039366201 0.18111339
-0.11407282 0.040552579 0.18005225
-0.11544698 0.041745983 0.17898482
-0.1168293 0.042946499 0.17791104
-0.1182199 0.044154167 0.1768308
-0.11961882 0.045369059 0.17574421
-0.12102614 0.046591256 0.174651
-0.12244193 0.04782081 0.17355114
-0.12386625 0.049057785 0.17244476
-0.12529922 0.050302263 0.17133161
-0.1267409 0.051554307 0.1702117
-0.12819128 0.052813977 0.16908509
-0.12965059 0.054081351 0.16795143
-0.13111891 0.055356488 0.16681087
-0.13259618 0.056639478 0.1656633
-0.1340826 0.05793038 0.16450864
-0.13557826 0.05922927 0.1633468
-0.13708317 0.060536228 0.16217786
-0.13859746 0.061851338 0.16100153
-0.14012127 0.063174643 0.15981784
-0.14165455 0.064506255 0.15862679
-0.14319748 0.065846242 0.15742821
-0.14670008 0.067143917 0.15463421
-0.13337527 -0.18216404 0.15322548
-0.13222434 -0.17987341 0.15426323
-0.13150835 -0.1778577 0.15493396
-0.13079552 -0.17585072 0.15560171
-0.13008572 -0.17385238 0.15626669
-0.12937894 -0.17186265 0.15692869
-0.12867525 -0.16988149 0.15758789
-0.12797457 -0.16790879 0.15824431
-0.12727684 -0.16594452 0.15889794
-0.12658215 -0.16398866 0.15954873
-0.12589037 -0.1620411 0.16019669
-0.12520154 -0.16010182 0.160842
-0.12451567 -0.15817079 0.16148448
-0.12383269 -0.15624791 0.16212431
-0.12315254 -0.15433316 0.16276139
-0.12247528 -0.15242648 0.16339582
-0.1218009 -0.15052781 0.16402757
-0.12112932 -0.1486371 0.1646567
-0.12046053 -0.14675428 0.16528314
-0.11979456 -0.14487936 0.16590703
-0.1191314 -0.14301227 0.16652822
-0.11847104 -0.14115298 0.16714686
-0.11781348 -0.13930142 0.16776285
-0.11715862 -0.13745752 0.1683763
-0.1165065 -0.13562125 0.16898724
-0.11585699 -0.13379256 0.16959563
-0.11521024 -0.13197139 0.17020151
-0.11456616 -0.13015774 0.17080492
-0.11392467 -0.12835149 0.17140585
-0.11328581 -0.12655264 0.17200428
-0.11264956 -0.12476113 0.17260027
-0.1120159 -0.12297694 0.17319393
-0.11138482 -0.12119998 0.17378509
-0.11104003 -0.11957055 0.17413607
-0.11083344 -0.11801282 0.17437112
-0.11062725 -0.11645813 0.17460564
-0.11042148 -0.11490647 0.17483971
-0.11021608 -0.11335783 0.17507339
-0.11001106 -0.11181221 0.1753065
-0.10980645 -0.11026958 0.17553928
-0.10960221 -0.10872996 0.17577159
-0.10939844 -0.10719334 0.1760034
-0.10919507 -0.1056597 0.17623475
-0.10899203 -0.10412902 0.17646572
-0.10878949 -0.10260135 0.17669612
-0.10858724 -0.10107659 0.1769262
-0.1083854 -0.099554785 0.17715582
-0.10818394 -0.098035909 0.17738488
-0.10798286 -0.096519955 0.17761371
-0.10778221 -0.09500695 0.17784193
-0.10758194 -0.093496844 0.17806971
-0.10738203 -0.091989651 0.17829713
-0.10718258 -0.090485364 0.17852405
-0.1069835 -0.08898396 0.17875046
-0.10678482 -0.087485462 0.17897651
-0.10658652 -0.085989825 0.17920211
-0.1063886 -0.084497049 0.17942727
-0.10619104 -0.083007112 0.17965198
-0.10599382 -0.081520021 0.17987633
-0.10579708 -0.080035798 0.1801002
-0.10560063 -0.07855437 0.18032363
-0.10540457 -0.077075772 0.1805467
-0.10520892 -0.075599998 0.18076923
-0.10501359 -0.074127026 0.18099144
-0.10481867 -0.072656855 0.18121317
-0.10462408 -0.071189456 0.18143457
-0.10442992 -0.069724858 0.18165547
-0.10423608 -0.068263039 0.18187597
-0.1040426 -0.066803962 0.18209609
-0.1038495 -0.065347642 0.18231571
-0.10365677 -0.063894108 0.18253496
-0.10346441 -0.062443282 0.1827538
-0.10327238 -0.060995188 0.18297225
-0.10308076 -0.059549846 0.18319026
-0.10288943 -0.058107201 0.18340787
-0.10269856 -0.056667294 0.18362501
-0.10250796 -0.055230055 0.18384185
-0.10231774 -0.053795524 0.18405828
-0.10212794 -0.052363705 0.1842742
-0.1019384 -0.050934546 0.18448982
-0.10162318 -0.049466819 0.18480971
-0.10086919 -0.047860496 0.1854941
-0.10011888 -0.046261821 0.18617511
-0.099372074 -0.044670701 0.18685296
-0.098628774 -0.043087102 0.18752763
-0.097889036 -0.041510981 0.18819907
-0.097152755 -0.039942253 0.18886736
-0.096419901 -0.038380891 0.18953264
-0.095690504 -0.036826834 0.19019464
-0.094964489 -0.03528003 0.1908536
-0.094241872 -0.033740431 0.19150952
-0.093522623 -0.032207996 0.19216236
-0.092806697 -0.030682664 0.19281217
-0.092094064 -0.029164378 0.19345903
-0.091384768 -0.027653117 0.19410282
-0.090678677 -0.026148804 0.19474366
-0.089975893 -0.024651408 0.19538161
-0.089276299 -0.023160864 0.19601658
-0.088579908 -0.021677144 0.19664866
-0.087886721 -0.0202002 0.19727784
-0.087371767 -0.018775173 0.19775918
-0.087682948 -0.017565232 0.19755632
-0.087994367 -0.016354382 0.19735333
-0.08830604 -0.015142612 0.19715011
-0.088617891 -0.013929922 0.19694689
-0.088930026 -0.012716323 0.19674337
-0.089242384 -0.011501811 0.19653967
-0.08955498 -0.01028638 0.19633594
-0.089867815 -0.0090700239 0.19613197
-0.090180859 -0.0078527369 0.19592792
-0.090494171 -0.0066345483 0.19572368
-0.090807721 -0.0054154284 0.19551924
-0.091121495 -0.0041953847 0.19531462
-0.091435507 -0.0029744133 0.19510996
-0.091749758 -0.0017525218 0.1949051
-0.092064247 -0.00052969903 0.19470006
-0.092378959 0.00069404393 0.19449487
-0.092693999 0.0019187182 0.19428951
-0.093009263 0.0031443126 0.19408405
-0.093324751 0.0043708421 0.19387826
-0.093640551 0.0055982843 0.19367245
-0.093956545 0.0068266764 0.19346637
-0.094272733 0.0080560111 0.19326025
-0.094589204 0.0092862733 0.1930539
-0.094905913 0.010517474 0.19284743
-0.095222905 0.011749603 0.19264078
-0.095540076 0.012982681 0.19243401
-0.095857501 0.014216702 0.19222707
-0.096175179 0.015451655 0.19202
-0.09649311 0.01668755 0.19181263
-0.096811265 0.017924391 0.19160524
-0.097129673 0.019162185 0.19139767
-0.097448289 0.020400923 0.19118991
-0.097767189 0.021640595 0.19098207
-0.098086372 0.022881214 0.19077399
-0.098405734 0.024122782 0.19056574
-0.098725364 0.0253653 0.19035736
-0.099045187 0.026608784 0.19014883
-0.099365354 0.027853198 0.18994009
-0.099685714 0.029098585 0.18973124
-0.1001796 0.030323487 0.18937972
-0.10147516 0.031454064 0.18836913
-0.10277827 0.032591179 0.18735263
-0.10408889 0.033734888 0.18633023
-0.10540718 0.034885246 0.1853019
-0.10673316 0.036042307 0.18426755
-0.10806683 0.037206162 0.18322724
-0.10940839 0.038376816 0.1821807
-0.11075781 0.03955438 0.18112808
-0.11211519 0.040738896 0.18006927
-0.11348075 0.041930404 0.17900404
-0.11485438 0.043128997 0.1779325
-0.11623625 0.044334721 0.17685458
-0.11762636 0.045547649 0.17577022
-0.11902477 0.046767842 0.17467937
-0.12043159 0.04799537 0.17358196
-0.12184689 0.0492303 0.17247796
-0.12327076 0.050472688 0.1713672
-0.12470323 0.051722612 0.17024982
-0.12614438 0.052980155 0.16912568
-0.12759437 0.054245353 0.16799456
-0.12905325 0.055518292 0.16685656
-0.13052107 0.056799062 0.16571155
-0.13199794 0.058087699 0.16455954
-0.13348395 0.059384301 0.16340035
-0.13497919 0.060688935 0.16223395
-0.13648362 0.062001683 0.16106039
-0.1379976 0.063322619 0.15987942
-0.1395209 0.06465181 0.15869117
-0.1410538 0.06598933 0.15749532
-0.14459167 0.067283735 0.15465942
-0.13427871 -0.18817994 0.15043151
-0.13307032 -0.18582553 0.15152493
-0.13186994 -0.18348667 0.15261117
-0.13067766 -0.18116337 0.15369001
-0.12974197 -0.17900816 0.15455097
-0.12903336 -0.17700009 0.15521917
-0.12832788 -0.17500073 0.15588444
-0.12762542 -0.17300993 0.15654686
-0.126926 -0.17102772 0.15720633
-0.12622949 -0.16905391 0.1578632
-0.12553605 -0.16708863 0.15851712
-0.12484552 -0.16513169 0.1591683
-0.12415792 -0.16318306 0.15981662
-0.12347326 -0.16124272 0.16046226
-0.1227915 -0.15931061 0.16110519
-0.12211262 -0.15738666 0.16174528
-0.1214366 -0.15547082 0.16238275
-0.12076341 -0.15356304 0.16301757
-0.12009309 -0.15166332 0.16364968
-0.11942557 -0.14977154 0.1642791
-0.11876082 -0.14788768 0.16490594
-0.11809888 -0.14601168 0.16553015
-0.11743972 -0.14414352 0.1661517
-0.11678338 -0.14228314 0.16677067
-0.11612971 -0.14043051 0.16738707
-0.11547884 -0.13858557 0.16800079
-0.1148306 -0.13674819 0.16861209
-0.11418502 -0.13491842 0.16922086
-0.11354215 -0.13309619 0.16982713
-0.11290185 -0.13128141 0.1704309
-0.11226426 -0.1294741 0.17103216
-0.11162922 -0.12767418 0.17163098
-0.11099678 -0.12588157 0.17222738
-0.11036693 -0.1240963 0.17282128
-0.10973959 -0.12231825 0.17341289
-0.10913239 -0.12055619 0.17398724
-0.10892789 -0.11899956 0.17422208
-0.10872385 -0.11744598 0.17445645
-0.10852018 -0.11589541 0.1746904
-0.10831691 -0.11434787 0.17492393
-0.10811403 -0.11280333 0.17515689
-0.10791159 -0.1112618 0.17538944
-0.10770948 -0.10972325 0.17562157
-0.10750777 -0.10818768 0.17585325
-0.10730653 -0.10665514 0.17608434
-0.10710561 -0.10512552 0.17631516
-0.10690507 -0.10359886 0.1765455
-0.10670495 -0.10207515 0.17677543
-0.10650516 -0.10055437 0.17700481
-0.10630581 -0.099036545 0.17723382
-0.10610683 -0.097521633 0.1774624
-0.10590819 -0.09600962 0.17769051
-0.10570998 -0.094500534 0.17791817
-0.10551226 -0.092994384 0.17814535
-0.10531488 -0.091491118 0.178372
-0.10511784 -0.08999072 0.17859837
-0.10492118 -0.088493191 0.17882425
-0.10472496 -0.086998552 0.17904973
-0.10452902 -0.085506737 0.17927477
-0.10433348 -0.084017783 0.17949936
-0.10413836 -0.082531676 0.17972347
-0.10394357 -0.081048384 0.17994723
-0.10374917 -0.079567932 0.18017057
-0.10355514 -0.078090295 0.18039337
-0.10336146 -0.076615453 0.18061593
-0.10316817 -0.075143427 0.1808379
-0.10297522 -0.073674187 0.18105954
-0.10278267 -0.072207734 0.1812807
-0.10259049 -0.070744053 0.18150154
-0.10239862 -0.069283143 0.1817219
-0.10220711 -0.067824975 0.18194181
-0.10201603 -0.066369593 0.18216133
-0.10182528 -0.064916939 0.18238047
-0.1016349 -0.063467033 0.18259913
-0.10144486 -0.062019829 0.18281746
-0.10125515 -0.06057537 0.18303537
-0.10106584 -0.059133623 0.18325278
-0.10087685 -0.057694566 0.18346986
-0.10068823 -0.056258213 0.18368655
-0.10049999 -0.054824572 0.18390277
-0.10031207 -0.053393602 0.18411869
-0.10012449 -0.051965293 0.1843341
-0.099937305 -0.05053968 0.18454912
-0.099252507 -0.048953459 0.18517956
-0.098506585 -0.047353428 0.18586093
-0.097764164 -0.045760971 0.18653896
-0.097025216 -0.044176023 0.18721384
-0.096289858 -0.042598568 0.18788546
-0.095557868 -0.041028488 0.18855402
-0.094829336 -0.039465789 0.18921942
-0.094104216 -0.037910394 0.18988171
-0.093382508 -0.036362268 0.19054091
-0.092664093 -0.03482132 0.19119704
-0.091949046 -0.033287551 0.1918501
-0.091237307 -0.031760879 0.19250017
-0.090528861 -0.030241262 0.19314718
-0.089823723 -0.028728664 0.19379124
-0.089121744 -0.027223013 0.19443235
-0.088423014 -0.025724269 0.19507051
-0.087727547 -0.024232414 0.19570574
-0.087035209 -0.02274736 0.19633812
-0.086346015 -0.021269076 0.19696751
-0.085660011 -0.019797519 0.19759411
-0.085431188 -0.018450063 0.19783998
-0.085740924 -0.017242756 0.19763753
-0.086050883 -0.016034521 0.19743505
-0.086361095 -0.014825396 0.19723234
-0.086671531 -0.013615347 0.19702953
-0.086982235 -0.012404405 0.19682652
-0.087293148 -0.011192527 0.19662336
-0.087604254 -0.0099797323 0.19642013
-0.087915659 -0.0087660439 0.1962167
-0.088227272 -0.0075514279 0.19601303
-0.088539168 -0.006335903 0.19580933
-0.088851228 -0.0051194467 0.19560537
-0.089163542 -0.0039020777 0.19540137
-0.089476094 -0.0026837848 0.19519714
-0.089788899 -0.0014645681 0.19499278
-0.090101942 -0.00024443492 0.19478828
-0.09041521 0.00097662583 0.19458359
-0.090728715 0.0021985993 0.19437873
-0.091042519 0.0034215041 0.19417372
-0.09135659 0.0046453252 0.19396845
-0.091670856 0.005870074 0.19376314
-0.091985375 0.0070957541 0.19355765
-0.092300132 0.0083223693 0.19335192
-0.092615142 0.0095499121 0.19314614
-0.092930362 0.010778386 0.19294018
-0.093245834 0.012007799 0.19273406
-0.09356153 0.013238143 0.19252783
-0.093877479 0.014469426 0.19232133
-0.094193697 0.015701637 0.19211468
-0.094510138 0.016934793 0.19190797
-0.094826818 0.018168882 0.19170108
-0.095143735 0.019403927 0.19149396
-0.095460907 0.020639893 0.19128674
-0.095778301 0.021876808 0.19107938
-0.096095935 0.02311467 0.19087183
-0.096413806 0.024353474 0.19066411
-0.096731916 0.025593225 0.19045627
-0.097050339 0.026833914 0.19024819
-0.097368941 0.028075557 0.19004002
-0.097687781 0.029318146 0.1898317
-0.098303989 0.030524943 0.1893777
-0.099591583 0.031653848 0.18836907
-0.10088666 0.032789264 0.18735459
-0.10218921 0.03393124 0.18633425
-0.10349926 0.035079867 0.18530804
-0.10481705 0.036235172 0.18427581
-0.10614245 0.037397217 0.18323755
-0.10747567 0.038566075 0.18219322
-0.10881671 0.039741796 0.18114275
-0.11016555 0.040924452 0.18008614
-0.11152253 0.042114075 0.17902318
-0.11288761 0.043310747 0.1779539
-0.11426074 0.044514529 0.17687821
-0.11564204 0.045725491 0.17579624
-0.11703166 0.046943706 0.17470774
-0.11842956 0.048169207 0.17361265
-0.11983591 0.049402084 0.17251101
-0.12125075 0.050642405 0.17140269
-0.12267412 0.051890228 0.17028776
-0.12410615 0.053145632 0.169166
-0.12554681 0.054408662 0.16803741
-0.12699637 0.055679418 0.16690201
-0.12845479 0.05695796 0.16575956
-0.12992217 0.058244355 0.16461006
-0.13139859 0.059538677 0.16345358
-0.13288414 0.060840994 0.16228983
-0.13437891 0.062151395 0.16111895
-0.13588305 0.063469946 0.15994072
-0.13739645 0.064796731 0.15875524
