ply
format ascii 1.0
comment PCL generated
element vertex 1322
property float x
property float y
property float z
element face 0
element camera 0
property float view_px
property float view_py
property float view_pz
property float x_axisx
property float x_axisy
property float x_axisz
property float y_axisx
property float y_axisy
property float y_axisz
property float z_axisx
property float z_axisy
property float z_axisz
property float focal
property float scalex
property float scaley
property float centerx
property float centery
property int viewportx
property int viewporty
property float k1
property float k2
end_header
0.093686648 -0.24095833 0.09607482
0.093686223 -0.24203865 0.096399069
0.093685783 -0.2431159 0.096722364
0.093685366 -0.24419005 0.097044706
0.093684912 -0.24526109 0.097366244
0.093684971 -0.24632911 0.097686112
0.093685098 -0.24739406 0.098004937
0.093685254 -0.248456 0.098322868
0.093685344 -0.24951488 0.098639935
0.093685441 -0.25057077 0.098956168
0.093685552 -0.25162363 0.099271417
0.093685672 -0.25267348 0.099585772
0.093685798 -0.25372034 0.099899173
0.093685918 -0.25476423 0.10021174
0.093686007 -0.25580519 0.10052347
0.093686134 -0.25684321 0.10083428
0.09368626 -0.25787824 0.10114419
0.093686365 -0.25891042 0.10145324
0.093686454 -0.25993967 0.10176143
0.093686558 -0.260966 0.10206881
0.0936867 -0.2619895 0.10237521
0.0936867 -0.26301008 0.10268092
0.093686618 -0.26402777 0.10298595
0.093686521 -0.26504266 0.10329008
0.093686439 -0.26605463 0.10359338
0.093686342 -0.26706383 0.1038959
0.09368626 -0.26807022 0.10419747
0.093686178 -0.26907381 0.10449821
0.093686037 -0.27007455 0.10479823
0.093685962 -0.27107263 0.10509732
0.093685843 -0.27206784 0.10539562
0.093685791 -0.27306035 0.10569304
0.093685679 -0.27405006 0.10598966
0.093685582 -0.27503711 0.10628551
0.093685471 -0.27602136 0.1065805
0.094335511 -0.27714026 0.10602069
0.095033355 -0.2782709 0.10539857
0.095732443 -0.27940348 0.10477534
0.096432745 -0.28053808 0.10415101
0.097134337 -0.28167474 0.10352549
0.09783715 -0.28281346 0.10289896
0.09854126 -0.28395426 0.10227126
0.099246658 -0.28509706 0.10164237
0.099953279 -0.28624189 0.10101241
0.10066119 -0.2873888 0.10038137
0.10137041 -0.2885378 0.099749058
0.10208083 -0.28968883 0.0991157
0.10221256 -0.29069757 0.099236578
0.10232114 -0.29169869 0.09938699
0.10242945 -0.29269779 0.099537104
0.10253742 -0.29369482 0.099687159
0.1028095 -0.29473275 0.099623471
0.10336877 -0.29584569 0.099186838
0.10392851 -0.29695955 0.098749816
0.10448872 -0.29807431 0.098312438
0.10504946 -0.2991901 0.097874671
0.10561062 -0.30030677 0.097436547
0.10617227 -0.30142444 0.096998036
0.10673436 -0.30254304 0.096559256
0.10729694 -0.30366257 0.096120059
0.10785997 -0.30478305 0.095680505
0.10842347 -0.30590451 0.095240593
0.10898746 -0.30702692 0.094800293
0.10955195 -0.30815026 0.094359636
0.11011691 -0.30927461 0.093918562
0.11068232 -0.31039983 0.09347716
0.11124824 -0.31152606 0.0930354
0.11181462 -0.31265324 0.092593223
0.11238155 -0.31378144 0.092150599
0.11294887 -0.31491053 0.091707706
0.11351676 -0.31604064 0.091264427
0.11408512 -0.31717169 0.09082067
0.11465393 -0.3183037 0.090376645
0.11630697 -0.31979066 0.088546097
0.11801152 -0.3213017 0.086651832
0.11972931 -0.32282439 0.084742814
0.12146046 -0.32435894 0.082818985
0.12320513 -0.32590556 0.080880105
0.12496354 -0.32746428 0.078925997
0.12673581 -0.32903528 0.076956451
0.12852204 -0.33061874 0.074971467
0.13032249 -0.33221474 0.072970569
0.13213742 -0.33382353 0.070953608
-0.024518758 0.071296975 0.16312343
-0.025758892 0.067619301 0.16595206
-0.026976839 0.064007193 0.16873011
-0.028173268 0.060458809 0.17145917
-0.029348791 0.056972355 0.17414042
-0.030503988 0.053546213 0.17677546
-0.031639382 0.050178818 0.17936522
-0.032755464 0.046868697 0.18191099
-0.033852726 0.04361438 0.18441382
-0.034931645 0.040414505 0.18687475
-0.035992667 0.0372677 0.18929493
-0.03703624 0.034172602 0.19167531
-0.037784919 0.031514712 0.19351524
-0.037638694 0.030115113 0.19373614
-0.037492916 0.028719671 0.19395635
-0.03734757 0.027328417 0.19417593
-0.037202641 0.025941305 0.1943948
-0.03705816 0.024558291 0.1946131
-0.036914095 0.023179419 0.19483066
-0.036770478 0.021804616 0.19504765
-0.036627278 0.020433873 0.19526395
-0.036484465 0.019067228 0.19547966
-0.036342129 0.017704576 0.19569474
-0.036200196 0.016345948 0.19590914
-0.036058664 0.014991313 0.19612294
-0.03591758 0.013640672 0.19633609
-0.035776898 0.012294009 0.1965487
-0.035636634 0.010951266 0.19676054
-0.035496756 0.0096124858 0.19697183
-0.035357326 0.0082775801 0.19718248
-0.035218269 0.0069465935 0.19739261
-0.035079613 0.0056194812 0.19760203
-0.034941375 0.0042962134 0.19781092
-0.034803554 0.002976805 0.19801915
-0.034666106 0.0016612262 0.19822672
-0.03452909 0.00034944713 0.19843379
-0.034392431 -0.00095853209 0.19864017
-0.03425619 -0.0022627115 0.19884604
-0.034120336 -0.0035631508 0.19905132
-0.033984885 -0.0048598498 0.199256
-0.033849791 -0.0061527938 0.19946
-0.033715114 -0.0074420273 0.19966346
-0.03358081 -0.0087275952 0.19986635
-0.033446908 -0.010009453 0.20006868
-0.033313394 -0.011287645 0.20027041
-0.033180222 -0.0125622 0.20047155
-0.033047467 -0.013833135 0.20067215
-0.032915086 -0.01510042 0.20087218
-0.032783076 -0.016364098 0.20107165
-0.029113144 -0.026410401 0.19903037
-0.028670549 -0.027337432 0.19869816
-0.028227672 -0.028265029 0.19836572
-0.027784526 -0.029193178 0.19803303
-0.027341112 -0.030121863 0.19770023
-0.02689746 -0.031051114 0.19736716
-0.02645351 -0.031980932 0.19703391
-0.026009321 -0.032911301 0.19670048
-0.025564864 -0.033842221 0.19636685
-0.025120109 -0.034773692 0.19603303
-0.024675131 -0.03570576 0.19569898
-0.024229839 -0.036638349 0.19536468
-0.02378431 -0.037571475 0.1950303
-0.023338497 -0.038505197 0.19469559
-0.02289243 -0.03943947 0.19436079
-0.022446111 -0.040374309 0.19402575
-0.021999508 -0.041309699 0.19369051
-0.021552637 -0.042245671 0.19335505
-0.021105498 -0.043182194 0.19301945
-0.020658106 -0.044119298 0.19268358
-0.020210415 -0.045056924 0.19234753
-0.019762442 -0.045995131 0.19201118
-0.019314244 -0.046933919 0.19167477
-0.018865749 -0.047873259 0.19133812
-0.018417001 -0.048813179 0.19100127
-0.017967969 -0.049753636 0.1906642
-0.017518699 -0.050694674 0.19032693
-0.017069101 -0.051636264 0.18998945
-0.01661928 -0.052578449 0.18965179
-0.016169161 -0.053521186 0.18931392
-0.015718803 -0.054464504 0.18897584
-0.015268132 -0.055408373 0.18863755
-0.014817193 -0.056352794 0.18829903
-0.014366001 -0.057297826 0.18796036
-0.01391454 -0.058243424 0.18762147
-0.013462812 -0.059189588 0.18728232
-0.013010785 -0.060136303 0.18694308
-0.01255849 -0.0610836 0.18660352
-0.012105927 -0.062031463 0.1862638
-0.011653095 -0.062979922 0.1859239
-0.011199996 -0.063928947 0.18558377
-0.010746583 -0.064878523 0.1852434
-0.010292962 -0.065828696 0.18490291
-0.0098390281 -0.066779435 0.18456215
-0.0093848258 -0.06773077 0.18422121
-0.0089303404 -0.068682641 0.18388003
-0.0081719756 -0.069423392 0.18305448
-0.0074020922 -0.070160672 0.18221179
-0.0066293478 -0.070900649 0.18136609
-0.0058537871 -0.071643412 0.18051735
-0.0050753504 -0.072388873 0.17966533
-0.0042940378 -0.07313709 0.17881027
-0.0035098195 -0.073888078 0.17795196
-0.0027227253 -0.074641868 0.1770905
-0.0019326806 -0.07539843 0.17622581
-0.0011397153 -0.076157823 0.175358
-0.00034376979 -0.076920047 0.17448688
0.00049805641 -0.077658087 0.17354491
0.0013757199 -0.07837896 0.17254815
0.0022573024 -0.079103053 0.171547
0.0031428486 -0.079830348 0.17054126
0.0040323287 -0.080560952 0.16953114
0.0049258471 -0.081294805 0.16851643
0.0058233589 -0.08203198 0.1674971
0.0067249537 -0.082772464 0.16647324
0.0076305568 -0.083516315 0.16544476
0.0085403472 -0.084263504 0.16441154
0.0094542056 -0.08501412 0.16337365
0.010372236 -0.085768148 0.1623311
0.011294469 -0.086525619 0.16128373
0.012220934 -0.087286517 0.16023162
0.013151616 -0.088050947 0.15917465
0.014086604 -0.088818893 0.15811282
0.015025839 -0.089590341 0.15704614
0.015969485 -0.09036538 0.15597448
0.016917452 -0.091143981 0.1548979
0.017869815 -0.091926187 0.15381628
0.018826634 -0.092712075 0.15272972
0.019787863 -0.093501583 0.15163812
0.020753622 -0.094294786 0.15054128
0.021723866 -0.095091686 0.14943942
0.022698686 -0.09589234 0.14833239
0.023678064 -0.096696794 0.14722008
0.024662107 -0.097504973 0.14610255
0.02565074 -0.098317027 0.14497983
0.026644081 -0.099132881 0.14385164
0.027642146 -0.099952623 0.14271826
0.029144242 -0.10054594 0.14081869
0.031324044 -0.10084161 0.13789111
0.03353548 -0.10114162 0.1349211
0.035779282 -0.10144594 0.13190761
0.038055912 -0.1017549 0.12885004
0.040366098 -0.10206854 0.12574747
0.042710826 -0.10238688 0.12259856
0.045090906 -0.10271001 0.11940208
0.047507115 -0.10303803 0.11615711
0.049960233 -0.10337108 0.11286256
0.052451223 -0.10370924 0.10951722
0.054980852 -0.10405271 0.10611993
0.057550132 -0.10440153 0.10266933
0.060159937 -0.10475582 0.099164426
0.062811263 -0.1051158 0.095603675
0.065505087 -0.10548151 0.091985852
0.093691327 -0.09622483 0.050175279
0.093691185 -0.09776926 0.05064261
0.093691021 -0.099308357 0.051108241
0.093690872 -0.10084216 0.051572263
0.093690716 -0.10237068 0.052034736
0.093690604 -0.10389394 0.052495539
0.09369044 -0.10541201 0.052954823
0.093690328 -0.10692483 0.053412527
0.093690142 -0.10843253 0.053868681
0.093690023 -0.10993506 0.054323226
0.093689874 -0.11143246 0.054776311
0.09368974 -0.11292477 0.055227816
0.093689576 -0.11441205 0.055677742
0.093689442 -0.11589426 0.056126267
0.093689308 -0.11737148 0.056573123
0.093689144 -0.1188437 0.057018548
0.093689017 -0.12031092 0.057462454
0.093688712 -0.12177327 0.057905108
0.093688495 -0.12323073 0.058346152
0.093688473 -0.12468319 0.058785379
0.093688481 -0.12613082 0.059223235
0.093688458 -0.12757358 0.059659541
0.093688488 -0.12901153 0.060094327
0.093688436 -0.13044469 0.060527861
0.093688488 -0.13187312 0.060959756
0.093688473 -0.13329674 0.06139034
0.093688518 -0.13471568 0.061819345
0.093688495 -0.1361299 0.062247008
0.093688503 -0.13753946 0.06267333
0.093688503 -0.1389444 0.063098133
0.093688525 -0.14034469 0.063521594
0.093688533 -0.14174037 0.063943654
0.093688577 -0.14313148 0.064364344
0.093688548 -0.14451799 0.064783633
0.093688563 -0.14590003 0.06520161
0.093688548 -0.14727752 0.065618157
0.093688577 -0.14865054 0.066033363
0.093688592 -0.15001908 0.066447228
0.093688622 -0.15138316 0.066859663
0.093688622 -0.15274283 0.067270875
0.093688607 -0.15409808 0.067680776
0.093688644 -0.15544896 0.068089187
0.093688622 -0.15679549 0.068496466
0.093688652 -0.15813765 0.068902224
0.09368863 -0.15947551 0.06930691
0.093688689 -0.16080907 0.069710106
0.093688682 -0.16213833 0.07011205
0.093688652 -0.16346334 0.070512861
0.093688674 -0.16478412 0.070912242
0.093688533 -0.1661007 0.07131058
0.093688428 -0.1674131 0.071707577
0.093688324 -0.16872129 0.072103351
0.09368822 -0.17002532 0.072497904
0.09368813 -0.17132525 0.072891146
0.093688019 -0.17262104 0.073283106
0.093687959 -0.17391272 0.073673815
0.093687877 -0.17520031 0.074063331
0.093687773 -0.17648387 0.074451685
0.093687676 -0.17776334 0.074838728
0.093687631 -0.17903884 0.075224489
0.093687639 -0.18031031 0.075609028
0.093687609 -0.1815778 0.075992376
0.093687609 -0.18284133 0.076374441
0.093687601 -0.1841009 0.076755375
0.093687564 -0.18535657 0.077135175
0.093687572 -0.1866083 0.077513665
0.093687557 -0.18785617 0.077891082
0.093687572 -0.18910013 0.078267246
0.093687564 -0.19034024 0.078642279
0.093687519 -0.19157651 0.079016209
0.093687542 -0.19280897 0.079388946
0.093687505 -0.19403765 0.079760492
0.093687512 -0.19526254 0.080130965
0.09368749 -0.19648366 0.080500245
0.093687497 -0.19770101 0.080868363
0.093687505 -0.19891466 0.081235379
0.093687452 -0.20012455 0.081601322
0.093687467 -0.20133075 0.081966072
0.09368746 -0.20253329 0.08232978
0.093687437 -0.20373215 0.082692355
0.093687467 -0.2049274 0.083053797
0.09368746 -0.20611897 0.083414167
0.093687467 -0.20730695 0.083773404
0.093687467 -0.20849134 0.084131569
0.093687437 -0.20967214 0.08448872
0.093687437 -0.21084939 0.084844738
0.093687445 -0.21202306 0.085199624
0.093687452 -0.21319319 0.085553467
0.093687467 -0.21435985 0.085906297
0.093687408 -0.21552297 0.086258084
0.093687423 -0.21668258 0.086608827
0.093687437 -0.21783875 0.086958438
0.093687452 -0.2189915 0.087306976
0.093687445 -0.2201408 0.087654531
0.093687423 -0.22128662 0.088001102
0.093687423 -0.22242911 0.088346601
0.09368743 -0.22356817 0.088691056
0.093687423 -0.22470382 0.089034468
0.093687437 -0.22583614 0.089376897
0.093687393 -0.22696508 0.089718372
0.093687408 -0.22809075 0.090058774
0.09368743 -0.22921307 0.090398163
0.093687445 -0.23033205 0.090736568
0.093687423 -0.23144777 0.09107396
0.093687385 -0.23256023 0.091410458
0.093687385 -0.23366942 0.091745883
0.09368737 -0.23477535 0.092080325
0.093687378 -0.23587807 0.092413843
0.093687333 -0.23697755 0.092746317
0.093687326 -0.2380738 0.093077898
0.093687311 -0.23916693 0.093408525
0.093687139 -0.2402568 0.093738317
0.09368673 -0.24134353 0.094067544
0.093686298 -0.2424271 0.094395816
0.093685836 -0.24350755 0.094723225
0.093685441 -0.24458483 0.09504953
0.093685009 -0.24565904 0.095375001
0.093685076 -0.24673016 0.095698833
0.093685172 -0.24779825 0.096021682
0.093685277 -0.24886324 0.096343607
0.093685403 -0.24992523 0.096664578
0.09368553 -0.25098413 0.096984625
0.093685649 -0.25204003 0.097303838
0.093685754 -0.25309289 0.097622067
0.093685851 -0.25414276 0.097939432
0.093685962 -0.25518966 0.098255843
0.093686111 -0.25623357 0.09857136
0.093686193 -0.25727448 0.098886013
0.093686327 -0.25831252 0.099199742
0.093686417 -0.2593475 0.099512607
0.093686551 -0.26037967 0.099824578
0.093686663 -0.2614089 0.10013568
0.093686745 -0.2624352 0.1004459
0.093686864 -0.26345864 0.10075527
0.093686938 -0.26447916 0.10106379
0.093686819 -0.26549679 0.10137174
0.093686722 -0.26651162 0.1016787
0.093686625 -0.26752359 0.10198489
0.093686529 -0.26853266 0.10229018
0.093686432 -0.269539 0.10259464
0.093686365 -0.2705425 0.10289824
0.09368623 -0.27154317 0.10320103
0.093686141 -0.27254111 0.10350293
0.093686044 -0.27353626 0.10380402
0.09368597 -0.27452865 0.10410419
0.093685858 -0.2755183 0.10440364
0.093685776 -0.27650517 0.10470223
0.093685664 -0.27748936 0.10500002
0.093692727 -0.27847239 0.10528749
0.094389848 -0.27960396 0.10466486
0.095088243 -0.28073761 0.10404107
0.095787868 -0.28187329 0.10341617
0.096488796 -0.28301093 0.10279015
0.097190902 -0.28415063 0.10216302
0.097894311 -0.28529239 0.10153475
0.098599017 -0.28643626 0.1009053
0.099304982 -0.28758216 0.10027483
0.10001219 -0.28873008 0.099643111
0.10064394 -0.28986111 0.099110752
0.10075406 -0.29086274 0.099261284
0.10086397 -0.29186225 0.099411428
0.10097361 -0.29285976 0.099561334
0.10108291 -0.29385525 0.09971109
0.10142738 -0.29491067 0.099553496
0.10198545 -0.29602239 0.099117339
0.10254399 -0.29713506 0.098680735
0.10310296 -0.29824865 0.098243892
0.10366245 -0.29936323 0.097806513
0.1042224 -0.30047873 0.097368926
0.10478278 -0.30159515 0.096930981
0.10534362 -0.30271253 0.096492618
0.10590491 -0.30383089 0.096053898
0.10646673 -0.30495012 0.095614851
0.107029 -0.30607033 0.095175445
0.10759176 -0.30719152 0.094735622
0.108155 -0.30831367 0.094295382
0.10871869 -0.30943674 0.093854785
0.1092829 -0.31056082 0.093413889
0.10984755 -0.31168583 0.092972577
0.11041271 -0.31281182 0.092530847
0.11097831 -0.31393871 0.092088819
0.11154445 -0.31506664 0.091646403
0.11211106 -0.31619549 0.091203511
0.11267814 -0.31732526 0.09076035
0.1133569 -0.31849229 0.090173811
0.11504237 -0.31999141 0.088294417
0.11674086 -0.32150215 0.086400509
0.11845253 -0.32302457 0.084491789
0.12017746 -0.32455879 0.082568437
0.1219159 -0.32610512 0.080629945
0.12366803 -0.32766354 0.078676164
0.12543386 -0.32923418 0.076707155
0.12721372 -0.33081728 0.074722469
0.12900776 -0.3324129 0.072721988
0.1308163 -0.33402142 0.070705295
-0.026581511 0.069534793 0.16435435
-0.027796894 0.065891743 0.16715744
-0.028990507 0.062313519 0.16991043
-0.030163243 0.058797918 0.17261532
-0.03131561 0.055343352 0.17527324
-0.032448158 0.051948264 0.17788529
-0.033561334 0.048611149 0.18045282
-0.034655705 0.045330465 0.18297696
-0.035731703 0.042104833 0.18545869
-0.036789805 0.03893289 0.18789911
-0.037830427 0.035813309 0.19029927
-0.038854033 0.032744788 0.19266015
-0.039062545 0.030842215 0.19353113
-0.038914651 0.029445991 0.19375148
-0.038767204 0.028053902 0.19397137
-0.038620204 0.026665948 0.19419062
-0.038473651 0.025282159 0.1944091
-0.038327515 0.023902453 0.19462699
-0.038181812 0.02252683 0.19484422
-0.03803654 0.021155313 0.19506076
-0.037891686 0.019787833 0.19527665
-0.037747294 0.018424362 0.195492
-0.037603304 0.017064974 0.19570673
-0.037459761 0.015709519 0.19592074
-0.03731662 0.014358088 0.19613415
-0.037173927 0.013010591 0.19634694
-0.037031621 0.011667058 0.1965591
-0.036889747 0.010327443 0.19677067
-0.03674829 0.008991763 0.19698161
-0.036607251 0.0076599568 0.19719189
-0.036466599 0.0063320547 0.19740167
-0.036326364 0.0050080121 0.19761077
-0.036186546 0.0036878288 0.1978192
-0.036047131 0.0023714304 0.19802713
-0.035908133 0.0010588765 0.19823444
-0.035769507 -0.00024987757 0.19844112
-0.035631299 -0.0015548468 0.19864714
-0.035493478 -0.0028560609 0.19885263
-0.035356075 -0.0041535348 0.19905755
-0.035219058 -0.0054472685 0.19926178
-0.03508243 -0.0067372918 0.19946554
-0.034946218 -0.0080236346 0.19966874
-0.034810364 -0.0093062669 0.19987127
-0.034674913 -0.010585248 0.2000733
-0.034539834 -0.011860549 0.20027471
-0.034405157 -0.013132244 0.20047548
-0.034270853 -0.014400288 0.20067576
-0.034136936 -0.015664786 0.2008754
-0.028869882 -0.029592499 0.19779915
-0.028427169 -0.030520543 0.19746649
-0.027984202 -0.031449139 0.1971336
-0.027540937 -0.032378286 0.19680065
-0.027097464 -0.033308029 0.19646737
-0.026653662 -0.034238294 0.19613397
-0.026209638 -0.035169125 0.1958003
-0.025765315 -0.036100522 0.19546652
-0.025320768 -0.037032455 0.19513249
-0.024875909 -0.037964955 0.1947982
-0.024430797 -0.038898021 0.19446373
-0.023985431 -0.039831638 0.19412911
-0.023539767 -0.040765822 0.19379425
-0.023093879 -0.041700557 0.19345921
-0.022647724 -0.042635858 0.19312403
-0.022201285 -0.043571725 0.19278857
-0.021754563 -0.044508144 0.19245291
-0.021307588 -0.045445129 0.19211712
-0.020860344 -0.046382681 0.19178101
-0.020412832 -0.047320798 0.19144478
-0.019965038 -0.048259467 0.19110835
-0.019516975 -0.049198702 0.19077164
-0.019068658 -0.050138518 0.19043484
-0.018620059 -0.051078901 0.19009778
-0.018171221 -0.052019835 0.18976054
-0.017722085 -0.052961335 0.18942305
-0.017272666 -0.053903401 0.18908539
-0.016822994 -0.054846048 0.18874756
-0.016373038 -0.055789232 0.18840942
-0.01592283 -0.056733027 0.18807113
-0.015472338 -0.057677343 0.18773264
-0.015021592 -0.058622286 0.18739405
-0.014570564 -0.05956775 0.18705508
-0.014119253 -0.060513824 0.18671605
-0.013667658 -0.061460435 0.18637672
-0.01321584 -0.062407658 0.18603724
-0.012763709 -0.063355416 0.1856975
-0.01231131 -0.064303741 0.18535757
-0.011858657 -0.065252662 0.1850175
-0.011405706 -0.066202134 0.18467715
-0.010952502 -0.067152202 0.18433666
-0.010498986 -0.068102822 0.18399587
-0.0099157542 -0.068962678 0.18344694
-0.0091505647 -0.069697648 0.1826067
-0.0083825737 -0.070435315 0.18176329
-0.0076117665 -0.071175709 0.18091694
-0.006838128 -0.071918845 0.18006742
-0.0060616285 -0.072664708 0.17921481
-0.0052822679 -0.073413312 0.17835897
-0.0045000166 -0.074164689 0.17749995
-0.0037148595 -0.074918851 0.1766378
-0.0029267818 -0.07567583 0.17577252
-0.0021358132 -0.076435626 0.17490393
-0.0013418496 -0.077198267 0.17403209
-0.00054490566 -0.077963725 0.17315698
0.00027905405 -0.078717008 0.17224056
0.0011576712 -0.079441413 0.17123929
0.0020402223 -0.080169052 0.17023352
0.0029267073 -0.080899939 0.16922328
0.0038172007 -0.081634119 0.16820842
0.0047116578 -0.082371607 0.16718915
0.005610168 -0.083112419 0.16616523
0.0065127462 -0.083856568 0.16513664
0.0074194074 -0.084604114 0.16410339
0.0083301961 -0.085355029 0.16306543
0.0092450827 -0.08610937 0.1620228
0.010164201 -0.086867139 0.16097537
0.011087492 -0.087628365 0.1599232
0.012015015 -0.088393092 0.1588662
0.012946784 -0.089161336 0.15780431
0.01388289 -0.089933112 0.15673754
0.014823243 -0.090708435 0.15566587
0.015768006 -0.091487348 0.15458921
0.016717106 -0.092269883 0.15350762
0.017670631 -0.093056053 0.15242094
0.018628582 -0.093845874 0.15132928
0.019591019 -0.094639376 0.15023243
0.020557955 -0.095436603 0.14913061
0.021529421 -0.096237555 0.1480234
0.022505447 -0.097042277 0.1469112
0.023486078 -0.097850785 0.14579362
0.024471343 -0.098663121 0.14467081
0.025461257 -0.099479303 0.14354274
0.026455864 -0.10029934 0.14240927
0.028305352 -0.10073036 0.13996762
0.030480891 -0.10102759 0.13703156
0.032688066 -0.10132919 0.13405278
0.034927547 -0.10163517 0.13103035
0.037199587 -0.10194591 0.12796414
0.039505392 -0.10226122 0.12485233
0.041845694 -0.10258128 0.12169394
0.044221312 -0.10290614 0.11848789
0.04663302 -0.10323595 0.11523315
0.049081624 -0.1035708 0.11192861
0.051568046 -0.10391082 0.10857308
0.054093078 -0.10425612 0.10516542
0.056657717 -0.10460687 0.10170427
0.059262842 -0.10496312 0.098188549
0.061909452 -0.10532504 0.094616741
0.064598523 -0.1056928 0.090987772
0.093691617 -0.096080884 0.047576189
0.093691468 -0.097632036 0.048049897
0.093691297 -0.099177808 0.048522055
0.093691163 -0.1007182 0.048992485
0.093691006 -0.10225329 0.049461246
0.09369088 -0.10378309 0.049928457
0.093690738 -0.10530761 0.050394118
0.093690574 -0.1068269 0.05085811
0.093690455 -0.10834093 0.051320493
0.093690306 -0.10984986 0.051781327
0.093690157 -0.11135355 0.05224058
0.09369 -0.11285216 0.052698255
0.093689874 -0.11434564 0.05315432
0.09368974 -0.11583401 0.053608924
0.093689561 -0.11731738 0.054062039
0.093689419 -0.11879566 0.054513454
0.093689322 -0.12026897 0.05496338
0.093689173 -0.12173732 0.055411786
0.093688823 -0.12320076 0.055859089
0.093688682 -0.12465921 0.056304514
0.093688682 -0.12611268 0.056748241
0.093688637 -0.12756133 0.057190508
0.093688682 -0.12900509 0.057631195
0.093688637 -0.13044406 0.058070481
0.093688667 -0.13187818 0.058508277
0.093688659 -0.13330753 0.058944613
0.093688697 -0.13473214 0.059379458
0.093688697 -0.136152 0.059812903
0.093688682 -0.13756718 0.060244977
0.093688712 -0.13897763 0.060675442
0.093688697 -0.14038341 0.061104655
0.093688726 -0.14178456 0.061532348
0.093688726 -0.14318115 0.0619587
0.093688726 -0.14457306 0.062383652
0.093688741 -0.14596047 0.062807143
0.093688756 -0.14734332 0.063229233
0.093688741 -0.14872162 0.063650072
0.093688764 -0.15009543 0.06406939
0.093688756 -0.15146473 0.064487368
0.093688801 -0.1528296 0.064904004
0.093688786 -0.15419005 0.06531933
0.093688801 -0.15554602 0.065733284
0.093688816 -0.15689762 0.066145837
0.093688816 -0.15824488 0.066557139
0.093688838 -0.15958774 0.06696704
0.093688831 -0.16092631 0.06737569
0.093688816 -0.16226055 0.067782938
0.093688875 -0.16359049 0.068188936
0.093688875 -0.16491616 0.068593651
0.093688808 -0.16623761 0.068997085
0.093688682 -0.16755481 0.069399387
0.093688607 -0.16886781 0.069800347
0.093688473 -0.17017663 0.070200086
0.093688369 -0.17148127 0.070598483
0.093688294 -0.17278175 0.070995659
0.09368816 -0.17407814 0.071391553
0.093688063 -0.17537041 0.071786135
0.093687952 -0.17665857 0.072179556
0.093687899 -0.17794266 0.072571665
0.093687892 -0.17922267 0.072962403
0.093687892 -0.18049869 0.07335189
0.093687855 -0.18177068 0.073740304
0.09368787 -0.18303867 0.074127376
0.09368787 -0.18430272 0.074513227
0.093687847 -0.18556274 0.074897885
0.093687847 -0.18681888 0.075281411
0.093687795 -0.18807109 0.075663716
0.093687803 -0.18931942 0.076044768
0.093687825 -0.19056384 0.076424658
0.093687803 -0.19180439 0.076803416
0.093687795 -0.1930411 0.077180952
0.093687765 -0.19427396 0.077557385
0.093687758 -0.19550306 0.077932566
0.09368775 -0.19672832 0.078306645
0.093687728 -0.19794981 0.078679502
0.093687743 -0.19916755 0.079051226
0.093687698 -0.20038156 0.079421908
0.093687721 -0.2015918 0.079791337
0.093687676 -0.20279841 0.080159754
0.093687676 -0.20400128 0.080526948
0.093687691 -0.20520048 0.08089301
0.093687683 -0.20639603 0.081257969
0.093687706 -0.20758793 0.081621826
0.093687668 -0.20877622 0.081984609
0.093687691 -0.20996091 0.08234629
0.093687698 -0.21114197 0.082706779
0.093687691 -0.21231949 0.083066314
0.093687683 -0.21349344 0.083424628
0.093687668 -0.21466385 0.083781958
0.093687668 -0.21583074 0.084138215
0.093687683 -0.21699415 0.084493339
0.093687661 -0.21815403 0.08484742
0.093687676 -0.21931042 0.085200399
0.093687654 -0.22046338 0.085552454
0.093687661 -0.22161286 0.085903347
0.093687654 -0.22275893 0.086253166
0.093687654 -0.22390158 0.086602002
0.093687661 -0.22504082 0.086949766
0.093687639 -0.22617671 0.087296575
0.093687624 -0.22730917 0.087642312
0.093687654 -0.22843833 0.087986976
0.093687661 -0.22956412 0.088330626
0.093687668 -0.23068662 0.088673264
0.093687594 -0.23180576 0.089015037
0.093687616 -0.23292163 0.089355618
0.093687586 -0.23403417 0.089695334
0.093687601 -0.2351435 0.090033978
0.093687564 -0.23624954 0.090371668
0.093687564 -0.23735236 0.090708286
0.093687564 -0.23845199 0.091044009
0.093687534 -0.23954833 0.091378748
0.093687244 -0.24064149 0.091712862
0.093686767 -0.24173146 0.092046261
0.093686327 -0.24281824 0.092378616
0.09368591 -0.24390189 0.092710018
0.093685493 -0.24498236 0.093040466
0.093685046 -0.24605973 0.093369931
0.09368515 -0.24713404 0.093697816
0.093685254 -0.24820523 0.094024628
0.093685389 -0.24927333 0.094350547
0.0936855 -0.25033838 0.094675481
0.093685597 -0.25140041 0.094999552
0.093685694 -0.25245932 0.095322669
0.093685858 -0.25351521 0.095644802
0.093685947 -0.25456807 0.095966041
0.093686067 -0.25561798 0.096286386
0.093686171 -0.25666481 0.096605867
0.093686275 -0.25770873 0.096924424
0.093686424 -0.25874966 0.097241938
0.093686499 -0.25978762 0.097558707
0.093686625 -0.26082265 0.097874492
0.093686722 -0.26185477 0.098189473
0.093686871 -0.26288396 0.098503441
0.093686968 -0.2639102 0.098816603
0.09368705 -0.26493359 0.099128842
0.093687132 -0.26595408 0.099440247
0.093687005 -0.26697165 0.099751085
0.093686908 -0.26798636 0.10006103
0.093686804 -0.2689983 0.10037002
0.09368673 -0.27000731 0.10067821
0.09368664 -0.27101353 0.10098553
0.093686551 -0.27201694 0.10129192
0.093686417 -0.27301753 0.10159761
0.09368635 -0.2740154 0.10190228
0.09368626 -0.27501041 0.10220617
0.093686171 -0.27600271 0.10250923
0.093686059 -0.2769922 0.10281143
0.09368597 -0.27797902 0.10311282
0.093685895 -0.27896309 0.10341331
0.093685769 -0.27994442 0.10371304
0.093746565 -0.28093666 0.10393143
0.094444267 -0.28207129 0.10330707
0.095143229 -0.28320795 0.10268158
0.095843434 -0.28434667 0.10205501
0.096544877 -0.28548744 0.10142732
0.097247645 -0.28663024 0.10079846
0.097951606 -0.28777504 0.10016853
0.098656841 -0.28892195 0.099537432
0.099188156 -0.29002726 0.099135578
0.099299595 -0.29102731 0.099285841
0.099410802 -0.29202533 0.099435776
0.099521771 -0.29302129 0.099585503
0.099632397 -0.29401532 0.099734992
0.10004846 -0.29508817 0.099483609
0.10060525 -0.2961987 0.099047929
0.1011626 -0.2973102 0.098611891
0.10172035 -0.29842257 0.098175406
0.1022786 -0.29953593 0.097738594
0.10283726 -0.30065021 0.097301543
0.10339641 -0.30176544 0.096864045
0.10395599 -0.30288166 0.096426219
0.10451611 -0.30399877 0.095987976
0.10507669 -0.30511683 0.095549315
0.1056377 -0.30623579 0.095110416
0.10619923 -0.30735579 0.094671011
0.10676122 -0.30847675 0.094231337
0.10732371 -0.30959862 0.093791217
0.10788664 -0.3107214 0.093350738
0.10845007 -0.31184521 0.092909932
0.10901397 -0.31296995 0.092468739
0.10957836 -0.31409568 0.092027158
0.11014325 -0.31522232 0.091585129
0.11070859 -0.31634998 0.091142833
0.11127443 -0.31747854 0.09070009
0.11210008 -0.31869298 0.08992216
0.11377956 -0.32019186 0.088043034
0.11547197 -0.3217023 0.086149424
0.11717749 -0.32322443 0.084241271
0.11889629 -0.32475841 0.082318187
0.12062851 -0.32630438 0.080380082
0.12237433 -0.32786247 0.078426719
0.12413383 -0.32943276 0.076458126
0.12590729 -0.33101553 0.074473917
0.12769505 -0.33261091 0.072473586
0.12949708 -0.33421901 0.070457309
-0.027410418 0.071464874 0.16274446
-0.02862297 0.067790814 0.16557255
-0.029813901 0.064182058 0.16835028
-0.030983761 0.06063699 0.17107886
-0.032133222 0.057153717 0.17375994
-0.033262789 0.053730614 0.17639461
-0.03437306 0.050366126 0.17898422
-0.035464451 0.047058806 0.18152988
-0.036537468 0.043807149 0.18403259
-0.037592545 0.040609837 0.18649352
-0.038630188 0.037465453 0.1889137
-0.039650768 0.034372702 0.19129419
-0.040485844 0.031569071 0.19332612
-0.040335864 0.030172013 0.1935468
-0.040186331 0.028779119 0.19376686
-0.040037245 0.027390331 0.19398636
-0.039888591 0.0260057 0.19420514
-0.039740384 0.024625219 0.19442323
-0.039592609 0.023248777 0.19464079
-0.039445296 0.021876425 0.19485766
-0.0392984 0.02050814 0.19507381
-0.039151922 0.019143924 0.19528931
-0.039005905 0.017783687 0.19550428
-0.038860306 0.016427442 0.19571856
-0.038715169 0.015075162 0.1959323
-0.038570419 0.013726875 0.19614536
-0.038426131 0.012382552 0.19635776
-0.03828223 0.011042178 0.19656959
-0.038138762 0.0097056627 0.1967808
-0.037995711 0.0083730966 0.19699135
-0.037853077 0.0070443749 0.19720134
-0.03771086 0.0057195574 0.19741067
-0.037569031 0.0043985695 0.19761938
-0.037427634 0.0030814111 0.19782752
-0.037286669 0.0017680526 0.19803503
-0.037146077 0.00045850873 0.19824195
-0.037005901 -0.00084723532 0.1984483
-0.036866143 -0.0021492541 0.19865403
-0.036726773 -0.0034475178 0.19885921
-0.036587834 -0.0047420263 0.19906381
-0.036449254 -0.0060328245 0.19926777
-0.03631109 -0.0073199272 0.19947118
-0.036173314 -0.0086033344 0.19967392
-0.036035925 -0.0098830909 0.1998761
-0.035898939 -0.011159167 0.20007777
-0.035762355 -0.012431636 0.20027888
-0.035626128 -0.013700455 0.20047936
-0.035490319 -0.014965683 0.2006793
-0.029069141 -0.031846493 0.19690052
-0.028626591 -0.032775015 0.19656771
-0.028183758 -0.033704087 0.19623467
-0.027740702 -0.034633711 0.19590142
-0.027297333 -0.035563886 0.195568
-0.026853725 -0.036494628 0.19523436
-0.02640985 -0.03742592 0.19490057
-0.025965706 -0.038357794 0.19456652
-0.025521293 -0.03929019 0.19423229
-0.025076598 -0.040223137 0.19389787
-0.024631664 -0.041156679 0.19356322
-0.024186447 -0.042090744 0.19322833
-0.023740977 -0.043025404 0.19289339
-0.023295254 -0.043960601 0.19255814
-0.022849232 -0.044896379 0.19222271
-0.022402927 -0.045832679 0.19188708
-0.021956414 -0.046769604 0.19155124
-0.021509588 -0.047707051 0.19121519
-0.021062493 -0.048645034 0.19087896
-0.020615146 -0.049583629 0.19054252
-0.020167515 -0.05052276 0.19020584
-0.019719645 -0.051462486 0.18986905
-0.019271463 -0.052402735 0.18953195
-0.018823057 -0.053343594 0.18919474
-0.018374354 -0.054284975 0.18885723
-0.017925397 -0.055226967 0.18851966
-0.017476141 -0.05616951 0.18818173
-0.017026633 -0.057112589 0.18784365
-0.016576871 -0.05805628 0.18750545
-0.016126782 -0.059000522 0.18716696
-0.015676484 -0.05994533 0.18682829
-0.015225872 -0.060890689 0.18648937
-0.014775023 -0.061836645 0.18615034
-0.014323875 -0.062783167 0.18581098
-0.013872474 -0.06373027 0.18547153
-0.013420776 -0.064677924 0.18513185
-0.012968823 -0.065626159 0.18479189
-0.012516588 -0.066574961 0.18445182
-0.012064114 -0.067524344 0.18411148
-0.011611328 -0.068474308 0.18377101
-0.010892138 -0.069236472 0.18299997
-0.010128841 -0.069971845 0.18215904
-0.0093627721 -0.070709899 0.181315
-0.0085938573 -0.07145068 0.18046793
-0.0078221411 -0.072194189 0.1796177
-0.0070476234 -0.072940439 0.17876437
-0.0062701851 -0.073689431 0.17790788
-0.0054898858 -0.074441209 0.17704815
-0.0047066808 -0.075195789 0.17618531
-0.0039205849 -0.075953141 0.17531925
-0.0031315684 -0.076713353 0.17445001
-0.0023396015 -0.077476367 0.17357749
-0.0015446544 -0.078242242 0.17270169
-0.00074674189 -0.079010963 0.17182261
5.9351325e-05 -0.079779357 0.17093199
0.00093889236 -0.080507308 0.16992614
0.0018224269 -0.081238523 0.16891581
0.0027098656 -0.081973046 0.16790098
0.0036013275 -0.082710803 0.16688147
0.0044967681 -0.083451942 0.16585743
0.0053963065 -0.084196419 0.16482884
0.0062998682 -0.084944263 0.16379553
0.0072075576 -0.08569549 0.16275749
0.0081193447 -0.086450145 0.16171485
0.009035334 -0.087208226 0.1606673
0.0099554658 -0.08796978 0.15961513
0.010879859 -0.088734806 0.15855801
0.011808425 -0.089503378 0.15749612
0.012741312 -0.090275437 0.15642926
0.013678476 -0.091051087 0.1553576
0.014619976 -0.091830313 0.15428087
0.015565827 -0.092613146 0.15319932
0.016516104 -0.093399614 0.15211254
0.017470762 -0.094189748 0.15102085
0.01842989 -0.094983548 0.14992404
0.019393504 -0.095781073 0.14882213
0.020361632 -0.096582323 0.14771497
0.021334291 -0.097387359 0.14660269
0.022311553 -0.098196149 0.14548507
0.023293406 -0.099008784 0.14436233
0.024279907 -0.099825263 0.14323413
0.025324702 -0.10062051 0.14201796
0.02746506 -0.10091507 0.13911518
0.029636338 -0.10121393 0.13617051
0.031839222 -0.10151708 0.13318297
0.034074143 -0.10182483 0.13015205
0.036341816 -0.10213719 0.12707669
0.038643211 -0.10245422 0.12395564
0.040979058 -0.10277601 0.1207878
0.04335022 -0.10310262 0.11757222
0.045757405 -0.10343419 0.11430761
0.048201457 -0.10377087 0.11099312
0.050683275 -0.10411273 0.10762733
0.053203687 -0.10445993 0.10420921
0.055763677 -0.10481258 0.10073751
0.058364093 -0.10517079 0.097210884
0.061005995 -0.10553469 0.093628109
0.093692042 -0.094372407 0.04447329
0.0936919 -0.095935762 0.044955313
0.093691736 -0.097493634 0.045435578
0.093691632 -0.099046111 0.045914114
0.093691468 -0.10059319 0.04639107
0.093691319 -0.1021349 0.046866387
0.093691155 -0.1036713 0.047340095
0.093691021 -0.10520236 0.047812015
0.093690857 -0.10672814 0.048282504
0.093690753 -0.10824862 0.048751146
0.093690574 -0.10976394 0.049218357
0.093690425 -0.111274 0.049683928
0.093690291 -0.1127789 0.050147831
0.093690164 -0.11427866 0.050610155
0.093689993 -0.11577329 0.051070958
0.093689874 -0.11726284 0.051530212
0.093689725 -0.11874726 0.051987857
0.093689576 -0.12022673 0.052443922
0.093689419 -0.12170109 0.052898467
0.0936893 -0.12317051 0.053351492
0.093688995 -0.12463497 0.053803205
0.093688831 -0.12609449 0.054253191
0.093688823 -0.12754898 0.054701388
0.093688875 -0.12899862 0.055148065
0.093688861 -0.13044339 0.055593282
0.093688861 -0.13188334 0.056037068
0.093688861 -0.13331841 0.056479305
0.093688875 -0.13474871 0.056919962
0.093688875 -0.13617426 0.057359248
0.093688861 -0.13759506 0.057797134
0.09368889 -0.1390111 0.05823347
0.093688905 -0.14042246 0.058668405
0.093688905 -0.14182918 0.05910182
0.09368892 -0.1432312 0.059533864
0.09368895 -0.14462863 0.059964448
0.09368892 -0.14602141 0.060393721
0.093688942 -0.1474096 0.060821444
0.09368895 -0.14879328 0.061247796
0.093688965 -0.1501724 0.061672777
0.093688972 -0.15154697 0.062096328
0.093688935 -0.15291707 0.062518656
0.093688942 -0.15428269 0.062939465
0.093688965 -0.15564387 0.063358843
0.09368901 -0.15700059 0.063776821
0.093688995 -0.15835291 0.064193636
0.093688995 -0.15970086 0.064608991
0.093689002 -0.16104443 0.065023035
0.093689039 -0.16238366 0.065435618
0.093689024 -0.1637186 0.065847039
0.093689047 -0.16504921 0.066257089
0.093689054 -0.16637553 0.066665769
0.093688935 -0.16769762 0.067073315
0.093688831 -0.16901547 0.06747964
0.093688741 -0.17032909 0.067884535
0.093688644 -0.17163855 0.068288207
0.09368854 -0.17294379 0.068690538
0.093688414 -0.17424484 0.069091678
0.093688302 -0.17554177 0.069491476
0.093688197 -0.1768346 0.069889992
0.09368813 -0.1781233 0.070287228
0.093688123 -0.17940797 0.070683092
0.093688123 -0.1806885 0.071077704
0.093688093 -0.18196504 0.071471065
0.093688115 -0.18323752 0.071863204
0.093688115 -0.18450601 0.072254092
0.093688093 -0.18577053 0.072643816
0.093688086 -0.18703105 0.07303226
0.093688078 -0.18828768 0.073419511
0.093688063 -0.18954034 0.073805541
0.093688034 -0.19078907 0.074190438
0.093688041 -0.19203392 0.074573994
0.093688041 -0.19327492 0.074956387
0.093688019 -0.19451202 0.075337678
0.093688034 -0.19574535 0.075717747
0.093687974 -0.19697481 0.076096654
0.093688004 -0.19820046 0.076474339
0.093687981 -0.19942236 0.076850861
0.093687952 -0.20064047 0.077226311
0.093687959 -0.20185483 0.077600449
0.093687914 -0.20306545 0.077973604
0.093687937 -0.20427234 0.078345537
0.093687944 -0.20547555 0.078716248
0.093687944 -0.2066751 0.079085916
0.093687914 -0.20787096 0.079454482
0.093687914 -0.20906316 0.079821855
0.093687922 -0.21025178 0.080188125
0.093687922 -0.21143673 0.080553263
0.093687937 -0.2126181 0.080917299
0.093687899 -0.21379589 0.081280261
0.093687907 -0.21497013 0.081642151
0.093687914 -0.21614079 0.082002878
0.093687907 -0.21730791 0.082362592
0.093687929 -0.21847154 0.082721055
0.093687907 -0.21963164 0.083078682
0.093687899 -0.22078827 0.083435059
0.093687877 -0.22194144 0.083790421
0.093687892 -0.22309114 0.084144741
0.093687922 -0.2242374 0.084497899
0.093687877 -0.22538026 0.084850132
0.093687877 -0.22651969 0.085201293
0.093687885 -0.22765571 0.085551381
0.093687914 -0.22878839 0.085900366
0.093687907 -0.22991771 0.086248338
0.093687877 -0.23104365 0.086595356
0.093687832 -0.23216623 0.086941332
0.09368784 -0.23328558 0.087286264
0.093687825 -0.23440152 0.087630212
0.093687832 -0.23551424 0.087973088
0.09368781 -0.23662369 0.08831501
0.093687803 -0.23772985 0.088655859
0.09368775 -0.23883277 0.088995785
0.093687743 -0.23993245 0.089334697
0.093687333 -0.24102889 0.089673191
0.093686864 -0.24212214 0.090010703
0.093686409 -0.24321216 0.09034726
0.093685962 -0.24429901 0.090682775
0.09368553 -0.24538271 0.091017336
0.093685128 -0.24646324 0.091350913
0.093685225 -0.2475407 0.091682762
0.093685329 -0.24861503 0.092013657
0.093685448 -0.24968627 0.092343599
0.093685552 -0.25075445 0.092672646
0.093685694 -0.25181949 0.093000621
0.093685798 -0.25288153 0.093327731
0.093685903 -0.25394046 0.093653947
0.093686029 -0.25499636 0.09397915
0.093686141 -0.25604925 0.094303429
0.093686268 -0.25709915 0.094626755
0.093686357 -0.25814599 0.094949245
0.093686469 -0.25918984 0.095270813
0.093686573 -0.26023078 0.095591366
0.093686715 -0.26126871 0.095911056
0.093686834 -0.26230371 0.096229821
0.093686923 -0.26333573 0.096547753
0.093687013 -0.2643649 0.09686473
0.093687169 -0.26539111 0.097180784
0.093687266 -0.2664144 0.097495973
0.093687341 -0.26743484 0.097810328
0.093687221 -0.26845235 0.098124057
0.093687132 -0.26946703 0.098436832
0.09368702 -0.27047881 0.098748803
0.093686938 -0.27148777 0.09905979
0.093686856 -0.2724939 0.099369943
0.093686737 -0.27349716 0.099679291
0.09368664 -0.27449772 0.099987745
0.093686521 -0.27549541 0.10029536
0.093686447 -0.27649039 0.10060209
0.093686342 -0.27748254 0.10090795
0.093686283 -0.27847195 0.10121298
0.093686171 -0.27945858 0.10151717
0.093686074 -0.28044251 0.10182047
0.093685955 -0.28142369 0.10212302
0.093685873 -0.28240222 0.10242465
0.0938005 -0.28340459 0.10257325
0.094498776 -0.28454226 0.10194719
0.095198303 -0.28568199 0.10132009
0.095899038 -0.28682375 0.10069183
0.096601099 -0.28796756 0.1000624
0.097304381 -0.2891134 0.099431932
0.097736396 -0.29019296 0.099160314
0.097849108 -0.29119146 0.099310428
0.097961649 -0.29218796 0.099460125
0.098073937 -0.29318243 0.099609494
0.09818583 -0.29417491 0.099758863
0.098672628 -0.29526526 0.099413961
0.099228255 -0.29637462 0.098978728
0.099784352 -0.2974849 0.098543108
0.10034088 -0.29859611 0.098107189
0.10089786 -0.29970825 0.097670883
0.10145529 -0.30082136 0.097234249
0.10201319 -0.30193537 0.096797287
0.10257159 -0.30305034 0.096359909
0.10313046 -0.30416626 0.095922053
0.10368979 -0.30528313 0.095484018
0.1042496 -0.30640092 0.095045537
0.10480988 -0.30751967 0.094606668
0.10537066 -0.30863941 0.094167382
0.10593187 -0.30976009 0.093727797
0.10649361 -0.31088167 0.093287796
0.10705578 -0.31200421 0.092847437
0.10761847 -0.31312776 0.09240669
0.10818163 -0.31425226 0.091965616
0.10874523 -0.31537765 0.091524094
0.10930935 -0.31650406 0.091082245
0.10987392 -0.31763142 0.090640038
0.11084499 -0.31889343 0.089670777
0.11251849 -0.32039207 0.087792039
0.11420485 -0.32190219 0.085898787
0.11590429 -0.32342404 0.083990961
0.11761691 -0.32495767 0.082068264
0.11934295 -0.3265034 0.080130488
0.12108242 -0.32806107 0.078177661
0.12283563 -0.32963109 0.076209456
0.12460289 -0.33121353 0.074225366
0.12638423 -0.33280858 0.072225481
0.12817976 -0.33441633 0.070209712
-0.029455289 0.069704309 0.16397566
-0.030643389 0.066064827 0.16677812
-0.031810343 0.062489837 0.16953093
-0.032956839 0.058977455 0.1722354
-0.034083426 0.055526003 0.17489305
-0.035190642 0.052133888 0.1775049
-0.036279023 0.048799589 0.18007228
-0.037348956 0.045521662 0.18259627
-0.038400993 0.042298652 0.185078
-0.039435551 0.039129198 0.18751839
-0.040453032 0.036011972 0.18991861
-0.041453868 0.032945767 0.19227961
-0.041756541 0.030897759 0.19334218
-0.041604906 0.029504031 0.19356254
-0.041453749 0.028114446 0.19378224
-0.041302994 0.026729025 0.19400123
-0.041152731 0.025347687 0.19421971
-0.041002899 0.023970455 0.19443747
-0.040853515 0.022597305 0.19465455
-0.040704563 0.021228194 0.19487098
-0.040556088 0.019863129 0.19508684
-0.040408 0.018502101 0.19530204
-0.040260375 0.017145067 0.19551662
-0.040113166 0.015792012 0.19573054
-0.039966404 0.014442921 0.1959438
-0.039820075 0.013097808 0.19615647
-0.039674193 0.011756614 0.19636858
-0.039528713 0.010419339 0.19657996
-0.03938365 0.0090859532 0.19679081
-0.039239004 0.0077564567 0.19700101
-0.039094821 0.0064308345 0.19721064
-0.038951024 0.0051090419 0.19741961
-0.038807645 0.0037910938 0.19762802
-0.038664699 0.0024769604 0.19783583
-0.038522139 0.0011666268 0.19804305
-0.038380027 -0.0001399219 0.19824955
-0.038238287 -0.0014427155 0.19845557
-0.038096979 -0.0027417243 0.198661
-0.037956074 -0.0040370077 0.19886577
-0.037815571 -0.0053285956 0.19907001
-0.037675455 -0.0066164583 0.19927362
-0.037535757 -0.0079006553 0.19947663
-0.037396461 -0.0091811568 0.19967914
-0.037257552 -0.010458022 0.19988105
-0.037119046 -0.011731252 0.20008233
-0.036980942 -0.013000861 0.20028305
-0.036843225 -0.014266849 0.20048326
-0.028825894 -0.035028487 0.19566929
-0.028383255 -0.035958007 0.19533607
-0.027940333 -0.036888108 0.1950027
-0.027497143 -0.03781873 0.19466907
-0.027053684 -0.038749933 0.19433519
-0.026609957 -0.039681688 0.1940012
-0.026165992 -0.040614009 0.19366696
-0.025721714 -0.041546866 0.19333252
-0.025277227 -0.04248032 0.19299796
-0.024832428 -0.043414295 0.1926631
-0.024387389 -0.044348836 0.19232804
-0.023942068 -0.045283943 0.19199282
-0.023496494 -0.046219632 0.19165739
-0.023050651 -0.047155857 0.19132182
-0.02260451 -0.048092633 0.19098601
-0.022158146 -0.049029991 0.19064996
-0.021711484 -0.0499679 0.19031367
-0.021264568 -0.05090639 0.18997726
-0.020817384 -0.051845416 0.18964061
-0.020369917 -0.052785024 0.18930376
-0.019922197 -0.053725213 0.18896675
-0.019474193 -0.054665938 0.18862951
-0.019025922 -0.055607229 0.18829203
-0.018577397 -0.056549102 0.18795443
-0.018128604 -0.057491556 0.18761659
-0.017679513 -0.058434546 0.18727851
-0.017230168 -0.059378117 0.18694022
-0.01678054 -0.06032224 0.18660182
-0.016330674 -0.061266959 0.18626311
-0.01588051 -0.062212244 0.1859242
-0.015430078 -0.063158095 0.1855852
-0.014979377 -0.064104497 0.18524587
-0.014528424 -0.065051496 0.18490645
-0.014077157 -0.065999046 0.18456677
-0.013625637 -0.066947162 0.18422681
-0.013173863 -0.067895889 0.18388671
-0.012626797 -0.068777114 0.18339169
-0.011868194 -0.069510192 0.18255314
-0.011106819 -0.070245937 0.18171149
-0.010342643 -0.070984378 0.18086687
-0.0095756799 -0.071725547 0.18001911
-0.0088058859 -0.072469443 0.17916811
-0.0080332905 -0.073216081 0.17831415
-0.0072577894 -0.073965475 0.17745695
-0.0064794272 -0.074717656 0.17659655
-0.005698204 -0.075472608 0.17573297
-0.0049140602 -0.076230377 0.1748662
-0.0041269958 -0.076990962 0.17399624
-0.0033370256 -0.077754393 0.17312294
-0.0025440753 -0.078520656 0.17224646
-0.0017481744 -0.079289794 0.17136672
-0.00094926357 -0.080061808 0.17048362
-0.00014737248 -0.080836728 0.16959718
0.00071944296 -0.08157672 0.16860867
0.0016038716 -0.082311541 0.16759381
0.0024923086 -0.083049625 0.16657424
0.0033847243 -0.083791077 0.16555017
0.0042812079 -0.084535852 0.1645214
0.0051816851 -0.08528401 0.16348806
0.0060862899 -0.08603555 0.16245002
0.0069949925 -0.086790517 0.16140723
0.0079078376 -0.087548897 0.16035971
0.0088248402 -0.088310778 0.15930739
0.0097460449 -0.089076117 0.15825024
0.010671467 -0.089844972 0.15718833
0.01160118 -0.090617344 0.15612143
0.012535125 -0.091393292 0.15504968
0.013473406 -0.092172816 0.15397301
0.014416009 -0.092955977 0.15289128
0.015363008 -0.093742728 0.1518046
0.016314417 -0.09453316 0.15071279
0.017270252 -0.095327273 0.14961594
0.018230543 -0.096125096 0.148514
0.019195333 -0.096926659 0.14740682
0.020164624 -0.097731978 0.14629447
0.021138534 -0.098541081 0.14517695
0.022116989 -0.099354014 0.14405411
0.023100063 -0.10017076 0.14292598
0.024487272 -0.10080396 0.14117256
0.026623398 -0.10110009 0.13826135
0.028790385 -0.10140052 0.13530803
0.030988961 -0.10170531 0.13231173
0.033219293 -0.10201477 0.12927219
0.035482571 -0.10232885 0.12618777
0.037779555 -0.10264754 0.12305737
0.040110961 -0.10297103 0.11988017
0.042477593 -0.10329942 0.11665484
0.044880256 -0.10363279 0.11338046
0.04731974 -0.1039713 0.11005586
0.049796946 -0.10431503 0.10667986
0.052312739 -0.1046641 0.10325137
0.054868028 -0.10501868 0.099768937
0.05746372 -0.10537882 0.096231461
0.060100861 -0.10574473 0.092637599
0.09369234 -0.094219163 0.041823506
0.093692206 -0.095789373 0.042312175
0.093692049 -0.097354084 0.042799145
0.09369193 -0.098913357 0.043284327
0.093691744 -0.10046715 0.043767899
0.093691632 -0.10201554 0.044249713
0.093691453 -0.10355857 0.044729948
0.093691334 -0.10509621 0.045208484
0.093691155 -0.10662854 0.045685321
0.093691021 -0.10815555 0.046160489
0.093690872 -0.10967728 0.046634048
0.093690723 -0.11119379 0.047106057
0.093690604 -0.11270505 0.047576278
0.09369044 -0.11421114 0.048045039
0.093690276 -0.11571205 0.048512071
0.093690127 -0.11720783 0.048977613
0.093689993 -0.11869848 0.049441427
0.093689866 -0.12018406 0.04990381
0.093689725 -0.12166458 0.050364494
0.093689591 -0.12314004 0.050823629
0.093689457 -0.12461051 0.051281244
0.093689114 -0.12607604 0.051737607
0.09368901 -0.12753657 0.052192003
0.093689039 -0.12899207 0.052644759
0.093689047 -0.13044274 0.053096026
0.093689024 -0.13188848 0.053545743
0.093689039 -0.13332938 0.05399397
0.093689032 -0.13476546 0.054440677
0.093689047 -0.1361967 0.054885894
0.093689084 -0.13762313 0.055329561
0.093689092 -0.13904487 0.055771798
0.093689084 -0.14046185 0.056212485
0.093689114 -0.14187409 0.056651831
0.093689099 -0.14328167 0.057089686
0.093689099 -0.14468454 0.057526052
0.093689129 -0.14608282 0.057960957
0.093689151 -0.14747643 0.058394492
0.093689136 -0.14886549 0.058826536
0.093689121 -0.15024991 0.059257179
0.093689151 -0.15162982 0.059686393
0.093689188 -0.1530052 0.060114175
0.093689159 -0.15437606 0.060540617
0.093689159 -0.15574245 0.060965657
0.093689166 -0.15710436 0.061389297
0.093689188 -0.15846182 0.061811507
0.093689203 -0.15981486 0.062232435
0.093689211 -0.16116352 0.062651932
0.093689203 -0.16250783 0.063070089
0.093689218 -0.16384774 0.063486814
0.093689211 -0.16518332 0.063902378
0.093689233 -0.16651461 0.064316452
0.093689181 -0.16784158 0.064729244
0.093689084 -0.16916426 0.065140873
0.093688965 -0.17048272 0.065551102
0.093688875 -0.17179698 0.065960109
0.093688764 -0.17310698 0.066367716
0.093688667 -0.17441285 0.06677404
0.093688555 -0.17571449 0.067179143
0.093688451 -0.17701201 0.067582875
0.093688384 -0.17830534 0.067985237
0.093688384 -0.17959462 0.068386316
0.093688369 -0.18087979 0.068786114
0.093688346 -0.18216087 0.069184631
0.093688309 -0.18343791 0.069581896
0.093688354 -0.18471088 0.06997788
0.093688346 -0.18597987 0.070372611
0.093688361 -0.18724485 0.070766062
