# .PCD v0.7 - Point Cloud Data file format
VERSION 0.7
FIELDS x y z
SIZE 4 4 4
TYPE F F F
COUNT 1 1 1
WIDTH 1340
HEIGHT 1
VIEWPOINT 0 0 0 1 0 0 0
POINTS 1340
DATA ascii
0.093670875 -0.069574207 0.17540604
0.093670577 -0.071149856 0.17766595
0.093670309 -0.072705135 0.17989668
0.094187312 -0.073589765 0.18111104
0.095342651 -0.073666677 0.18109956
0.096498713 -0.073743582 0.18108806
0.09765546 -0.073820539 0.18107665
0.098812923 -0.07389757 0.18106517
0.099971078 -0.073974662 0.1810537
0.10112993 -0.074051753 0.18104216
0.10228948 -0.074128911 0.18103075
0.10344977 -0.074206106 0.18101916
0.10461074 -0.074283361 0.18100771
0.10577241 -0.074360676 0.18099621
0.10693479 -0.074438006 0.18098468
0.10809787 -0.074515417 0.18097314
0.10926168 -0.074592836 0.18096158
0.11042617 -0.0746703 0.18095011
0.11159141 -0.074747853 0.18093854
0.11275733 -0.074825451 0.18092698
0.11392397 -0.074903026 0.18091539
0.1150913 -0.074980699 0.18090385
0.11625938 -0.075058416 0.18089223
0.11742815 -0.075136162 0.18088064
0.11859767 -0.075213939 0.18086898
0.11976786 -0.075291798 0.18085736
0.12093876 -0.075369686 0.18084577
0.1221104 -0.075447671 0.18083408
0.12328276 -0.075525627 0.18082249
0.12445583 -0.075603642 0.18081078
0.12562962 -0.075681739 0.18079916
0.12680413 -0.075759873 0.18078741
0.12797935 -0.075838022 0.18077576
0.12915528 -0.075916246 0.18076411
0.13033193 -0.075994559 0.1807524
0.1315093 -0.076072849 0.18074065
0.1326874 -0.076151207 0.18072897
0.13386624 -0.076229624 0.18071723
0.14235543 -0.068970785 0.16941196
0.14365789 -0.068970464 0.1692743
0.14496213 -0.068970166 0.16913646
0.14626813 -0.068969846 0.16899845
0.1475759 -0.06896954 0.16886017
0.14888544 -0.068969198 0.1687218
0.0023358006 -0.069708511 0.18332914
0.0034571472 -0.069708683 0.18321002
0.0045798873 -0.069708869 0.18309081
0.00570405 -0.069709025 0.18297145
0.0068296287 -0.069709167 0.18285191
0.0079566073 -0.069709353 0.18273225
0.0090850098 -0.069709532 0.18261245
0.010214839 -0.069709674 0.18249243
0.011346076 -0.06970986 0.18237233
0.012478755 -0.069710031 0.18225205
0.013612853 -0.069710188 0.18213162
0.014748378 -0.069710374 0.18201107
0.015885348 -0.069710545 0.18189025
0.017023744 -0.069710702 0.18176943
0.018163586 -0.069710873 0.18164834
0.019304862 -0.069711044 0.1815272
0.020447593 -0.069711186 0.18140584
0.02159176 -0.069711372 0.18128434
0.022737369 -0.069711573 0.18116271
0.02388446 -0.0697117 0.18104088
0.025032971 -0.069711916 0.1809189
0.026182972 -0.069712043 0.18079683
0.027334411 -0.069712229 0.18067452
0.028487319 -0.069712415 0.18055215
0.029641705 -0.069712572 0.18042952
0.03079755 -0.069712728 0.18030676
0.031954881 -0.069712915 0.18018389
0.033113662 -0.069713086 0.1800608
0.03427393 -0.069713257 0.17993763
0.03543568 -0.069713444 0.17981428
0.036598917 -0.069713585 0.17969075
0.03776364 -0.069713786 0.17956707
0.03892985 -0.069713928 0.17944321
0.040097546 -0.069714114 0.17931926
0.041266747 -0.0697143 0.17919508
0.042437445 -0.069714442 0.17907071
0.043609649 -0.069714613 0.17894629
0.044783331 -0.0697148 0.17882162
0.045958534 -0.069715001 0.17869687
0.047135249 -0.069715127 0.17857191
0.048313465 -0.069715329 0.17844677
0.049493216 -0.069715485 0.17832151
0.050674468 -0.069715671 0.17819607
0.051857252 -0.069715843 0.17807043
0.053041548 -0.069716029 0.17794478
0.054227374 -0.06971623 0.17781886
0.055414736 -0.069716372 0.17769271
0.056603625 -0.069716528 0.17756647
0.057794064 -0.069716729 0.17744005
0.058986027 -0.069716886 0.17731348
0.060179524 -0.069717079 0.17718673
0.061374579 -0.069717251 0.17705983
0.062571175 -0.069717437 0.17693278
0.063769341 -0.069717579 0.17680553
0.064969033 -0.06971778 0.17667812
0.06617029 -0.069717966 0.17655057
0.067373112 -0.069718137 0.17642289
0.068577491 -0.069718324 0.17629501
0.069783449 -0.069718495 0.17616692
0.070990972 -0.069718666 0.17603865
0.072200038 -0.069718875 0.17591029
0.073410705 -0.069719046 0.17578173
0.074622951 -0.069719203 0.17565298
0.075836793 -0.069719374 0.17552412
0.077052191 -0.06971956 0.17539507
0.078269169 -0.069719747 0.17526585
0.079487763 -0.069719948 0.17513642
0.08070793 -0.069720112 0.17500687
0.081929721 -0.069720283 0.17487711
0.083153091 -0.069720469 0.17474717
0.084378056 -0.069720671 0.17461711
0.085604653 -0.069720812 0.17448685
0.086832836 -0.069721013 0.17435643
0.088062659 -0.069721192 0.1742259
0.089294069 -0.069721378 0.17409509
0.090527117 -0.06972155 0.17396414
0.091761768 -0.069721751 0.17383307
0.092998058 -0.069721892 0.17370176
0.093670934 -0.070445374 0.17467371
0.093670644 -0.072016045 0.17693937
0.093670353 -0.073566467 0.17917579
0.093907833 -0.074799091 0.18092853
0.095061742 -0.074876271 0.18091702
0.096216358 -0.074953429 0.18090558
0.097371668 -0.075030714 0.18089408
0.098527692 -0.075107969 0.18088251
0.099684402 -0.075185329 0.18087107
0.10084181 -0.075262763 0.18085954
0.10199993 -0.075340129 0.18084794
0.10315873 -0.075417653 0.18083644
0.10431828 -0.075495161 0.18082491
0.1054785 -0.075572744 0.18081328
0.10663944 -0.075650357 0.18080175
0.10780104 -0.075728036 0.18079019
0.1089634 -0.075805724 0.18077865
0.11012644 -0.075883515 0.18076703
0.1112902 -0.075961307 0.18075541
0.11245466 -0.076039158 0.18074387
0.11361983 -0.076117076 0.18073225
0.11478571 -0.076195031 0.18072063
0.11595231 -0.076272987 0.18070897
0.11711963 -0.076351017 0.18069729
0.11828766 -0.076429091 0.1806857
0.1194564 -0.076507218 0.18067396
0.12062582 -0.076585382 0.18066227
0.12179603 -0.076663576 0.18065056
0.12296687 -0.076741859 0.18063897
0.12413845 -0.076820165 0.1806272
0.12531078 -0.076898538 0.18061557
0.12648381 -0.07697694 0.18060377
0.1276575 -0.077055387 0.18059212
0.12883198 -0.077133894 0.18058032
0.13000712 -0.077212453 0.18056864
0.13118304 -0.077291019 0.18055692
0.13235962 -0.077369675 0.18054512
0.13353695 -0.07744839 0.18053335
0.14251593 -0.069729269 0.16844353
0.14381996 -0.069729403 0.16830504
0.14512573 -0.069729604 0.16816637
0.14643328 -0.06972982 0.16802755
0.14774261 -0.069729984 0.16788849
0.14905371 -0.069730215 0.16774929
0.0012206427 -0.070412703 0.1825639
0.0023417287 -0.070413336 0.1824443
0.0034642189 -0.07041394 0.18232456
0.0045881211 -0.070414543 0.18220466
0.0057134354 -0.070415147 0.18208459
0.0068401759 -0.070415735 0.1819644
0.0079683131 -0.070416369 0.18184409
0.0090978891 -0.070416987 0.18172359
0.01022887 -0.070417598 0.18160293
0.011361294 -0.070418201 0.18148211
0.012495136 -0.070418835 0.18136111
0.013630414 -0.070419438 0.18123999
0.014767121 -0.070420086 0.18111873
0.015905261 -0.07042069 0.18099734
0.017044853 -0.070421293 0.18087572
0.018185876 -0.070421927 0.18075404
0.01932836 -0.07042253 0.18063208
0.02047227 -0.070423149 0.1805101
0.021617634 -0.070423782 0.18038788
0.022764465 -0.070424385 0.18026555
0.023912733 -0.070425019 0.18014306
0.025062473 -0.070425622 0.18002039
0.026213663 -0.07042627 0.17989761
0.027366331 -0.070426904 0.17977461
0.028520452 -0.070427507 0.1796515
0.029676044 -0.07042814 0.17952821
0.030833116 -0.070428759 0.17940474
0.031991661 -0.070429392 0.17928118
0.033151686 -0.070430011 0.17915744
0.034313183 -0.070430674 0.17903352
0.03547617 -0.070431292 0.17890945
0.036640637 -0.07043191 0.17878523
0.037806597 -0.070432544 0.17866078
0.038974058 -0.070433177 0.17853627
0.040143009 -0.070433795 0.17841154
0.041313447 -0.070434444 0.17828673
0.042485394 -0.070435077 0.17816165
0.043658841 -0.07043571 0.17803648
0.044833809 -0.070436329 0.1779111
0.046010263 -0.070436962 0.17778563
0.047188234 -0.07043764 0.17765996
0.048367735 -0.070438273 0.17753416
0.049548749 -0.070438921 0.17740813
0.050731294 -0.07043954 0.17728198
0.051915336 -0.070440188 0.17715561
0.053100925 -0.070440851 0.17702922
0.054288041 -0.070441499 0.17690253
0.055476677 -0.070442133 0.17677575
0.05666687 -0.070442766 0.17664874
0.05785859 -0.070443437 0.17652163
0.059051853 -0.07044407 0.17639431
0.060246676 -0.070444688 0.17626688
0.061443023 -0.070445366 0.17613924
0.062640935 -0.07044597 0.17601135
0.063840389 -0.070446663 0.17588344
0.065041423 -0.070447296 0.17575532
0.066243984 -0.070447944 0.17562702
0.067448139 -0.070448592 0.17549857
0.068653844 -0.070449255 0.17536995
0.069861107 -0.070449911 0.17524111
0.071069956 -0.070450559 0.1751121
0.072280385 -0.070451222 0.17498299
0.073492378 -0.070451885 0.1748538
0.074705966 -0.070452534 0.17472431
0.075921148 -0.070453197 0.17459464
0.077137902 -0.070453815 0.17446479
0.078356236 -0.070454523 0.17433482
0.079576179 -0.070455164 0.17420471
0.080797739 -0.070455827 0.17407435
0.082020849 -0.070456505 0.17394391
0.083245605 -0.070457138 0.17381322
0.084471941 -0.070457861 0.17368239
0.085699901 -0.070458494 0.17355141
0.086929485 -0.07045915 0.17342022
0.088160649 -0.070459828 0.17328894
0.089393459 -0.070460491 0.17315736
0.090627894 -0.070461154 0.1730257
0.091863938 -0.070461817 0.17289379
0.093101613 -0.070462488 0.17276177
0.093670994 -0.071317285 0.17394069
0.093670696 -0.072883055 0.17621213
0.09367042 -0.074428588 0.17845425
0.09367013 -0.075954244 0.18066767
0.094781473 -0.076083019 0.18073499
0.095934674 -0.076160453 0.18072346
0.097088538 -0.076238006 0.1807119
0.09824311 -0.076315604 0.18070033
0.099398397 -0.076393187 0.18068877
0.10055435 -0.076470852 0.18067721
0.10171104 -0.076548554 0.18066564
0.10286842 -0.076626331 0.18065405
0.1040265 -0.076704122 0.18064252
0.10518526 -0.076781988 0.18063089
0.10634474 -0.076859847 0.18061933
0.10750491 -0.076937817 0.18060771
0.10866581 -0.077015802 0.18059605
0.10982739 -0.077093832 0.18058443
0.11098969 -0.077171937 0.18057287
0.11215271 -0.077250063 0.18056118
0.1133164 -0.077328242 0.18054956
0.11448083 -0.077406451 0.18053782
0.11564597 -0.077484734 0.18052614
0.11681183 -0.077563018 0.18051451
0.11797836 -0.077641353 0.18050283
0.11914567 -0.077719741 0.18049106
0.12031363 -0.077798203 0.18047929
0.12148234 -0.07787668 0.18046758
0.12265171 -0.077955231 0.18045583
0.12382183 -0.07803382 0.18044415
0.12499266 -0.078112461 0.18043235
0.12616421 -0.078191131 0.18042064
0.12733646 -0.078269877 0.18040884
0.12850943 -0.078348622 0.18039703
0.12968309 -0.078427508 0.18038529
0.13085753 -0.078506343 0.18037355
0.1320326 -0.078585267 0.18036172
0.13320845 -0.078664251 0.18034992
0.14267682 -0.070489325 0.1674729
0.14398237 -0.070490062 0.16733366
0.14528972 -0.070490725 0.16719416
0.14659883 -0.07049147 0.16705453
0.1479097 -0.070492178 0.16691464
-0.0031653638 -0.070867606 0.18178853
-0.0020769311 -0.070953757 0.18179604
-0.00098798447 -0.071039937 0.18180358
0.00010459464 -0.071117461 0.1817981
0.0012254346 -0.071118496 0.18167794
0.0023476717 -0.071119547 0.18155769
0.003471313 -0.071120612 0.18143728
0.0045963735 -0.071121648 0.18131667
0.0057228459 -0.071122713 0.18119591
0.0068507381 -0.071123794 0.18107504
0.0079800496 -0.071124814 0.18095407
0.0091107842 -0.071125895 0.1808328
0.010242941 -0.071126938 0.18071154
0.011376536 -0.071128003 0.18058997
0.012511558 -0.071129084 0.18046832
0.013648011 -0.071130164 0.18034652
0.014785904 -0.071131214 0.1802246
0.015925225 -0.071132295 0.1801025
0.017066 -0.071133375 0.17998028
0.018208226 -0.071134411 0.17985776
0.019351883 -0.071135491 0.17973521
0.020497004 -0.071136571 0.17961252
0.021643566 -0.071137652 0.17948958
0.022791585 -0.071138747 0.17936662
0.023941081 -0.071139798 0.17924333
0.025092013 -0.071140908 0.17912
0.026244428 -0.071141973 0.17899647
0.027398296 -0.071143053 0.17887282
0.028553642 -0.071144134 0.178749
0.02971046 -0.071145199 0.17862499
0.030868754 -0.07114628 0.17850092
0.032028526 -0.07114736 0.17837656
0.033189777 -0.071148485 0.17825207
0.034352504 -0.07114955 0.1781275
0.035516731 -0.071150616 0.17800272
0.036682438 -0.071151741 0.17787781
0.037849654 -0.071152806 0.1777527
0.039018344 -0.071153931 0.17762738
0.040188551 -0.071155012 0.17750195
0.041360248 -0.071156092 0.17737639
0.042533446 -0.071157217 0.17725071
0.043708161 -0.071158297 0.1771248
0.044884373 -0.071159422 0.1769987
0.046062119 -0.071160503 0.17687246
0.047241345 -0.071161613 0.1767461
0.048422117 -0.071162738 0.17661953
0.049604416 -0.071163833 0.17649275
0.050788216 -0.071164958 0.17636594
0.051973563 -0.071166009 0.17623889
0.053160429 -0.071167164 0.1761117
0.054348826 -0.071168274 0.17598432
0.055538774 -0.071169361 0.1758568
0.056730241 -0.071170501 0.1757291
0.057923272 -0.071171612 0.17560121
0.059117831 -0.071172737 0.17547315
0.060313929 -0.071173877 0.17534503
0.061511617 -0.071174957 0.17521659
0.062710822 -0.071176097 0.17508814
0.063911609 -0.071177222 0.17495936
0.065113947 -0.071178347 0.17483056
0.066317834 -0.071179472 0.17470148
0.067523308 -0.071180597 0.17457229
0.068730325 -0.071181744 0.17444295
0.06993895 -0.071182869 0.17431334
0.071149126 -0.071184024 0.1741837
0.072360881 -0.071185134 0.17405388
0.073574245 -0.071186274 0.17392376
0.074789174 -0.071187429 0.17379355
0.07600569 -0.071188539 0.1736632
0.077223778 -0.071189687 0.17353263
0.078443497 -0.071190797 0.17340189
0.079664797 -0.071191952 0.173271
0.080887683 -0.071193136 0.17313996
0.082112193 -0.071194276 0.17300865
0.083338313 -0.071195431 0.17287725
0.084566019 -0.071196549 0.17274565
0.085795358 -0.071197733 0.17261392
0.087026305 -0.071198858 0.17248201
0.088258892 -0.071200013 0.17234984
0.089493074 -0.071201183 0.17221761
0.090728894 -0.071202323 0.17208511
0.091966324 -0.0712035 0.17195249
0.093205415 -0.07120467 0.17181972
0.093671046 -0.072190069 0.17320696
0.093670756 -0.073750846 0.17548421
0.093670465 -0.075291477 0.17773211
0.093670204 -0.076812297 0.17995107
0.094501875 -0.077286974 0.18055338
0.095653616 -0.077364706 0.18054175
0.096806079 -0.077442482 0.18053019
0.097959213 -0.077520348 0.18051863
0.099113055 -0.077598237 0.18050703
0.10026757 -0.077676177 0.18049541
0.10142282 -0.077754147 0.18048382
0.10257876 -0.077832162 0.18047214
0.10373539 -0.077910237 0.18046054
0.10489272 -0.077988379 0.18044889
0.10605074 -0.078066573 0.1804373
0.10720949 -0.078144737 0.18042555
0.10836891 -0.07822305 0.18041396
0.10952907 -0.078301348 0.18040231
0.11068989 -0.078379713 0.1803906
0.11185147 -0.078458101 0.18037891
0.11301371 -0.078536578 0.18036723
0.11417668 -0.07861504 0.18035549
0.11534036 -0.078693606 0.18034384
0.11650477 -0.07877215 0.18033203
0.11766983 -0.078850821 0.18032032
0.11883565 -0.078929447 0.18030852
0.12000216 -0.079008177 0.18029678
0.12116938 -0.079086952 0.18028501
0.1223373 -0.079165779 0.18027323
0.12350595 -0.079244614 0.18026143
0.1246753 -0.079323553 0.18024966
0.12584534 -0.079402491 0.18023783
0.12701613 -0.07948152 0.18022606
0.12818763 -0.079560556 0.18021423
0.12935983 -0.079639658 0.18020239
0.13053274 -0.079718806 0.18019056
0.13170639 -0.079798013 0.18017873
0.13288075 -0.079877235 0.1801669
0.13405581 -0.079956584 0.18015507
0.14414516 -0.071252346 0.16636005
0.14545403 -0.071253553 0.1662198
0.14676468 -0.071254827 0.16607931
0.14807716 -0.071256004 0.16593865
-0.0075181434 -0.071228616 0.18087307
-0.0064306683 -0.071314879 0.1808804
-0.0053426824 -0.071401171 0.18088779
-0.0042541716 -0.071487486 0.18089512
-0.0031651426 -0.071573861 0.18090245
-0.0020756037 -0.071660295 0.18090984
-0.00098553929 -0.071746752 0.1809172
0.0001082541 -0.071824253 0.18091103
0.001230234 -0.07182572 0.18079022
0.0023536184 -0.071827233 0.18066928
0.0034784183 -0.071828745 0.18054819
0.0046046413 -0.071830213 0.1804269
0.0057322723 -0.07183174 0.18030545
0.0068613226 -0.071833253 0.18018392
0.0079918187 -0.071834736 0.18006214
0.0091237184 -0.071836263 0.17994028
0.010257046 -0.071837805 0.17981827
0.011391814 -0.071839266 0.17969608
0.01252801 -0.071840793 0.17957377
0.013665643 -0.07184232 0.17945126
0.014804722 -0.071843833 0.17932859
0.015945233 -0.071845375 0.17920581
0.017087195 -0.071846858 0.17908281
0.0182306 -0.071848445 0.1789597
0.019375468 -0.071849957 0.17883646
0.02052178 -0.07185147 0.17871302
0.021669554 -0.071852982 0.17858943
0.02281878 -0.071854495 0.17846572
0.023969466 -0.071856081 0.17834181
0.025121627 -0.071857579 0.17821777
0.026275249 -0.071859136 0.17809355
0.027430346 -0.071860649 0.17796913
0.028586905 -0.071862206 0.17784458
0.029744949 -0.071863763 0.17771992
0.030904468 -0.07186529 0.17759505
0.032065462 -0.071866862 0.17747009
0.033227958 -0.071868375 0.17734489
0.034391925 -0.071869947 0.17721957
0.035557382 -0.071871504 0.17709413
0.03672434 -0.071873061 0.17696843
0.037892785 -0.071874619 0.17684263
0.039062738 -0.071876131 0.17671666
0.040234197 -0.071877703 0.1765905
0.041407134 -0.07187932 0.17646423
0.042581603 -0.071880832 0.17633778
0.043757576 -0.071882419 0.17621115
0.044935055 -0.071883991 0.17608437
0.046114054 -0.071885549 0.17595744
0.047294565 -0.071887165 0.17583033
0.04847661 -0.071888693 0.17570305
0.049660169 -0.071890295 0.17557558
0.050845273 -0.071891852 0.175448
0.052031897 -0.071893454 0.17532021
0.053220052 -0.071895033 0.17519227
0.054409742 -0.071896605 0.17506418
0.055600982 -0.071898207 0.17493591
0.056793757 -0.071899764 0.17480743
0.057988081 -0.071901351 0.17467892
0.059183944 -0.071902953 0.17455009
0.060381368 -0.071904555 0.17442119
0.06158033 -0.071906157 0.17429209
0.062780887 -0.071907744 0.17416278
0.063982971 -0.071909361 0.17403337
0.065186635 -0.071910948 0.17390376
0.066391841 -0.071912572 0.17377403
0.067598633 -0.071914189 0.17364413
0.068807006 -0.071915805 0.17351398
0.07001695 -0.071917407 0.17338365
0.071228482 -0.071918979 0.17325318
0.07244157 -0.071920626 0.17312258
0.073656268 -0.071922228 0.17299181
0.074872546 -0.07192383 0.17286086
0.076090418 -0.071925469 0.17272964
0.077309877 -0.0719271 0.17259839
0.07853093 -0.071928747 0.1724669
0.079753585 -0.071930394 0.1723353
0.080977865 -0.071931981 0.17220342
0.082203731 -0.071933627 0.17207149
0.083431199 -0.071935266 0.17193925
0.084660299 -0.071936898 0.17180699
0.085891008 -0.07193853 0.17167443
0.087123357 -0.071940176 0.17154178
0.088357307 -0.071941823 0.17140889
0.089592896 -0.071943432 0.17127582
0.090830095 -0.071945108 0.17114267
0.092068955 -0.07194674 0.17100924
0.093309425 -0.071948431 0.1708757
0.093671113 -0.073063605 0.17247257
0.0936708 -0.07461945 0.17475566
0.093670532 -0.076155163 0.17700922
0.093670242 -0.077671163 0.17923388
0.094222933 -0.078488111 0.18037215
0.095373236 -0.078566127 0.18036056
0.096524276 -0.078644171 0.18034884
0.097675972 -0.078722276 0.18033725
0.098828375 -0.078800432 0.18032563
0.099981487 -0.078878641 0.180314
0.10113528 -0.078956924 0.18030232
0.10228977 -0.079035252 0.18029067
0.10344496 -0.07911358 0.18027899
0.10460087 -0.07919196 0.1802673
0.10575744 -0.079270452 0.18025562
0.10691475 -0.07934887 0.18024394
0.10807273 -0.079427436 0.18023223
0.10923143 -0.079506032 0.18022054
0.11039082 -0.079584636 0.18020877
0.11155093 -0.079663306 0.18019709
0.11271172 -0.079742081 0.18018529
0.11387324 -0.079820812 0.18017358
0.11503547 -0.079899631 0.18016177
0.1161984 -0.079978459 0.18015003
0.11736202 -0.080057353 0.18013826
0.11852636 -0.080136321 0.18012643
0.1196914 -0.08021532 0.18011463
0.12085719 -0.080294348 0.1801028
0.12202362 -0.080373444 0.18009099
0.12319081 -0.080452576 0.18007913
0.12435869 -0.080531783 0.18006739
0.12552729 -0.080610991 0.18005553
0.12669657 -0.080690295 0.1800437
0.12786661 -0.080769606 0.18003178
0.12903732 -0.080849007 0.18001997
0.13020876 -0.080928423 0.18000808
0.1313809 -0.081007898 0.17999622
0.13255379 -0.081087433 0.17998433
0.13372734 -0.081166983 0.17997247
0.14430828 -0.072016321 0.16538438
0.14561872 -0.072018087 0.16524324
0.14693096 -0.072019845 0.16510195
0.14824493 -0.072021581 0.16496047
-0.012957526 -0.071503371 0.17995033
-0.011871534 -0.071589693 0.17995754
-0.01078502 -0.071676038 0.17996466
-0.0096979886 -0.071762428 0.17997175
-0.0086104339 -0.071848854 0.17997894
-0.0075223777 -0.071935318 0.17998603
-0.0064337887 -0.072021835 0.17999324
-0.0053446852 -0.072108373 0.18000033
-0.004255068 -0.072194979 0.18000749
-0.0031649291 -0.072281577 0.18001464
-0.0020742726 -0.072368249 0.18002182
-0.00098309445 -0.072454959 0.180029
0.0001119098 -0.072532482 0.18002212
0.0012350334 -0.072534427 0.17990065
0.00235958 -0.072536387 0.17977899
0.0034855385 -0.072538316 0.17965722
0.0046129161 -0.072540276 0.17953524
0.0057417173 -0.072542235 0.17941314
0.0068719373 -0.072544195 0.17929089
0.0080035841 -0.072546169 0.17916849
0.0091366684 -0.072548099 0.17904592
0.010271166 -0.072550073 0.17892325
0.011407111 -0.072552025 0.17880034
0.012544495 -0.072553985 0.17867732
0.013683316 -0.072555959 0.17855412
0.014823573 -0.072557934 0.1784308
0.015965289 -0.072559908 0.17830727
0.017108431 -0.07256189 0.17818362
0.018253038 -0.072563879 0.17805988
0.019399105 -0.072565839 0.17793581
0.020546615 -0.072567813 0.17781174
0.021695592 -0.072569832 0.17768744
0.022846028 -0.072571822 0.17756301
0.023997933 -0.072573811 0.17743835
0.025151301 -0.07257583 0.17731366
0.026306137 -0.072577789 0.17718866
0.027462449 -0.072579794 0.17706361
0.028620239 -0.072581798 0.17693838
0.029779505 -0.072583817 0.17681304
0.030940253 -0.072585821 0.17668742
0.032102492 -0.07258781 0.17656174
0.033266202 -0.072589815 0.1764358
0.03443142 -0.072591819 0.17630979
0.035598133 -0.072593838 0.17618361
0.03676632 -0.072595857 0.17605722
0.037936032 -0.072597891 0.17593062
0.039107218 -0.072599925 0.17580402
0.040279932 -0.072601914 0.17567715
0.04145414 -0.072603978 0.17555016
0.042629857 -0.072606027 0.17542297
0.043807101 -0.072608046 0.17529559
0.044985849 -0.07261008 0.17516813
0.046166118 -0.072612099 0.17504045
0.0473479 -0.072614178 0.1749126
0.048531223 -0.072616212 0.17478463
0.049716074 -0.072618261 0.17465645
0.050902445 -0.072620317 0.17452806
0.052090369 -0.072622351 0.17439958
0.05327981 -0.07262443 0.17427093
0.054470781 -0.072626479 0.17414212
0.055663325 -0.072628528 0.17401311
0.056857392 -0.072630621 0.17388397
0.058053035 -0.07263267 0.17375463
0.059250198 -0.072634764 0.17362505
0.06044893 -0.072636813 0.17349541
0.061649222 -0.072638862 0.17336556
0.062851056 -0.07264097 0.17323557
0.064054482 -0.072643027 0.17310539
0.065259457 -0.072645135 0.172975
0.066466019 -0.072647199 0.1728445
0.06767413 -0.072649293 0.17271385
0.068883821 -0.072651386 0.17258304
0.070095114 -0.072653465 0.172452
0.07130798 -0.072655559 0.17232078
0.072522439 -0.072657667 0.17218938
0.073738463 -0.072659768 0.1720579
0.074956089 -0.072661892 0.17192617
0.076175325 -0.07266397 0.17179427
0.077396125 -0.072666079 0.17166218
0.078618549 -0.072668187 0.17152998
0.079842582 -0.072670311 0.17139763
0.081068225 -0.072672434 0.17126498
0.082295455 -0.07267458 0.17113221
0.083524317 -0.072676703 0.17099926
0.084754802 -0.072678797 0.17086616
0.085986882 -0.072680965 0.17073298
0.087220602 -0.072683074 0.17059952
0.088455953 -0.072685204 0.17046583
0.089692913 -0.072687358 0.17033204
0.090931527 -0.072689466 0.17019808
0.092171781 -0.072691619 0.17006385
0.093413658 -0.072693788 0.16992953
0.093671165 -0.07393802 0.17173743
0.093670882 -0.075488858 0.17402631
0.093670584 -0.077019654 0.17628574
0.093670316 -0.078530736 0.17851609
0.093944624 -0.079686396 0.18019134
0.095093518 -0.079764694 0.18017969
0.096243121 -0.079843022 0.18016803
0.097393401 -0.079921432 0.18015635
0.098544359 -0.079999879 0.18014464
0.099696048 -0.080078341 0.18013301
0.10084841 -0.080156893 0.18012127
0.10200148 -0.080235474 0.18010959
0.10315522 -0.080314092 0.18009791
0.10430968 -0.080392733 0.18008614
0.10546482 -0.080471449 0.18007442
0.10662068 -0.080550209 0.18006265
0.10777722 -0.080629043 0.18005094
0.10893447 -0.080707893 0.18003923
0.11009244 -0.080786757 0.18002743
0.11125109 -0.080865711 0.18001571
0.11241042 -0.080944739 0.18000391
0.11357051 -0.081023753 0.17999205
0.11473127 -0.081102803 0.17998028
0.11589275 -0.081181936 0.17996845
0.11705492 -0.081261128 0.17995661
0.1182178 -0.08134032 0.17994478
0.11938141 -0.081419617 0.17993295
0.1205457 -0.081498943 0.17992106
0.1217107 -0.081578314 0.1799092
0.1228764 -0.081657685 0.17989731
0.1240428 -0.081737161 0.17988545
0.12520993 -0.081816696 0.17987362
0.12637779 -0.081896208 0.17986169
0.12754633 -0.081975833 0.1798498
0.12871557 -0.082055472 0.17983791
0.12988552 -0.082135171 0.17982602
0.13105623 -0.082214929 0.17981407
0.13222761 -0.08229471 0.17980221
0.13339972 -0.082374543 0.1797902
0.14447178 -0.072782032 0.16440651
0.1457838 -0.072784252 0.16426459
0.14709757 -0.07278654 0.16412243
0.14841315 -0.072788849 0.16398019
-0.017310563 -0.071864419 0.17903495
-0.016225524 -0.071950853 0.17904183
-0.015139975 -0.072037257 0.17904878
-0.014053901 -0.072123736 0.17905566
-0.012967312 -0.072210245 0.17906258
-0.011880201 -0.072296798 0.17906952
-0.01079258 -0.072383396 0.17907643
-0.009704438 -0.072470024 0.17908335
-0.0086157825 -0.072556712 0.17909029
-0.0075266007 -0.072643422 0.17909721
-0.0064369054 -0.072730206 0.17910421
-0.0053466959 -0.072816983 0.17911109
-0.0042559607 -0.072903849 0.17911807
-0.0031647119 -0.072990738 0.17912501
-0.0020729415 -0.073077679 0.17913195
-0.00098064565 -0.073164627 0.17913893
0.00011557665 -0.073242165 0.17913142
0.0012398513 -0.073244587 0.17900929
0.00236556 -0.073246963 0.17888689
0.0034926808 -0.073249355 0.17876443
0.0046212133 -0.073251791 0.17864183
0.0057511912 -0.073254168 0.17851901
0.0068825698 -0.073256589 0.17839605
0.0080153905 -0.073258996 0.17827302
0.0091496306 -0.073261432 0.17814973
0.010285325 -0.073263809 0.17802629
0.011422445 -0.073266245 0.17790276
0.012561006 -0.073268659 0.17777905
0.013701024 -0.073271081 0.17765507
0.014842471 -0.073273502 0.17753109
0.015985366 -0.073275954 0.17740694
0.017129723 -0.073278405 0.17728254
0.018275522 -0.073280811 0.17715803
0.019422773 -0.073283248 0.17703336
0.020571508 -0.073285699 0.17690849
0.021721693 -0.073288165 0.17678356
0.022873327 -0.073290586 0.17665842
0.024026446 -0.073293068 0.1765331
0.025181036 -0.073295504 0.17640764
0.026337091 -0.07329797 0.17628202
0.027494624 -0.073300421 0.17615619
0.02865364 -0.073302887 0.17603028
0.029814132 -0.073305339 0.17590418
0.03097612 -0.073307835 0.17577785
0.032139581 -0.073310301 0.1756514
0.033304546 -0.073312767 0.1755248
0.034471005 -0.073315248 0.17539808
0.03563894 -0.073317729 0.17527118
0.03680839 -0.073320225 0.17514405
0.037979342 -0.073322721 0.17501685
0.039151799 -0.073325172 0.17488942
0.040325765 -0.073327698 0.17476186
0.041501231 -0.073330209 0.17463413
0.042678218 -0.073332705 0.17450622
0.043856714 -0.073335201 0.17437816
0.045036741 -0.073337704 0.17424995
0.046218283 -0.07334023 0.17412153
0.047401361 -0.073342726 0.17399296
0.048585951 -0.073345259 0.17386422
0.04977208 -0.07334777 0.17373532
0.050959747 -0.073350266 0.17360625
0.052148946 -0.073352806 0.17347699
0.053339683 -0.073355347 0.17334762
0.054531962 -0.073357873 0.17321804
0.055725794 -0.073360428 0.17308837
0.056921173 -0.073362969 0.1729584
0.058118105 -0.073365524 0.17282838
0.05931659 -0.07336805 0.17269805
0.060516637 -0.073370591 0.17256767
0.061718237 -0.073373161 0.17243713
0.062921397 -0.073375709 0.17230639
0.064126134 -0.07337831 0.17217547
0.06533245 -0.07338082 0.1720444
0.066540331 -0.073383421 0.17191315
0.067749791 -0.073385991 0.17178172
0.068960831 -0.073388532 0.17165005
0.07017345 -0.073391147 0.17151827
0.071387671 -0.073393673 0.17138633
0.072603449 -0.073396295 0.17125419
0.073820837 -0.073398866 0.17112195
0.075039819 -0.073401466 0.17098945
0.076260388 -0.073404081 0.17085686
0.077482581 -0.073406652 0.17072397
0.078706361 -0.073409282 0.170591
0.079931758 -0.073411845 0.17045781
0.081158772 -0.07341449 0.1703245
0.082387388 -0.07341712 0.17019102
0.083617628 -0.073419675 0.17005733
0.084849484 -0.073422335 0.16992348
0.086082965 -0.07342492 0.16978943
0.087318078 -0.073427588 0.16965523
0.088554792 -0.073430203 0.16952083
0.089793175 -0.073432833 0.16938621
0.091033176 -0.073435478 0.16925147
0.092274845 -0.073438093 0.1691165
0.093518108 -0.073440745 0.16898143
0.093671225 -0.074813195 0.17100167
0.093670934 -0.076359056 0.17329642
0.093670651 -0.077884905 0.17556155
0.093670361 -0.079391174 0.17779759
0.093670093 -0.080878161 0.18000501
0.09481445 -0.080960557 0.17999926
0.095962614 -0.081039153 0.17998758
0.097111471 -0.081117801 0.17997581
0.098261014 -0.081196517 0.17996418
0.099411279 -0.081275232 0.17995235
0.1005622 -0.081354052 0.17994064
0.10171384 -0.081432872 0.17992896
0.10286616 -0.081511758 0.17991716
0.10401919 -0.081590712 0.17990541
0.10517289 -0.081669696 0.17989367
0.1063273 -0.081748769 0.17988193
0.10748243 -0.081827797 0.17987007
0.1086382 -0.081906937 0.17985833
0.10979474 -0.081986099 0.17984644
0.11095193 -0.082065322 0.17983469
0.11210984 -0.082144603 0.17982289
0.11326846 -0.082223885 0.17981109
0.11442779 -0.082303219 0.17979911
0.11558782 -0.082382619 0.17978731
0.11674856 -0.08246205 0.17977536
0.11790998 -0.082541525 0.17976353
0.11907213 -0.082621075 0.17975163
0.12023495 -0.082700677 0.17973977
0.12139848 -0.082780331 0.17972785
0.12256273 -0.082859986 0.17971596
0.12372771 -0.082939729 0.17970401
0.12489334 -0.08301951 0.17969209
0.12605973 -0.083099313 0.1796802
0.12722678 -0.083179206 0.17966828
0.12839457 -0.083259128 0.1796563
0.12956305 -0.083339125 0.17964438
0.13073227 -0.083419144 0.1796324
0.13190219 -0.083499171 0.17962041
0.13307282 -0.083579302 0.17960849
0.13424416 -0.083659478 0.17959648
0.1459492 -0.073552184 0.16328374
0.14726456 -0.073555 0.1631408
0.1485817 -0.073557809 0.16299769
-0.021664212 -0.072225533 0.1781193
-0.020580124 -0.072311997 0.17812601
-0.019495538 -0.072398551 0.17813271
-0.018410413 -0.072485067 0.17813936
-0.017324788 -0.072571687 0.17814609
-0.016238635 -0.07265833 0.17815277
-0.01515198 -0.072745048 0.17815956
-0.014064807 -0.072831765 0.17816627
-0.012977107 -0.072918549 0.17817298
-0.011888891 -0.073005334 0.17817968
-0.010800157 -0.0730922 0.17818639
-0.0097109079 -0.073179126 0.17819312
-0.0086211422 -0.073266037 0.17819983
-0.0075308541 -0.073353015 0.17820659
-0.0064400481 -0.073440023 0.1782133
-0.0053487136 -0.073527113 0.17822
-0.0042568687 -0.073614202 0.1782268
-0.0031644907 -0.073701352 0.1782335
-0.0020715992 -0.073788539 0.17824027
-0.0009781858 -0.07387574 0.17824703
0.00011924349 -0.073953323 0.17823893
0.0012446804 -0.073956177 0.17811605
0.002371544 -0.073959045 0.17799306
0.0034998269 -0.073961884 0.17786989
0.0046295333 -0.073964722 0.1777465
0.0057606585 -0.073967576 0.17762306
0.0068932292 -0.07397043 0.17749935
0.0080272192 -0.073973298 0.17737558
0.0091626439 -0.073976181 0.17725167
0.010299517 -0.073979065 0.17712757
0.011437817 -0.073981918 0.17700332
0.012577563 -0.073984787 0.17687884
0.013718768 -0.073987648 0.17675433
0.014861404 -0.073990561 0.17662954
0.016005497 -0.073993444 0.17650464
0.01715105 -0.073996313 0.17637959
0.018298056 -0.073999241 0.17625436
0.019446515 -0.074002124 0.17612901
0.020596448 -0.074005023 0.17600346
0.021747835 -0.074007936 0.17587775
0.022900697 -0.074010864 0.17575195
0.024055034 -0.074013762 0.17562592
0.025210831 -0.07401669 0.17549974
0.026368108 -0.074019618 0.17537338
0.027526874 -0.074022532 0.17524689
0.028687116 -0.074025489 0.17512026
0.02984884 -0.074028417 0.17499343
0.031012066 -0.074031316 0.17486641
0.032176767 -0.074034259 0.17473927
0.033342961 -0.074037217 0.17461199
0.034510672 -0.07404016 0.17448443
0.035679858 -0.074043103 0.17435685
0.036850549 -0.07404609 0.17422912
0.038022757 -0.074049003 0.17410102
0.039196461 -0.074052021 0.17397299
0.040371686 -0.074054949 0.17384464
0.04154842 -0.074057937 0.17371616
0.042726669 -0.074060924 0.17358759
0.043906447 -0.074063897 0.17345873
0.045087744 -0.074066877 0.17332977
0.046270572 -0.07406985 0.17320067
0.047454912 -0.074072823 0.17307135
0.048640784 -0.074075855 0.17294195
0.049828209 -0.074078858 0.17281225
0.051017154 -0.074081831 0.17268255
0.052207656 -0.074084818 0.17255256
0.053399689 -0.074087851 0.17242235
0.054593276 -0.074090853 0.17229205
0.055788413 -0.074093841 0.17216161
0.056985084 -0.074096859 0.17203093
0.058183331 -0.074099921 0.17190012
0.059383128 -0.074102953 0.1717692
0.060584489 -0.074105963 0.17163801
0.061787408 -0.07410904 0.17150667
0.062991895 -0.07411205 0.17137522
0.064197958 -0.074115083 0.17124355
0.0654056 -0.07411813 0.17111167
0.066614822 -0.074121147 0.17097965
0.067825608 -0.074124224 0.17084751
0.069037989 -0.074127316 0.17071518
0.070251957 -0.074130327 0.17058259
0.071467504 -0.074133404 0.17044991
0.072684653 -0.074136481 0.17031705
0.073903389 -0.074139588 0.17018405
0.075123712 -0.07414265 0.17005083
0.076345675 -0.074145712 0.16991737
0.077569216 -0.074148834 0.1697838
0.078794375 -0.074151888 0.16965005
0.080021121 -0.07415501 0.16951615
0.081249498 -0.074158132 0.16938204
0.082479514 -0.074161224 0.16924778
0.083711118 -0.074164316 0.16911328
0.084944367 -0.074167445 0.16897866
0.086179242 -0.074170537 0.16884384
0.087415732 -0.074173674 0.16870889
0.08865387 -0.074176796 0.16857371
0.089893632 -0.074179918 0.16843837
0.091135062 -0.074183047 0.16830277
0.092378102 -0.074186198 0.16816717
0.093622833 -0.074189305 0.16803122
0.093671285 -0.075689182 0.17026514
0.093670994 -0.077230066 0.17256579
0.093670703 -0.07875102 0.1748367
0.093670435 -0.080252372 0.17707843
0.093670137 -0.08173456 0.17929143
0.094536021 -0.082153559 0.17981926
0.09568277 -0.082232453 0.17980751
0.096830212 -0.082311355 0.17979577
0.097978339 -0.082390353 0.17978406
0.099127159 -0.082469366 0.17977223
0.10027666 -0.082548425 0.17976046
0.10142685 -0.082627535 0.17974871
0.10257777 -0.082706697 0.17973691
0.10372935 -0.082785875 0.17972511
0.10488165 -0.082865112 0.17971328
0.10603463 -0.082944453 0.17970151
0.10718828 -0.083023801 0.17968962
0.10834266 -0.083103217 0.17967784
0.10949774 -0.083182603 0.17966595
0.1106535 -0.083262123 0.17965415
0.11180998 -0.083341643 0.17964229
0.11296715 -0.083421201 0.17963043
0.11412504 -0.083500795 0.17961839
0.11528361 -0.083580509 0.17960656
0.11644288 -0.083660178 0.17959464
0.11760287 -0.083739936 0.17958272
0.11876355 -0.083819732 0.17957079
0.11992494 -0.08389964 0.17955884
0.12108703 -0.083979487 0.17954692
0.1222498 -0.084059469 0.17953497
0.1234133 -0.084139496 0.17952299
0.1245775 -0.0842195 0.17951107
0.12574242 -0.084299631 0.17949909
0.12690802 -0.084379777 0.17948717
0.12807436 -0.084459923 0.17947513
0.12924135 -0.084540188 0.17946318
0.13040911 -0.084620476 0.17945114
0.13157752 -0.084700815 0.17943916
0.13274667 -0.084781215 0.17942712
0.13391654 -0.084861644 0.17941511
0.14611499 -0.074321792 0.16230071
0.14743194 -0.074325092 0.16215688
0.14875065 -0.074328437 0.16201296
-0.027101068 -0.072500102 0.17719716
-0.026018454 -0.072586648 0.17720357
-0.024935337 -0.072673231 0.17721009
-0.023851702 -0.072759852 0.17721659
-0.022767548 -0.072846495 0.17722303
-0.021682873 -0.072933197 0.17722952
-0.020597693 -0.073019952 0.17723602
-0.019511994 -0.073106714 0.17724249
-0.018425776 -0.073193543 0.17724898
-0.01733904 -0.073280394 0.17725548
-0.01625178 -0.073367298 0.17726195
-0.015164015 -0.073454238 0.17726851
-0.014075723 -0.073541254 0.17727494
-0.012986926 -0.073628277 0.1772815
-0.011897592 -0.073715366 0.17728797
-0.010807752 -0.073802434 0.17729452
-0.0097173844 -0.073889598 0.17730105
-0.0086265048 -0.073976807 0.17730758
-0.0075350958 -0.074064046 0.17731407
-0.0064431764 -0.074151315 0.17732063
-0.0053507313 -0.074238628 0.17732719
-0.0042577651 -0.074326031 0.17733371
-0.0031642809 -0.074413419 0.17734024
-0.0020702642 -0.074500859 0.1773468
-0.00097572972 -0.074588344 0.17735332
0.00012292144 -0.074665956 0.17734456
0.0012495243 -0.074669242 0.177221
0.0023775427 -0.074672513 0.17709726
0.0035069955 -0.074675843 0.17697343
0.0046378635 -0.074679159 0.17684942
0.0057701659 -0.074682444 0.17672527
0.0069038994 -0.074685775 0.1766009
0.008039074 -0.074689075 0.17647642
0.0091756787 -0.074692406 0.17635176
0.010313719 -0.074695766 0.17622691
0.011453222 -0.074699081 0.17610195
0.012594152 -0.074702412 0.17597687
0.013736542 -0.074705735 0.17585161
0.014880385 -0.074709065 0.17572615
0.01602567 -0.074712455 0.17560053
0.017172415 -0.074715786 0.17547479
0.018320633 -0.074719131 0.17534885
0.019470299 -0.074722491 0.17522272
0.020621432 -0.074725866 0.17509654
0.021774048 -0.074729241 0.17497012
0.022928117 -0.074732617 0.17484355
0.024083668 -0.074735992 0.17471683
0.025240693 -0.074739352 0.17458993
0.026399199 -0.074742772 0.17446288
0.027559184 -0.074746177 0.17433572
0.028720662 -0.074749537 0.17420822
0.029883623 -0.074752957 0.17408073
0.031048074 -0.074756376 0.17395306
0.032214031 -0.074759781 0.1738252
0.033381462 -0.074763201 0.17369711
0.034550402 -0.074766576 0.17356902
0.035720859 -0.074769996 0.17344064
0.036892794 -0.074773476 0.17331207
0.038066257 -0.07477688 0.17318338
0.039241228 -0.074780315 0.17305455
0.040417708 -0.074783765 0.1729255
0.04159572 -0.074787185 0.17279625
0.042775244 -0.074790642 0.17266691
0.043956276 -0.074794106 0.17253742
0.045138851 -0.074797556 0.17240772
0.046322957 -0.074801005 0.17227787
0.047508582 -0.07480447 0.17214781
0.048695747 -0.074807949 0.17201766
0.049884446 -0.074811429 0.17188728
0.051074699 -0.074814908 0.17175674
0.052266486 -0.074818373 0.17162606
0.053459838 -0.074821837 0.17149517
0.05465471 -0.074825376 0.17136413
0.055851139 -0.074828856 0.17123291
0.057049144 -0.074832335 0.17110151
0.058248691 -0.074835867 0.17096999
0.059449807 -0.074839376 0.17083821
0.06065248 -0.074842885 0.17070633
0.061856721 -0.074846424 0.17057431
0.063062549 -0.074849933 0.17044207
0.064269938 -0.074853472 0.17030963
0.065478921 -0.074856967 0.17017704
0.066689469 -0.074860506 0.17004427
0.067901611 -0.074864045 0.16991138
0.069115326 -0.074867621 0.16977823
0.070330612 -0.074871175 0.16964498
0.071547523 -0.074874729 0.16951153
0.072766013 -0.074878313 0.16937789
0.073986121 -0.074881837 0.16924405
0.075207815 -0.074885398 0.16911009
0.076431111 -0.074888989 0.16897595
0.077656023 -0.074892573 0.16884157
0.07888256 -0.074896142 0.1687071
0.080110691 -0.074899726 0.16857237
0.081340455 -0.074903324 0.16843751
0.082571827 -0.074906953 0.16830251
0.083804831 -0.074910529 0.16816723
0.085039467 -0.074914142 0.16803187
0.086275734 -0.074917741 0.16789621
0.087513618 -0.074921384 0.16776049
0.088753149 -0.074925028 0.16762459
0.089994334 -0.074928634 0.16748846
0.091237143 -0.074932262 0.16735214
0.092481606 -0.074935891 0.16721568
0.093671635 -0.075009838 0.16719097
0.093671352 -0.076566011 0.16952798
0.093671061 -0.078101873 0.1718345
0.093670763 -0.079617843 0.17411125
0.093670473 -0.081114352 0.17635861
0.093670204 -0.08259169 0.17857721
0.094258234 -0.083343856 0.1796397
0.095403545 -0.083422996 0.1796279
0.096549608 -0.083502166 0.17961615
0.097696304 -0.083581418 0.17960432
0.098843694 -0.083660699 0.17959252
0.099991798 -0.083740011 0.17958069
0.10114057 -0.083819374 0.17956886
0.10229006 -0.083898805 0.17955709
0.10344022 -0.08397828 0.17954516
0.10459108 -0.0840578 0.17953336
0.10574262 -0.08413738 0.17952153
0.10689488 -0.084216982 0.17950964
0.10804781 -0.084296636 0.17949769
0.10920145 -0.08437632 0.17948586
0.11035577 -0.084456079 0.179474
0.11151081 -0.084535882 0.17946211
0.11266653 -0.084615737 0.17945012
0.11382297 -0.0846956 0.17943817
0.1149801 -0.084775552 0.17942628
0.11613794 -0.084855519 0.17941433
0.11729646 -0.084935561 0.17940241
0.11845571 -0.085015625 0.17939037
0.11961563 -0.085095771 0.17937845
0.12077627 -0.085175902 0.17936644
0.12193761 -0.085256137 0.17935446
0.12309965 -0.08533641 0.17934242
0.12426238 -0.085416734 0.17933047
0.12542585 -0.085497089 0.17931843
0.12658997 -0.085577533 0.17930639
0.12775487 -0.085657962 0.17929435
0.12892039 -0.085738488 0.17928237
0.13008668 -0.085819051 0.17927033
0.13125363 -0.085899629 0.17925826
0.13242133 -0.085980296 0.17924619
0.1335897 -0.086061023 0.17923418
0.14628115 -0.07509312 0.16131547
0.14759965 -0.075096972 0.1611709
0.14891995 -0.075100817 0.16102609
-0.031454965 -0.072861202 0.17628154
-0.030373316 -0.072947823 0.17628774
-0.029291153 -0.073034488 0.17629403
-0.028208472 -0.07312122 0.17630026
-0.027125286 -0.073207967 0.17630652
-0.026041577 -0.073294744 0.1763128
-0.024957348 -0.073381588 0.17631906
-0.023872606 -0.073468447 0.17632532
-0.022787351 -0.073555343 0.17633164
-0.02170158 -0.073642328 0.17633793
-0.020615289 -0.073729321 0.17634416
-0.01952848 -0.073816366 0.17635044
-0.018441154 -0.073903434 0.17635676
-0.017353315 -0.073990539 0.17636305
-0.016264964 -0.074077733 0.17636937
-0.015176083 -0.07416492 0.17637569
-0.014086686 -0.074252173 0.17638195
-0.012996756 -0.074339449 0.17638823
-0.011906316 -0.074426793 0.17639455
-0.010815363 -0.074514173 0.17640081
-0.0097238841 -0.074601591 0.17640713
-0.0086318869 -0.074689053 0.17641348
-0.0075393561 -0.074776515 0.17641979
-0.0064463154 -0.074864075 0.17642611
-0.0053527532 -0.074951634 0.17643243
-0.0042586615 -0.075039275 0.17643878
-0.0031640525 -0.075126946 0.17644513
-0.0020689219 -0.075214632 0.17645147
-0.00097325502 -0.075302377 0.17645776
0.00012661058 -0.07538002 0.17644835
0.0012543794 -0.075383767 0.1763241
0.0023835564 -0.075387515 0.1761997
0.0035141676 -0.075391263 0.1760751
0.0046462133 -0.075395055 0.17595041
0.0057796929 -0.075398803 0.17582557
0.0069146068 -0.07540255 0.17570052
0.0080509549 -0.075406328 0.17557526
0.0091887368 -0.07541012 0.17544997
0.01032796 -0.075413927 0.1753245
0.011468653 -0.075417705 0.17519885
0.012610774 -0.075421512 0.175073
0.013754361 -0.07542529 0.17494696
0.014899393 -0.075429082 0.17482084
0.016045887 -0.075432926 0.17469457
0.017193832 -0.075436734 0.17456806
0.018343255 -0.075440541 0.17444143
0.019494135 -0.075444378 0.17431468
0.020646477 -0.07544823 0.17418775
0.021800308 -0.075452007 0.17406055
0.022955598 -0.075455859 0.1739333
0.024112372 -0.075459726 0.17380586
0.025270624 -0.075463593 0.17367825
0.026430352 -0.075467445 0.17355049
0.027591569 -0.075471282 0.17342255
0.028754285 -0.075475119 0.17329448
0.029918475 -0.075479016 0.17316622
0.031084171 -0.075482883 0.17303777
0.032251365 -0.075486749 0.1729092
0.033420049 -0.075490646 0.17278042
0.034590229 -0.075494573 0.17265156
0.035761945 -0.075498424 0.17252246
0.036935139 -0.075502351 0.17239323
0.038109854 -0.075506262 0.17226374
0.039286092 -0.075510167 0.17213416
0.04046385 -0.075514093 0.17200446
0.041643113 -0.07551799 0.17187452
0.042823914 -0.075521901 0.17174438
0.044006228 -0.075525858 0.17161417
0.045190074 -0.075529784 0.17148378
0.046375461 -0.075533725 0.1713531
0.047562368 -0.075537667 0.17122236
0.048750825 -0.075541593 0.17109147
0.049940821 -0.075545549 0.17096037
0.051132359 -0.075549535 0.17082909
0.052325457 -0.075553462 0.17069763
0.05352008 -0.075557448 0.17056599
0.054716282 -0.075561389 0.17043424
0.055914018 -0.07556539 0.17030227
0.057113312 -0.075569399 0.17017013
0.058314189 -0.075573385 0.17003784
0.059516624 -0.075577371 0.16990536
0.060720623 -0.075581387 0.16977274
0.061926197 -0.075585358 0.16963992
0.063133344 -0.075589389 0.16950688
0.064342074 -0.075593404 0.16937372
0.065552376 -0.075597391 0.16924036
0.066764265 -0.075601414 0.16910681
0.067977734 -0.075605474 0.16897321
0.069192782 -0.07560952 0.16883937
0.070409454 -0.075613551 0.16870525
0.071627706 -0.075617611 0.16857108
0.072847582 -0.075621612 0.16843668
0.074069031 -0.075625688 0.16830212
0.075292081 -0.075629771 0.16816741
0.076516762 -0.075633846 0.16803244
0.077743039 -0.075637892 0.16789734
0.078970946 -0.075641967 0.16776204
0.080200449 -0.075646073 0.16762659
0.081431605 -0.075650163 0.16749096
0.082664348 -0.075654276 0.16735515
0.083898723 -0.075658374 0.16721916
0.08513476 -0.075662449 0.16708302
0.086372413 -0.075666599 0.16694662
0.08761172 -0.075670689 0.16681007
0.088852651 -0.075674832 0.16667339
0.090095229 -0.075678937 0.16653654
0.091339454 -0.075683072 0.16639939
0.092585333 -0.075687237 0.16626218
0.093671694 -0.075892553 0.16644719
0.093671389 -0.077443659 0.16879016
0.093671113 -0.078974515 0.17110255
0.093670815 -0.080485553 0.17338508
0.093670547 -0.081977099 0.17563814
0.093670249 -0.083449617 0.17786241
0.09398108 -0.084531374 0.17946056
0.095125012 -0.084610783 0.17944872
0.096269622 -0.084690243 0.17943689
0.097414926 -0.084769703 0.17942506
0.098560899 -0.084849283 0.1794132
0.099707581 -0.084928848 0.17940134
0.10085493 -0.085008495 0.17938948
0.10200301 -0.085088149 0.17937759
0.10315173 -0.085167907 0.17936569
0.10430117 -0.085247681 0.17935383
0.1054513 -0.085327506 0.17934194
0.1066021 -0.085407406 0.17933002
0.10775364 -0.085487299 0.17931813
0.10890582 -0.08556731 0.17930615
0.11005872 -0.085647337 0.17929429
0.11121234 -0.085727371 0.17928231
0.11236662 -0.085807502 0.17927036
0.11352164 -0.085887589 0.17925829
0.11467732 -0.085967809 0.17924634
0.11583371 -0.086048074 0.17923433
0.1169908 -0.086128347 0.17922238
0.11814858 -0.086208716 0.17921036
0.11930708 -0.0862891 0.17919838
0.12046626 -0.086369514 0.17918637
0.12162615 -0.086450018 0.1791743
0.12278674 -0.086530559 0.17916229
0.12394799 -0.086611137 0.17915022
0.12511 -0.086691774 0.17913812
0.12627268 -0.086772472 0.17912611
0.1274361 -0.086853184 0.17911407
0.1286002 -0.086933978 0.179102
0.12976499 -0.087014794 0.17908987
0.13093051 -0.087095685 0.17907777
0.13209672 -0.087176621 0.1790657
0.13326365 -0.087257572 0.1790536
0.14644766 -0.075866148 0.16032809
0.14776777 -0.075870544 0.16018263
0.14908965 -0.075874932 0.16003704
-0.035809472 -0.073222324 0.17536572
-0.03472878 -0.073309071 0.1753718
-0.033647574 -0.073395826 0.17537785
-0.032565862 -0.073482603 0.1753839
-0.03148362 -0.073569484 0.17538992
-0.030400882 -0.073656343 0.17539597
-0.029317619 -0.073743276 0.17540208
-0.028233835 -0.073830217 0.1754081
-0.027149538 -0.073917262 0.17541412
-0.026064739 -0.074004322 0.17542025
-0.024979409 -0.074091405 0.17542627
-0.023893565 -0.074178517 0.17543232
-0.022807203 -0.074265696 0.1754384
-0.021720326 -0.07435292 0.17544448
-0.02063293 -0.074440174 0.17545059
-0.019545007 -0.074527428 0.17545658
-0.018456578 -0.074614771 0.17546269
-0.017367616 -0.074702188 0.1754688
-0.016278153 -0.074789591 0.17547479
-0.015188159 -0.074877068 0.17548096
-0.014097649 -0.074964583 0.17548707
-0.013006612 -0.075052112 0.17549315
-0.011915057 -0.075139694 0.17549923
-0.010822988 -0.07522735 0.17550531
-0.0097303949 -0.075314999 0.17551145
-0.0086372755 -0.075402729 0.17551756
-0.0075436351 -0.075490519 0.17552367
-0.0064494656 -0.075578257 0.17552981
-0.0053547784 -0.075666115 0.17553592
-0.0042595658 -0.075754009 0.17554203
-0.003163828 -0.075841904 0.17554814
-0.0020675687 -0.075929902 0.17555431
-0.00097078778 -0.076017879 0.17556044
0.00013030339 -0.076095544 0.17555031
0.0012592272 -0.076099783 0.17542538
0.0023895924 -0.076103978 0.17530027
0.003521366 -0.076108202 0.17517504
0.0046545807 -0.076112427 0.1750496
0.0057892343 -0.076116651 0.17492405
0.0069253254 -0.076120876 0.17479822
0.0080628498 -0.0761251 0.17467239
0.0092018209 -0.076129325 0.17454633
0.010342244 -0.076133564 0.17442015
0.01148411 -0.076137833 0.17429376
0.012627435 -0.076142073 0.17416719
0.013772217 -0.076146372 0.17404053
0.014918445 -0.076150626 0.17391366
0.016066143 -0.07615488 0.17378664
0.017215295 -0.076159157 0.17365947
0.018365914 -0.076163471 0.17353219
0.019518008 -0.076167755 0.1734046
0.020671574 -0.076172054 0.17327699
0.021826608 -0.076176338 0.17314917
0.022983128 -0.076180652 0.17302114
0.024141124 -0.076184981 0.17289299
0.025300592 -0.076189309 0.17276463
0.026461564 -0.076193623 0.17263615
0.027624022 -0.076197922 0.17250749
0.028787959 -0.076202281 0.17237875
0.029953402 -0.076206595 0.17224973
0.031120334 -0.076210938 0.17212054
0.032288764 -0.076215327 0.17199129
0.03345871 -0.076219685 0.17186183
0.03463015 -0.076224029 0.17173213
0.035803102 -0.076228425 0.17160234
0.036977571 -0.076232769 0.17147237
0.038153548 -0.076237172 0.17134222
0.039331041 -0.076241516 0.17121187
0.040510077 -0.076245919 0.17108142
0.04169061 -0.076250322 0.17095071
0.04287266 -0.07625477 0.17081991
0.044056278 -0.076259129 0.17068893
0.045241393 -0.076263547 0.17055777
0.046428058 -0.076267965 0.17042646
0.047616266 -0.076272398 0.17029497
0.048806015 -0.076276831 0.17016324
0.049997311 -0.076281264 0.1700314
0.051190145 -0.076285698 0.16989943
0.052384526 -0.076290116 0.16976723
