ply
format ascii 1.0
comment PCL generated
element vertex 1317
property float x
property float y
property float z
element face 0
element camera 0
property float view_px
property float view_py
property float view_pz
property float x_axisx
property float x_axisy
property float x_axisz
property float y_axisx
property float y_axisy
property float y_axisz
property float z_axisx
property float z_axisy
property float z_axisz
property float focal
property float scalex
property float scaley
property float centerx
property float centery
property int viewportx
property int viewporty
property float k1
property float k2
end_header
-0.048639044 -0.050925918 0.18803748
-0.048075303 -0.049767457 0.18853238
-0.047512919 -0.048611782 0.18902612
-0.04695195 -0.047458887 0.1895186
-0.046392262 -0.046308763 0.19000992
-0.045833945 -0.045161396 0.19050017
-0.045276955 -0.044016771 0.19098914
-0.04472132 -0.042874884 0.19147694
-0.044166967 -0.041735735 0.19196364
-0.043613985 -0.040599309 0.19244912
-0.043062299 -0.03946558 0.19293347
-0.04251194 -0.038334552 0.1934166
-0.041962862 -0.037206221 0.19389862
-0.041415095 -0.036080573 0.19437951
-0.0408687 -0.03495758 0.1948593
-0.040323511 -0.033837259 0.19533792
-0.039779648 -0.032719586 0.19581538
-0.039237022 -0.031604562 0.1962918
-0.038695723 -0.030492164 0.19676694
-0.038155675 -0.0293824 0.19724113
-0.037616909 -0.02827524 0.19771409
-0.037079379 -0.027170695 0.19818604
-0.036543131 -0.026068747 0.1986568
-0.036008179 -0.024969377 0.19912648
-0.035474434 -0.023872595 0.19959503
-0.034941971 -0.022778373 0.20006251
-0.034410745 -0.021686707 0.20052889
-0.033880726 -0.020597607 0.20099419
-0.033351988 -0.019511037 0.20145842
-0.033444241 -0.01831245 0.20133144
-0.033606276 -0.017098952 0.2011379
-0.033768669 -0.015883084 0.20094395
-0.0339313 -0.014664888 0.20074975
-0.034094289 -0.013444338 0.20055509
-0.034257576 -0.012221415 0.20036009
-0.03442122 -0.010996114 0.20016471
-0.034585148 -0.0097684488 0.1999689
-0.034749418 -0.0085383803 0.19977272
-0.034913987 -0.0073059388 0.19957614
-0.035078838 -0.0060711019 0.1993793
-0.035244063 -0.0048338436 0.199182
-0.035409614 -0.0035941787 0.1989843
-0.035575479 -0.0023520961 0.19878623
-0.035741657 -0.0011075847 0.19858775
-0.035908163 0.00013936311 0.19838887
-0.036075026 0.001388751 0.19818962
-0.036242142 0.0026405826 0.19799006
-0.036409661 0.003894873 0.19778997
-0.036577493 0.0051516294 0.19758958
-0.036745638 0.0064108483 0.1973888
-0.036914095 0.0076725483 0.1971876
-0.037082911 0.0089367367 0.19698596
-0.037252054 0.01020341 0.19678396
-0.037421539 0.011472583 0.19658157
-0.037591338 0.012744267 0.19637877
-0.03776148 0.014018465 0.19617561
-0.037931964 0.015295178 0.19597197
-0.038102821 0.016574439 0.19576794
-0.03827396 0.017856218 0.19556355
-0.038445473 0.019140542 0.19535872
-0.038617313 0.020427424 0.19515353
-0.038789526 0.02171687 0.19494784
-0.038962081 0.023008883 0.19474176
-0.039134964 0.024303466 0.19453534
-0.039308161 0.025600631 0.19432843
-0.039481774 0.026900392 0.19412118
-0.039655671 0.028202742 0.19391349
-0.03982994 0.0295077 0.19370538
-0.040004581 0.030815288 0.19349682
-0.040567353 0.032254849 0.19291669
-0.042155653 0.034045853 0.19135475
-0.043760777 0.035855845 0.18977624
-0.045383021 0.03768513 0.18818092
-0.047022641 0.039534006 0.1865685
-0.048679888 0.041402794 0.1849387
-0.050355092 0.04329183 0.18329129
-0.052048564 0.045201447 0.18162593
-0.053760573 0.047131956 0.17994231
-0.055491477 0.049083747 0.17824009
-0.05724147 0.051057115 0.17651913
-0.059010983 0.05305247 0.174779
-0.060800299 0.055070154 0.17301932
-0.062609687 0.057110526 0.17124
-0.064439565 0.059174005 0.16944042
-0.066290304 0.061260995 0.16762036
-0.068162233 0.063371867 0.1657795
-0.070055693 0.065507032 0.16391751
-0.071971104 0.067666948 0.16203377
-0.073908836 0.069852039 0.16012818
-0.1332556 -0.26401871 0.11318761
-0.13215123 -0.2622219 0.11417687
-0.13105172 -0.26043296 0.11516178
-0.12995693 -0.25865173 0.11614248
-0.12886687 -0.2568782 0.11711892
-0.12778158 -0.25511235 0.11809108
-0.12670088 -0.25335413 0.11905912
-0.12562491 -0.25160345 0.12002307
-0.1245535 -0.24986032 0.12098277
-0.12348653 -0.24812451 0.12193856
-0.12242423 -0.24639624 0.1228902
-0.1213664 -0.24467525 0.1238378
-0.12031309 -0.24296165 0.12478134
-0.11926423 -0.24125528 0.12572089
-0.11826402 -0.23957363 0.12661505
-0.11741731 -0.23795722 0.12736544
-0.11657336 -0.23634616 0.12811342
-0.11573218 -0.23474035 0.12885892
-0.11489372 -0.23313975 0.12960204
-0.11405806 -0.23154441 0.13034266
-0.11322506 -0.22995426 0.13108093
-0.11239478 -0.2283693 0.1318168
-0.11156717 -0.22678941 0.13255027
-0.1107423 -0.22521469 0.13328132
-0.10992002 -0.22364506 0.13401008
-0.10910042 -0.2220805 0.13473642
-0.10828355 -0.22052097 0.13546047
-0.10746923 -0.21896645 0.1361821
-0.10665752 -0.21741694 0.1369015
-0.10584839 -0.21587238 0.13761863
-0.10504188 -0.2143328 0.13833347
-0.10423796 -0.2127981 0.13904592
-0.10343663 -0.21126838 0.13975611
-0.10263778 -0.20974347 0.1404641
-0.10184151 -0.2082234 0.14116985
-0.10104778 -0.20670822 0.1418733
-0.10025658 -0.20519781 0.14257458
-0.099467844 -0.20369218 0.14327356
-0.098681644 -0.20219132 0.14397031
-0.097897887 -0.20069522 0.14466494
-0.097116649 -0.1992038 0.14535737
-0.096337825 -0.1977171 0.14604759
-0.095561475 -0.19623506 0.1467357
-0.094787523 -0.19475767 0.14742157
-0.094016075 -0.19328493 0.14810529
-0.093678206 -0.19194448 0.14838129
-0.093678191 -0.19070408 0.14833939
-0.093678147 -0.18946251 0.14829749
-0.093678117 -0.18821993 0.14825571
-0.093678072 -0.18697628 0.14821368
-0.093678087 -0.18573147 0.14817166
-0.093678027 -0.18448564 0.1481297
-0.093677998 -0.18323867 0.14808768
-0.093677968 -0.18199065 0.14804554
-0.093677923 -0.18074149 0.1480034
-0.093677878 -0.17949125 0.14796126
-0.093677893 -0.17823993 0.14791903
-0.093677849 -0.17698747 0.14787683
-0.093677849 -0.17573395 0.14783451
-0.093677789 -0.17447931 0.14779225
-0.093677744 -0.17322357 0.14774984
-0.093677729 -0.17196673 0.1477074
-0.0936777 -0.17070878 0.14766502
-0.0936777 -0.16944972 0.14762253
-0.09367767 -0.16818956 0.14758006
-0.093677595 -0.16692826 0.14753756
-0.09367761 -0.16566588 0.14749497
-0.093677565 -0.16440237 0.14745232
-0.093677565 -0.16313776 0.14740965
-0.093677536 -0.16187203 0.14736697
-0.093677476 -0.16060516 0.14732426
-0.093677491 -0.15933719 0.14728144
-0.093677446 -0.15806811 0.1472387
-0.093677446 -0.15679789 0.14719579
-0.093677387 -0.15552655 0.14715293
-0.093677357 -0.15425405 0.14711007
-0.093677342 -0.15298045 0.14706701
-0.093677282 -0.15170574 0.14702412
-0.093677297 -0.1504299 0.14698097
-0.093677238 -0.1491529 0.14693797
-0.093677253 -0.1478748 0.14689478
-0.093677193 -0.14659554 0.14685169
-0.093677163 -0.14531514 0.14680853
-0.093677148 -0.14403361 0.14676529
-0.093677118 -0.14275095 0.14672202
-0.093677118 -0.14146712 0.14667869
-0.093677074 -0.14018218 0.14663538
-0.093677029 -0.13889609 0.14659199
-0.093677029 -0.13760887 0.14654857
-0.093676969 -0.13632049 0.14650515
-0.093676999 -0.13503093 0.14646161
-0.093676925 -0.13374026 0.14641809
-0.09367688 -0.13244841 0.14637455
-0.093677044 -0.13115543 0.14633077
-0.093677118 -0.12986133 0.14628693
-0.093677238 -0.12856606 0.14624316
-0.093677327 -0.1272696 0.14619935
-0.093677416 -0.12597197 0.14615548
-0.093677565 -0.12467322 0.14611143
-0.09367764 -0.12337332 0.14606747
-0.0936777 -0.12207221 0.14602351
-0.093677759 -0.12076996 0.14597955
-0.093677729 -0.11946652 0.14593554
-0.093677759 -0.1181619 0.14589158
-0.093677804 -0.11685614 0.14584738
-0.093677804 -0.11554918 0.14580333
-0.093677804 -0.11424106 0.14575917
-0.093677789 -0.11293177 0.14571494
-0.093677819 -0.11162131 0.14567074
-0.093677834 -0.11030964 0.14562643
-0.093677834 -0.10899682 0.14558214
-0.093677878 -0.1076828 0.14553779
-0.093677863 -0.10636762 0.14549336
-0.093677863 -0.10505124 0.14544892
-0.093677863 -0.10373367 0.14540449
-0.093677893 -0.10241492 0.14535993
-0.093677908 -0.10109498 0.14531532
-0.093677923 -0.099773847 0.14527079
-0.093677968 -0.098451532 0.14522609
-0.093677983 -0.097128011 0.14518145
-0.093677968 -0.095803283 0.14513671
-0.093677983 -0.094477363 0.14509198
-0.093678012 -0.093150251 0.14504713
-0.092537716 -0.091781467 0.14608502
-0.090412244 -0.090387814 0.14805868
-0.088308305 -0.089008301 0.15001234
-0.086225659 -0.087642722 0.15194625
-0.084163859 -0.086290859 0.15386072
-0.082122698 -0.084952489 0.15575609
-0.080101833 -0.083627447 0.15763265
-0.07810095 -0.082315505 0.15949062
-0.076119855 -0.081016488 0.16133016
-0.074158341 -0.07973019 0.16315153
-0.072215945 -0.078456439 0.16495523
-0.070292398 -0.077195048 0.16674137
-0.068387464 -0.075945824 0.16851017
-0.066500813 -0.074708626 0.17026207
-0.064632162 -0.073483236 0.17199728
-0.062781349 -0.072269529 0.17371589
-0.060948089 -0.071067289 0.1754182
-0.059132025 -0.069876403 0.17710444
-0.057333037 -0.068696693 0.17877495
-0.055550858 -0.06752798 0.18042991
-0.054301471 -0.066352442 0.18157798
-0.053723067 -0.065159187 0.1820876
-0.053146094 -0.063968845 0.18259597
-0.052570522 -0.062781416 0.18310308
-0.05199632 -0.061596856 0.18360895
-0.051423535 -0.060415186 0.18411365
-0.05085218 -0.059236385 0.18461704
-0.050282165 -0.058060437 0.18511927
-0.049713507 -0.056887351 0.18562034
-0.049146309 -0.055717088 0.18612006
-0.048580408 -0.054549664 0.1866186
-0.048015907 -0.053385049 0.18711603
-0.047452718 -0.05222325 0.18761227
-0.046890944 -0.051064253 0.18810716
-0.046330497 -0.049908035 0.18860099
-0.045771405 -0.048754595 0.18909356
-0.04521364 -0.04760392 0.18958503
-0.04465723 -0.046456013 0.19007528
-0.044102117 -0.045310833 0.19056433
-0.043548375 -0.044168398 0.19105223
-0.042995945 -0.043028701 0.19153896
-0.04244481 -0.041891709 0.19202459
-0.041895002 -0.040757429 0.19250894
-0.04134649 -0.039625857 0.19299227
-0.04079932 -0.03849696 0.19347435
-0.040253401 -0.037370756 0.19395533
-0.039708793 -0.036247212 0.19443521
-0.039165467 -0.035126328 0.19491389
-0.038623452 -0.034008097 0.19539142
-0.038082689 -0.032892514 0.1958679
-0.037543207 -0.031779557 0.19634324
-0.037005007 -0.030669227 0.19681746
-0.036468044 -0.029561508 0.19729051
-0.035932362 -0.028456394 0.19776249
-0.035397932 -0.027353868 0.1982334
-0.034864739 -0.02625395 0.19870317
-0.034332827 -0.025156591 0.19917181
-0.033802137 -0.024061806 0.19963935
-0.033272639 -0.022969585 0.20010591
-0.032744467 -0.021879904 0.2005713
-0.032217473 -0.02079276 0.20103556
-0.03169173 -0.019708164 0.20149881
-0.031666204 -0.018533688 0.20148343
-0.031826138 -0.017323282 0.20129052
-0.031986386 -0.016110539 0.20109731
-0.03214696 -0.014895465 0.20090362
-0.032307819 -0.013678048 0.20070952
-0.032469019 -0.012458257 0.20051512
-0.032630518 -0.01123612 0.20032036
-0.03279233 -0.010011621 0.20012519
-0.032954454 -0.0087847449 0.19992968
-0.033116877 -0.0075554922 0.19973373
-0.033279628 -0.0063238516 0.19953749
-0.033442706 -0.0050898232 0.19934076
-0.033606067 -0.0038533919 0.19914371
-0.033769771 -0.0026145466 0.19894633
-0.033933818 -0.0013732798 0.19874847
-0.034098163 -0.0001296103 0.19855022
-0.034262836 0.0011164993 0.19835165
-0.034427792 0.0023650341 0.19815263
-0.03459312 0.0036160313 0.19795328
-0.034758747 0.0048694648 0.19775343
-0.034924701 0.0061253607 0.19755331
-0.035090998 0.0073837265 0.19735277
-0.035257623 0.0086445548 0.19715181
-0.03542456 0.0099078603 0.19695044
-0.035591796 0.011173651 0.19674876
-0.035759389 0.012441937 0.19654658
-0.035927296 0.013712734 0.19634414
-0.036095589 0.014986034 0.19614109
-0.036264181 0.016261853 0.19593775
-0.036433116 0.017540198 0.19573399
-0.036602363 0.018821068 0.19552994
-0.036771953 0.020104468 0.1953254
-0.036941886 0.021390438 0.19512045
-0.037112162 0.022678945 0.19491503
-0.03728281 0.02397003 0.19470918
-0.037453771 0.025263675 0.19450307
-0.037625045 0.026559889 0.19429645
-0.037796736 0.027858712 0.19408941
-0.037968695 0.029160105 0.19388196
-0.038141012 0.030464094 0.19367418
-0.038313672 0.031770691 0.19346589
-0.039839447 0.033537421 0.19195572
-0.041426197 0.035337817 0.19038641
-0.0430298 0.037157331 0.18880048
-0.04465051 0.038996261 0.18719763
-0.046288669 0.040854938 0.18557751
-0.047944486 0.042733658 0.18393993
-0.049618229 0.044632751 0.18228459
-0.051310241 0.046552557 0.18061119
-0.05302079 0.048493415 0.17891946
-0.054750234 0.050455686 0.17720902
-0.05649884 0.052439719 0.17547971
-0.058266923 0.054445852 0.17373103
-0.060054824 0.05647447 0.17196283
-0.061862856 0.058525968 0.17017472
-0.063691393 0.060600713 0.16836634
-0.065540776 0.062699124 0.16653728
-0.067411378 0.064821601 0.16468725
-0.069303542 0.06696856 0.16281593
-0.071217686 0.069140427 0.16092286
-0.13331126 -0.26731181 0.11137417
-0.13220437 -0.26550394 0.11236951
-0.13110235 -0.26370394 0.11336049
-0.13000517 -0.26191181 0.11434722
-0.12891263 -0.26012743 0.11532968
-0.1278249 -0.25835079 0.11630782
-0.12674184 -0.25658178 0.11728179
-0.12566346 -0.25482047 0.11825153
-0.12458973 -0.25306666 0.11921713
-0.12352055 -0.25132042 0.12017858
-0.12245587 -0.24958158 0.12113604
-0.12139577 -0.24785021 0.12208936
-0.12034015 -0.24612617 0.12303865
-0.11928907 -0.24440953 0.1239838
-0.11824246 -0.24270016 0.12492502
-0.11720023 -0.240998 0.12586227
-0.11623523 -0.2393319 0.12672698
-0.11539353 -0.23771927 0.12747571
-0.11455464 -0.23611189 0.12822196
-0.11371852 -0.23450977 0.12896571
-0.11288509 -0.23291287 0.1297071
-0.11205436 -0.23132119 0.13044605
-0.11122632 -0.22973463 0.13118267
-0.110401 -0.22815323 0.13191685
-0.10957836 -0.22657698 0.13264859
-0.10875832 -0.22500581 0.13337806
-0.10794096 -0.22343972 0.13410515
-0.10712627 -0.22187866 0.13482991
-0.10631417 -0.22032262 0.13555229
-0.10550466 -0.21877159 0.13627237
-0.1046977 -0.21722551 0.13699019
-0.10389341 -0.21568441 0.13770562
-0.10309164 -0.21414822 0.13841891
-0.10229243 -0.21261695 0.13912982
-0.1014958 -0.21109053 0.13983849
-0.10070166 -0.20956901 0.14054486
-0.099910036 -0.20805226 0.14124903
-0.099120989 -0.20654036 0.14195099
-0.098334387 -0.20503324 0.14265075
-0.097550288 -0.20353089 0.14334819
-0.096768647 -0.20203325 0.14404351
-0.095989496 -0.20054036 0.14473659
-0.095212772 -0.19905218 0.14542753
-0.094438553 -0.19756866 0.14611626
-0.093678474 -0.19609341 0.14679176
-0.09367846 -0.19485278 0.14674908
-0.093678415 -0.19361107 0.14670652
-0.09367837 -0.19236828 0.14666384
-0.093678355 -0.19112436 0.14662108
-0.093678325 -0.18987939 0.14657831
-0.093678281 -0.18863329 0.14653558
-0.093678221 -0.18738613 0.14649281
-0.093678221 -0.18613788 0.14644986
-0.093678176 -0.18488851 0.14640701
-0.093678132 -0.18363807 0.14636409
-0.093678132 -0.18238647 0.14632109
-0.093678102 -0.18113382 0.14627808
-0.093678057 -0.17988005 0.14623505
-0.093678027 -0.1786252 0.14619192
-0.093678012 -0.17736921 0.1461488
-0.093678027 -0.17611213 0.14610565
-0.093677938 -0.17485395 0.14606243
-0.093677923 -0.17359465 0.14601916
-0.093677893 -0.17233424 0.14597592
-0.093677863 -0.17107271 0.14593261
-0.093677878 -0.16981009 0.14588916
-0.093677834 -0.16854632 0.14584577
-0.093677789 -0.16728148 0.14580238
-0.093677789 -0.16601548 0.14575887
-0.093677729 -0.16474837 0.14571542
-0.093677729 -0.16348013 0.14567181
-0.09367767 -0.16221076 0.14562827
-0.093677625 -0.16094027 0.14558464
-0.093677625 -0.15966867 0.14554101
-0.093677595 -0.15839595 0.14549726
-0.093677595 -0.15712209 0.14545354
-0.093677551 -0.1558471 0.1454097
-0.093677491 -0.15457094 0.14536595
-0.093677506 -0.1532937 0.145322
-0.093677461 -0.1520153 0.14527816
-0.093677461 -0.1507358 0.1452342
-0.093677416 -0.1494551 0.14519024
-0.093677402 -0.1481733 0.14514619
-0.093677357 -0.14689034 0.14510214
-0.093677342 -0.14560625 0.1450581
-0.093677327 -0.14432104 0.1450139
-0.093677282 -0.14303465 0.14496976
-0.093677282 -0.14174712 0.14492548
-0.093677193 -0.14045842 0.14488131
-0.093677178 -0.13916858 0.14483702
-0.093677148 -0.1378776 0.14479265
-0.093677133 -0.13658547 0.1447483
-0.093677118 -0.13529217 0.14470387
-0.093677089 -0.13399774 0.14465943
-0.093677104 -0.13270211 0.14461488
-0.093677238 -0.13140541 0.1445702
-0.093677327 -0.13010748 0.14452553
-0.093677476 -0.12880839 0.14448074
-0.09367758 -0.12750816 0.144436
-0.093677685 -0.12620679 0.14439115
-0.093677804 -0.1249042 0.1443463
-0.093677908 -0.12360044 0.14430138
-0.093677953 -0.12229552 0.1442565
-0.093677953 -0.12098941 0.14421162
-0.093677968 -0.11968214 0.14416668
-0.093677998 -0.11837369 0.14412171
-0.093678012 -0.11706405 0.1440767
-0.093678012 -0.11575326 0.14403161
-0.093677998 -0.11444127 0.14398658
-0.093678057 -0.1131281 0.14394143
-0.093678042 -0.11181375 0.14389625
-0.093678057 -0.11049821 0.14385104
-0.093678087 -0.10918148 0.1438058
-0.093678072 -0.10786355 0.14376053
-0.093678087 -0.10654445 0.14371517
-0.093678102 -0.10522415 0.14366981
-0.093678147 -0.10390267 0.14362434
-0.093678117 -0.10257997 0.14357889
-0.093678147 -0.1012561 0.14353344
-0.093678191 -0.099931024 0.14348787
-0.093678162 -0.098604731 0.1434423
-0.093678132 -0.097277269 0.14339668
-0.093678162 -0.095948569 0.14335108
-0.093678206 -0.094618686 0.14330533
-0.0926577 -0.093247473 0.1442332
-0.090525448 -0.091842286 0.14622197
-0.088414893 -0.090451404 0.14819059
-0.086325675 -0.089074597 0.1501393
-0.084257558 -0.087711662 0.15206832
-0.082210138 -0.086362399 0.15397805
-0.080183119 -0.085026577 0.15586871
-0.07817623 -0.083704017 0.15774065
-0.07618916 -0.082394518 0.15959406
-0.074221611 -0.081097856 0.16142926
-0.072273523 -0.079813913 0.16324636
-0.070344403 -0.078542434 0.16504574
-0.068433955 -0.077283271 0.16682771
-0.06654191 -0.076036237 0.16859248
-0.064668059 -0.074801177 0.17034036
-0.062812045 -0.073577896 0.17207149
-0.060973659 -0.072366223 0.17378619
-0.059152678 -0.071165994 0.17548475
-0.057348773 -0.06997709 0.17716727
-0.055561826 -0.068799302 0.17883402
-0.053791523 -0.067632489 0.18048531
-0.052517384 -0.066460095 0.18166226
-0.051942393 -0.065269232 0.18217069
-0.051368803 -0.064081259 0.18267789
-0.050796598 -0.062896185 0.18318394
-0.05022575 -0.061713979 0.18368864
-0.049656332 -0.060534641 0.18419212
-0.049088314 -0.059358172 0.18469438
-0.048521593 -0.058184542 0.18519551
-0.047956303 -0.05701375 0.18569535
-0.047392324 -0.055845797 0.18619394
-0.04682976 -0.054680653 0.18669146
-0.046268538 -0.05351831 0.18718767
-0.045708656 -0.052358761 0.18768281
-0.045150116 -0.051201999 0.18817663
-0.044592947 -0.050048023 0.18866932
-0.044037104 -0.048896804 0.18916076
-0.043482542 -0.047748346 0.18965116
-0.042929366 -0.046602633 0.19014034
-0.042377472 -0.045459654 0.19062826
-0.041826919 -0.044319399 0.19111511
-0.041277647 -0.043181866 0.19160083
-0.040729761 -0.042047039 0.19208527
-0.040183082 -0.040914908 0.1925686
-0.039637715 -0.039785478 0.19305086
-0.039093658 -0.038658708 0.19353193
-0.038550928 -0.037534613 0.19401181
-0.03800945 -0.036413174 0.19449055
-0.037469238 -0.035294387 0.19496822
-0.036930338 -0.034178242 0.19544476
-0.036392659 -0.03306473 0.1959202
-0.035856277 -0.031953841 0.19639444
-0.035321146 -0.03084556 0.19686767
-0.034787312 -0.029739879 0.19733965
-0.03425464 -0.028636806 0.19781068
-0.033723265 -0.027536314 0.19828051
-0.033193141 -0.026438393 0.1987493
-0.03266421 -0.025343049 0.19921699
-0.032136545 -0.024250254 0.19968355
-0.031610101 -0.023160014 0.20014906
-0.031084865 -0.022072315 0.20061347
-0.030560911 -0.020987138 0.20107681
-0.030038133 -0.019904498 0.20153901
-0.029896587 -0.018753868 0.20163471
-0.030054405 -0.017546553 0.20144248
-0.030212581 -0.01633691 0.20124975
-0.030371085 -0.015124936 0.20105675
-0.030529872 -0.013910625 0.2008633
-0.030688956 -0.012693979 0.20066953
-0.030848354 -0.011474986 0.20047531
-0.031008065 -0.010253642 0.20028079
-0.031168044 -0.0090299398 0.20008591
-0.03132838 -0.0078038648 0.19989058
-0.031489 -0.0065754056 0.1996949
-0.031649932 -0.0053445771 0.19949889
-0.031811222 -0.0041113459 0.19930238
-0.031972751 -0.0028757378 0.19910565
-0.032134667 -0.0016377158 0.19890836
-0.032296821 -0.00039729476 0.19871089
-0.032459348 0.00084555149 0.19851288
-0.032622188 0.0020908266 0.19831449
-0.032785356 0.0033385269 0.19811577
-0.032948792 0.0045886636 0.19791666
-0.033112615 0.0058412552 0.1977171
-0.033276722 0.0070962831 0.19751719
-0.033441156 0.008353781 0.19731686
-0.033605888 0.0096137337 0.19711617
-0.033770964 0.010876179 0.19691515
-0.033936366 0.012141094 0.19671363
-0.034102097 0.013408497 0.19651175
-0.034268141 0.0146784 0.19630948
-0.034434512 0.015950799 0.19610679
-0.034601226 0.01722572 0.19590375
-0.034768224 0.018503141 0.19570026
-0.034935594 0.019783102 0.19549638
-0.035103336 0.021065608 0.19529206
-0.035271391 0.022350639 0.19508734
-0.035439774 0.023638226 0.1948823
-0.0356085 0.024928376 0.19467676
-0.035777494 0.02622107 0.19447082
-0.035946906 0.027516343 0.1942645
-0.0361166 0.0288142 0.19405776
-0.036286697 0.030114647 0.19385055
-0.036457077 0.031417686 0.193643
-0.037540734 0.033032827 0.19255218
-0.039109394 0.034823731 0.19099203
-0.040694624 0.036633585 0.18941531
-0.042296708 0.038462657 0.18782187
-0.043915913 0.040311296 0.18621135
-0.045552522 0.042179797 0.18458354
-0.047206864 0.044068497 0.18293813
-0.048879132 0.045977708 0.18127483
-0.050569654 0.047907773 0.17959347
-0.052278727 0.049859032 0.17789355
-0.054006726 0.051831838 0.17617482
-0.055753887 0.053826559 0.17443705
-0.057520568 0.055843551 0.1726799
-0.059307069 0.057883184 0.17090306
-0.06111373 0.059945848 0.16910613
-0.062940896 0.06203194 0.16728872
-0.064788923 0.06414184 0.16545066
-0.066658124 0.066275969 0.16359156
-0.068549007 0.068434775 0.16171086
-0.13336711 -0.27061909 0.10955283
-0.13225776 -0.26880011 0.1105544
-0.13115323 -0.26698908 0.11155149
-0.13005349 -0.26518589 0.11254433
-0.12895861 -0.26339057 0.11353272
-0.12786838 -0.26160306 0.11451691
-0.12678294 -0.25982326 0.11549681
-0.12570219 -0.25805116 0.11647245
-0.12462607 -0.25628671 0.11744392
-0.12355462 -0.25452983 0.11841127
-0.12248768 -0.25278044 0.11937436
-0.12142523 -0.25103855 0.12033352
-0.12036736 -0.2493041 0.12128851
-0.11931397 -0.24757704 0.12223953
-0.11826511 -0.24585736 0.12318638
-0.11722068 -0.24414495 0.12412927
-0.11618066 -0.24243981 0.12506813
-0.115145 -0.24074185 0.12600309
-0.11421476 -0.2390912 0.12683851
-0.11337817 -0.23748226 0.1275855
-0.11254428 -0.23587862 0.12832999
-0.11171311 -0.23428017 0.12907207
-0.11088467 -0.23268694 0.12981176
-0.11005889 -0.23109886 0.13054901
-0.10923579 -0.22951591 0.13128397
-0.10841538 -0.22793815 0.13201642
-0.10759759 -0.22636542 0.13274658
-0.10678245 -0.22479782 0.13347435
-0.10596994 -0.22323522 0.13419983
-0.10516006 -0.22167766 0.13492289
-0.10435274 -0.22012508 0.13564378
-0.10354799 -0.2185775 0.13636225
-0.10274586 -0.21703486 0.13707849
-0.10194628 -0.21549717 0.13779238
-0.10114923 -0.2139644 0.13850403
-0.10035475 -0.21243647 0.13921332
-0.099562764 -0.21091343 0.13992044
-0.098773316 -0.2093952 0.14062539
-0.097986341 -0.20788178 0.14132801
-0.097201884 -0.20637318 0.14202836
-0.096419886 -0.20486933 0.14272657
-0.095640376 -0.20337023 0.14342257
-0.09486331 -0.20187584 0.14411637
-0.094088703 -0.2003862 0.14480796
-0.093678698 -0.19901508 0.14515367
-0.093678668 -0.19777316 0.14511025
-0.093678623 -0.19653013 0.14506686
-0.093678609 -0.19528604 0.14502332
-0.093678579 -0.19404083 0.14497983
-0.093678519 -0.19279458 0.14493626
-0.093678534 -0.1915472 0.14489263
-0.093678445 -0.19029871 0.144849
-0.09367843 -0.18904912 0.14480531
-0.093678385 -0.18779844 0.14476165
-0.09367837 -0.18654665 0.14471787
-0.093678325 -0.18529376 0.14467409
-0.093678311 -0.18403977 0.14463025
-0.093678325 -0.18278469 0.14458638
-0.093678266 -0.18152851 0.14454249
-0.093678251 -0.18027118 0.14449856
-0.093678221 -0.17901275 0.1444546
-0.093678176 -0.17775321 0.14441049
-0.093678176 -0.17649257 0.14436647
-0.093678132 -0.1752308 0.1443224
-0.093678072 -0.17396793 0.14427823
-0.093678087 -0.17270394 0.14423406
-0.093678012 -0.17143881 0.14418986
-0.093678042 -0.17017259 0.14414555
-0.093677968 -0.16890523 0.14410126
-0.093677923 -0.16763672 0.14405689
-0.093677923 -0.16636714 0.14401257
-0.093677893 -0.16509639 0.14396814
-0.093677908 -0.16382453 0.1439237
-0.093677849 -0.16255152 0.14387918
-0.093677804 -0.16127741 0.14383462
-0.093677804 -0.16000214 0.14379001
-0.093677744 -0.15872577 0.14374545
-0.093677774 -0.15744825 0.14370078
-0.093677714 -0.15616956 0.14365613
-0.093677729 -0.15488979 0.14361128
-0.09367767 -0.15360883 0.14356655
-0.09367761 -0.15232676 0.14352182
-0.09367761 -0.1510435 0.1434769
-0.093677565 -0.14975913 0.14343205
-0.093677565 -0.14847364 0.14338711
-0.093677506 -0.14718695 0.14334211
-0.093677461 -0.14589913 0.14329717
-0.093677476 -0.14461014 0.14325207
-0.093677431 -0.14332005 0.14320695
-0.093677416 -0.14202876 0.14316183
-0.093677372 -0.14073631 0.14311668
-0.093677327 -0.13944274 0.14307144
-0.093677342 -0.13814798 0.14302617
-0.093677297 -0.13685209 0.1429809
-0.093677297 -0.13555501 0.14293554
-0.093677253 -0.13425678 0.14289016
-0.093677327 -0.13295738 0.14284471
-0.093677446 -0.13165686 0.14279905
-0.093677551 -0.13035512 0.14275339
-0.093677685 -0.12905225 0.14270774
-0.093677759 -0.12774818 0.14266205
-0.093677893 -0.12644294 0.14261624
-0.093677983 -0.12513654 0.14257044
-0.093678117 -0.12382894 0.1425246
-0.093678147 -0.12252018 0.14247879
-0.093678162 -0.12121021 0.14243296
-0.093678206 -0.11989907 0.14238712
-0.093678206 -0.11858676 0.1423412
-0.093678206 -0.11727325 0.14229527
-0.093678206 -0.11595856 0.14224923
-0.093678251 -0.11464268 0.14220321
-0.093678251 -0.11332561 0.14215714
-0.093678251 -0.11200736 0.14211103
-0.093678311 -0.1106879 0.14206487
-0.093678311 -0.10936726 0.14201862
-0.093678296 -0.1080454 0.14197242
-0.093678281 -0.10672236 0.14192611
-0.093678281 -0.10539814 0.14187986
-0.093678311 -0.10407268 0.14183345
-0.093678325 -0.10274605 0.14178708
-0.093678311 -0.1014182 0.14174062
-0.093678325 -0.10008916 0.1416941
-0.09367837 -0.098758891 0.14164752
-0.093678385 -0.097427435 0.14160103
-0.093678385 -0.09609475 0.14155436
-0.09277831 -0.094722025 0.14237052
-0.090639338 -0.093305215 0.14437461
-0.088522092 -0.091902852 0.14635831
-0.086426318 -0.090514712 0.14832196
-0.084351778 -0.089140616 0.15026569
-0.082298085 -0.087780327 0.15218991
-0.080264881 -0.086433634 0.15409482
-0.078251943 -0.08510033 0.15598083
-0.076258928 -0.083780251 0.15784818
-0.074285537 -0.082473159 0.15969718
-0.072331503 -0.081178889 0.16152802
-0.070396632 -0.079897255 0.16334081
-0.068480685 -0.078628071 0.16513592
-0.066583291 -0.077371128 0.16691372
-0.064704105 -0.076126285 0.16867441
-0.062842861 -0.07489334 0.17041817
-0.060999393 -0.073672146 0.17214546
-0.059173435 -0.072462529 0.17385623
-0.057364643 -0.071264319 0.17555097
-0.055572852 -0.070077352 0.17722979
-0.053797796 -0.068901479 0.17889294
-0.052039295 -0.067736551 0.1805405
-0.050740838 -0.066567287 0.18174621
-0.050169215 -0.065378793 0.18225351
-0.049598932 -0.064193204 0.18275952
-0.049030095 -0.063010469 0.18326437
-0.048462614 -0.061830617 0.18376788
-0.047896504 -0.060653619 0.18427029
-0.047331765 -0.059479453 0.18477139
-0.046768427 -0.058308132 0.18527135
-0.0462064 -0.057139643 0.18577003
-0.045645714 -0.055973954 0.18626761
-0.045086429 -0.054811083 0.18676388
-0.044528455 -0.053651005 0.18725905
-0.043971851 -0.052493706 0.18775296
-0.04341653 -0.051339183 0.1882458
-0.042862594 -0.050187428 0.18873733
-0.04230997 -0.049038436 0.18922776
-0.041758627 -0.047892168 0.18971696
-0.04120858 -0.046748657 0.19020507
-0.040659964 -0.045607861 0.19069195
-0.04011257 -0.044469777 0.1911777
-0.039566472 -0.043334402 0.19166228
-0.039021671 -0.042201739 0.19214571
-0.038478181 -0.041071743 0.19262797
-0.037935972 -0.039944429 0.19310915
-0.03739506 -0.038819779 0.19358912
-0.036855429 -0.037697792 0.19406804
-0.036317036 -0.036578465 0.19454581
-0.035779923 -0.035461769 0.19502243
-0.035244077 -0.034347698 0.19549793
-0.034709543 -0.03323625 0.19597226
-0.03417623 -0.032127414 0.19644549
-0.033644155 -0.031021181 0.19691768
-0.033113286 -0.029917546 0.19738874
-0.032583758 -0.028816484 0.19785866
-0.032055393 -0.027718015 0.19832757
-0.031528279 -0.026622094 0.19879526
-0.031002373 -0.025528748 0.19926199
-0.030477703 -0.024437949 0.19972757
-0.029954255 -0.023349684 0.20019203
-0.029432014 -0.022263955 0.20065552
-0.028911009 -0.021180727 0.20111781
-0.028391212 -0.020100031 0.20157909
-0.028135315 -0.018973019 0.20178536
-0.028291106 -0.017768763 0.20159361
-0.028447226 -0.016562197 0.20140156
-0.028603628 -0.015353315 0.20120913
-0.028760344 -0.014142111 0.20101625
-0.028917342 -0.012928583 0.2008231
-0.029074684 -0.011712711 0.20062956
-0.029232264 -0.010494512 0.20043567
-0.029390171 -0.0092739537 0.20024136
-0.029548407 -0.0080510378 0.20004663
-0.029706955 -0.0068257563 0.19985157
-0.029865772 -0.0055981092 0.19965613
-0.030024931 -0.004368078 0.19946039
-0.030184373 -0.00313567 0.19926417
-0.030344158 -0.0019008704 0.19906756
-0.030504182 -0.00066369027 0.19887066
-0.030664548 0.00057591498 0.19867331
-0.030825257 0.0018179305 0.1984756
-0.030986279 0.0030623637 0.19827747
-0.031147614 0.0043092221 0.19807896
-0.031309247 0.0055585131 0.19788006
-0.031471193 0.0068102367 0.1976808
-0.031633437 0.0080644079 0.19748122
-0.031796023 0.0093210377 0.19728112
-0.031958923 0.010580141 0.19708064
-0.032122165 0.011841696 0.19687986
-0.03228572 0.013105735 0.19667858
-0.032449573 0.014372259 0.196477
-0.032613784 0.015641276 0.19627497
-0.032778248 0.016912773 0.19607255
-0.03294307 0.018186774 0.19586974
-0.03310822 0.019463304 0.19566652
-0.033273727 0.020742353 0.19546291
-0.033439562 0.022023935 0.19525892
-0.033605725 0.023308054 0.19505444
-0.0337722 0.024594706 0.19484961
-0.033938989 0.025883906 0.19464433
-0.034106165 0.02717568 0.1944387
-0.034273624 0.028470002 0.19423261
-0.034441441 0.029766902 0.19402614
-0.034609601 0.031066395 0.19381922
-0.035259321 0.032532044 0.19314414
-0.036810085 0.034313533 0.19159305
-0.03837721 0.03611381 0.19002542
-0.039960891 0.037933137 0.18844131
-0.041561425 0.039771851 0.18684024
-0.04317911 0.041630238 0.18522212
-0.044814214 0.043508627 0.18358657
-0.046466991 0.045407347 0.18193331
-0.048137799 0.047326732 0.18026206
-0.049826816 0.049267098 0.17857251
-0.051534459 0.051228825 0.17686442
-0.053260967 0.053212229 0.1751374
-0.055006668 0.055217691 0.17339116
-0.056771904 0.057245601 0.17162547
-0.058556974 0.059296291 0.16983992
-0.060362205 0.061370179 0.16803417
-0.062187985 0.063467659 0.16620785
-0.064034641 0.065589122 0.16436067
-0.065902531 0.067734994 0.16249225
-0.067792043 0.069905713 0.16060218
-0.13342319 -0.27394074 0.1077238
-0.13231131 -0.27211055 0.10873145
-0.13120431 -0.27028838 0.10973465
-0.13010211 -0.26847413 0.11073357
-0.12900473 -0.26666778 0.11172804
-0.1279121 -0.26486927 0.11271828
-0.12682423 -0.2630786 0.11370414
-0.12574103 -0.26129562 0.11468583
-0.12466259 -0.25952041 0.11566323
-0.12358874 -0.25775284 0.1166364
-0.12251955 -0.25599289 0.11760539
-0.12145489 -0.25424042 0.11857024
-0.12039466 -0.25249547 0.11953107
-0.11933903 -0.25075793 0.12048772
-0.11828791 -0.24902785 0.12144038
-0.11724119 -0.24730508 0.12238902
-0.11619899 -0.24558964 0.12333351
-0.11516115 -0.24388149 0.12427405
-0.11412767 -0.24218053 0.12521061
-0.11309865 -0.2404868 0.12614331
-0.11220269 -0.23885152 0.12694952
-0.11137109 -0.2372463 0.12769479
-0.11054215 -0.23564631 0.12843761
-0.10971594 -0.23405153 0.12917799
-0.10889247 -0.23246193 0.12991595
-0.1080716 -0.23087746 0.13065156
-0.10725339 -0.22929808 0.13138485
-0.10643786 -0.2277239 0.13211569
-0.10562493 -0.22615474 0.13284415
-0.10481462 -0.22459063 0.13357037
-0.1040069 -0.22303152 0.13429418
-0.10320179 -0.22147745 0.1350157
-0.10239922 -0.21992834 0.13573489
-0.10159928 -0.21838424 0.13645181
-0.10080189 -0.21684501 0.13716635
-0.100007 -0.21531069 0.13787869
-0.099214643 -0.2137813 0.13858882
-0.098424807 -0.21225674 0.13929656
-0.097637489 -0.21073702 0.14000213
-0.096852645 -0.20922211 0.1407055
-0.096070319 -0.20771199 0.14140663
-0.095290422 -0.20620668 0.1421054
-0.094513014 -0.20470607 0.14280218
-0.093738064 -0.2032102 0.1434966
-0.093678921 -0.20194885 0.14350876
-0.093678892 -0.20070566 0.14346457
-0.093678892 -0.19946137 0.14342025
-0.093678817 -0.19821596 0.14337602
-0.093678787 -0.19696946 0.14333171
-0.093678772 -0.19572186 0.1432873
-0.093678713 -0.19447318 0.14324287
-0.093678698 -0.19322339 0.14319849
-0.093678698 -0.19197249 0.14315397
-0.093678638 -0.19072051 0.14310938
-0.093678609 -0.1894674 0.1430648
-0.093678549 -0.18821315 0.14302027
-0.093678534 -0.18695787 0.14297563
-0.093678489 -0.18570146 0.14293092
-0.093678474 -0.18444391 0.14288616
-0.093678445 -0.18318525 0.1428414
-0.093678415 -0.18192548 0.14279661
-0.09367843 -0.18066463 0.14275169
-0.093678385 -0.17940262 0.14270684
-0.093678311 -0.17813951 0.14266193
-0.093678325 -0.17687528 0.14261696
-0.093678296 -0.17560989 0.14257196
-0.093678236 -0.17434342 0.14252689
-0.093678221 -0.17307584 0.14248174
-0.093678191 -0.17180711 0.14243665
-0.093678206 -0.17053726 0.14239147
-0.093678147 -0.16926628 0.14234629
-0.093678102 -0.16799414 0.14230105
-0.093678102 -0.16672091 0.14225572
-0.093678072 -0.16544655 0.14221036
-0.093678057 -0.16417101 0.14216504
-0.093678012 -0.16289437 0.14211959
-0.093677983 -0.16161658 0.14207417
-0.093677968 -0.16033763 0.1420286
-0.093677923 -0.15905756 0.14198315
-0.093677908 -0.15777636 0.14193755
-0.093677849 -0.15649398 0.14189199
-0.093677834 -0.15521049 0.14184627
-0.093677834 -0.15392584 0.14180055
-0.093677774 -0.15264004 0.14175484
-0.093677789 -0.15135311 0.14170903
-0.093677744 -0.15006499 0.14166328
-0.093677729 -0.14877573 0.14161736
-0.093677685 -0.14748533 0.14157143
-0.09367764 -0.14619377 0.14152554
-0.09367764 -0.14490104 0.14147955
-0.09367761 -0.14360715 0.14143351
-0.09367758 -0.14231211 0.1413874
-0.093677565 -0.14101592 0.1413413
-0.093677521 -0.13971853 0.14129525
-0.093677506 -0.13842 0.14124897
-0.093677461 -0.13712028 0.14120278
-0.093677461 -0.13581944 0.14115644
-0.093677402 -0.13451737 0.14111018
-0.093677565 -0.13321419 0.14106366
-0.09367764 -0.13190982 0.1410172
-0.093677774 -0.13060427 0.14097056
-0.093677863 -0.12929755 0.14092398
-0.093677998 -0.12798965 0.14087725
-0.093678087 -0.12668055 0.14083061
-0.093678176 -0.12537029 0.14078388
-0.093678325 -0.12405884 0.14073703
-0.09367837 -0.12274619 0.14069027
-0.0936784 -0.12143234 0.14064348
-0.09367843 -0.12011734 0.14059672
-0.093678415 -0.11880112 0.14054981
-0.093678415 -0.11748371 0.14050293
-0.09367846 -0.11616512 0.14045596
-0.09367843 -0.11484531 0.14040896
-0.09367843 -0.11352433 0.14036199
-0.093678489 -0.11220214 0.14031491
-0.09367846 -0.11087874 0.14026776
-0.093678474 -0.10955416 0.14022061
-0.093678474 -0.10822836 0.14017347
-0.093678474 -0.10690137 0.14012617
-0.093678549 -0.10557317 0.14007887
-0.093678534 -0.10424376 0.14003158
-0.093678549 -0.10291313 0.13998419
-0.093678564 -0.1015813 0.13993675
-0.093678564 -0.10024825 0.13988936
-0.093678579 -0.09891399 0.13984182
-0.093678579 -0.097578518 0.13979432
-0.092899725 -0.096205227 0.14049688
-0.090753883 -0.094776645 0.14251649
-0.088629916 -0.093362689 0.14451548
-0.086527601 -0.091963127 0.14649406
-0.084446549 -0.090577744 0.14845273
-0.082386464 -0.089206323 0.15039149
-0.080347106 -0.087848663 0.15231088
-0.078328073 -0.086504541 0.15421119
-0.076329052 -0.085173771 0.15609249
-0.074349836 -0.083856158 0.15795532
-0.072390005 -0.082551487 0.15979978
-0.070449397 -0.081259593 0.16162625
-0.068527699 -0.079980254 0.16343483
-0.06662485 -0.078713335 0.16522574
-0.06474033 -0.07745862 0.16699937
-0.062873945 -0.076215945 0.16875589
-0.061025307 -0.074985139 0.17049575
-0.059194237 -0.073766008 0.17221907
-0.057380542 -0.07255844 0.17392609
-0.055583909 -0.07136222 0.17561695
-0.053804144 -0.07017722 0.17729202
-0.05204089 -0.069003269 0.1789515
-0.050294057 -0.067840204 0.18059552
-0.048971742 -0.066674039 0.18182984
-0.048403442 -0.065487906 0.18233597
-0.047836527 -0.064304672 0.18284085
-0.047270998 -0.063124284 0.18334448
-0.04670687 -0.06194675 0.18384686
-0.046144053 -0.060772076 0.18434811
-0.045582592 -0.059600234 0.1848481
-0.045022547 -0.058431208 0.18534693
-0.044463769 -0.057264991 0.18584454
-0.043906391 -0.05610159 0.18634087
-0.043350309 -0.054940984 0.18683612
-0.042795613 -0.053783149 0.1873301
-0.042242199 -0.052628096 0.18782297
-0.041690096 -0.051475801 0.18831462
-0.041139364 -0.050326258 0.1888051
-0.040589929 -0.049179465 0.18929443
-0.040041804 -0.048035417 0.18978253
-0.039494962 -0.046894077 0.19026953
-0.038949475 -0.045755457 0.19075537
-0.03840524 -0.044619534 0.19124004
-0.037862286 -0.043486327 0.19172353
-0.037320614 -0.042355791 0.19220594
-0.036780283 -0.041227922 0.19268718
-0.036241204 -0.040102743 0.19316718
-0.035703361 -0.038980205 0.19364619
-0.0351668 -0.037860319 0.1941241
-0.034631565 -0.036743071 0.19460073
-0.034097537 -0.035628453 0.19507629
-0.033564746 -0.034516457 0.1955508
-0.033033207 -0.033407077 0.19602418
-0.032502964 -0.03230029 0.19649637
-0.031973928 -0.031196088 0.19696748
-0.031446114 -0.030094486 0.19743755
-0.030919611 -0.028995451 0.19790646
-0.030394256 -0.027898975 0.1983743
-0.029870108 -0.026805069 0.19884112
-0.029347211 -0.025713701 0.19930679
-0.028825507 -0.024624888 0.19977134
-0.028305039 -0.023538586 0.20023489
-0.027785793 -0.022454809 0.2006973
-0.027267724 -0.021373551 0.20115873
-0.026750877 -0.020294797 0.201619
-0.026382372 -0.019191127 0.20193526
-0.026536152 -0.017989922 0.20174411
-0.026690215 -0.016786426 0.20155266
-0.026844561 -0.015580621 0.20136079
-0.02699922 -0.014372505 0.20116857
-0.027154177 -0.013162076 0.20097598
-0.027309373 -0.011949323 0.20078307
-0.027464941 -0.010734234 0.20058975
-0.027620777 -0.0095168129 0.20039606
-0.027776927 -0.0082970373 0.20020199
-0.027933374 -0.0070749149 0.20000756
-0.028090119 -0.0058504306 0.19981271
-0.028247163 -0.0046235882 0.19961751
-0.028404534 -0.0033943765 0.19942194
-0.028562143 -0.0021627843 0.19922599
-0.028720126 -0.00092879683 0.19902968
-0.028878376 0.00030757487 0.19883302
-0.029036969 0.0015463457 0.19863585
-0.02919586 0.002787523 0.19843835
-0.029355034 0.0040311143 0.19824052
-0.029514566 0.0052771345 0.19804227
-0.029674336 0.0065255612 0.19784364
-0.029834449 0.0077764392 0.19764465
-0.02999492 0.0090297647 0.19744521
-0.030155644 0.010285527 0.19724545
-0.030316725 0.011543747 0.19704527
-0.03047812 0.012804434 0.19684473
-0.030639812 0.014067594 0.19664368
-0.030801818 0.01533322 0.19644237
-0.030964121 0.016601343 0.1962406
-0.031126782 0.017871954 0.19603842
-0.031289756 0.019145064 0.19583586
-0.031453073 0.020420693 0.19563293
-0.031616673 0.021698821 0.19542953
-0.031780601 0.022979472 0.19522578
-0.031944916 0.024262674 0.1950216
-0.032109499 0.025548398 0.19481704
-0.03227441 0.026836675 0.19461209
-0.032439694 0.028127503 0.19440663
-0.032605261 0.029420886 0.19420084
-0.032771155 0.030716829 0.19399467
-0.03299509 0.032035019 0.19373173
-0.034528181 0.033807196 0.1921894
-0.036077335 0.035597976 0.19063097
-0.037642837 0.037407652 0.18905607
-0.039224967 0.039236534 0.18746445
-0.040823966 0.041084915 0.1858559
-0.042440102 0.042953104 0.18423
-0.044073671 0.044841431 0.18258667
-0.045724913 0.046750221 0.18092552
-0.047394171 0.04867981 0.17924628
-0.049081758 0.050630558 0.17754856
-0.050787881 0.052602787 0.17583218
-0.052512884 0.054596849 0.17409685
-0.054257154 0.05661314 0.17234209
-0.056020871 0.05865198 0.17056781
-0.057804495 0.060713805 0.16877353
-0.059608325 0.062798977 0.16695887
-0.061432675 0.064907908 0.16512361
-0.063277945 0.067041002 0.16326723
-0.065144494 0.069198675 0.16138953
-0.13347957 -0.27727687 0.10588661
-0.13236517 -0.27543539 0.10690048
-0.1312556 -0.27360195 0.10791001
-0.13015097 -0.27177656 0.10891497
-0.12905104 -0.26995909 0.1099157
-0.127956 -0.26814955 0.11091191
-0.1268657 -0.26634791 0.11190385
-0.12578011 -0.26455405 0.1128915
-0.12469923 -0.26276797 0.11387488
-0.12362307 -0.26098964 0.11485398
-0.12255144 -0.25921893 0.11582893
-0.12148455 -0.25745583 0.11679956
-0.12042212 -0.25570032 0.11776617
-0.11936416 -0.25395223 0.11872867
-0.11831075 -0.25221166 0.11968708
-0.11726183 -0.25047851 0.12064138
-0.11621734 -0.24875271 0.12159166
-0.11517732 -0.24703428 0.12253782
-0.11414169 -0.24532311 0.12348011
-0.11311045 -0.24361917 0.12441823
-0.11208352 -0.24192241 0.12535256
-0.11106099 -0.2402328 0.12628284
-0.11019889 -0.2386128 0.12706009
-0.10937223 -0.23701127 0.12780365
-0.10854828 -0.23541492 0.12854481
-0.10772704 -0.23382381 0.12928346
-0.10690841 -0.23223782 0.13001978
-0.10609242 -0.23065694 0.1307537
-0.1052791 -0.22908118 0.13148528
-0.10446839 -0.22751048 0.13221449
-0.10366029 -0.22594488 0.1329414
-0.10285476 -0.22438425 0.13366589
-0.10205181 -0.22282869 0.13438815
-0.10125144 -0.22127804 0.13510808
-0.10045363 -0.21973243 0.13582566
-0.099658385 -0.21819168 0.13654089
-0.098865673 -0.21665591 0.13725397
-0.098075449 -0.21512499 0.13796476
-0.097287804 -0.21359892 0.13867319
-0.096502602 -0.21207774 0.13937941
-0.095719904 -0.21056134 0.14008349
-0.094939679 -0.20904973 0.14078525
-0.094161898 -0.2075429 0.14148489
-0.093679205 -0.20613828 0.141902
-0.09367916 -0.20489487 0.14185706
-0.093679115 -0.20365036 0.14181206
-0.09367907 -0.20240475 0.14176694
-0.093679056 -0.20115808 0.14172181
-0.093679011 -0.1999103 0.14167669
-0.093678981 -0.19866139 0.14163145
-0.093679011 -0.1974114 0.14158615
-0.093678966 -0.1961603 0.14154088
-0.093678907 -0.1949081 0.14149565
-0.093678847 -0.19365478 0.14145026
-0.093678847 -0.19240035 0.14140487
-0.093678832 -0.19114482 0.14135945
-0.093678758 -0.18988815 0.141314
-0.093678698 -0.1886304 0.14126846
-0.093678713 -0.18737152 0.14122286
-0.093678653 -0.18611157 0.1411773
-0.093678623 -0.18485044 0.14113167
-0.093678638 -0.18358821 0.14108595
-0.093678594 -0.18232489 0.14104024
-0.093678579 -0.18106043 0.14099443
-0.093678534 -0.17979482 0.14094871
-0.093678474 -0.1785281 0.14090285
-0.093678504 -0.17726028 0.14085689
-0.09367846 -0.17599127 0.140811
-0.09367843 -0.17472121 0.14076504
-0.09367843 -0.17344998 0.140719
-0.093678355 -0.17217761 0.14067298
-0.09367837 -0.1709041 0.14062691
-0.093678325 -0.16962948 0.14058071
-0.093678266 -0.16835371 0.14053458
-0.093678251 -0.16707681 0.14048839
-0.093678206 -0.16579872 0.14044213
-0.093678221 -0.16451956 0.14039576
-0.093678162 -0.16323924 0.14034951
-0.093678132 -0.16195774 0.14030311
-0.093678117 -0.16067511 0.14025664
-0.093678057 -0.15939134 0.14021018
-0.093678057 -0.15810645 0.14016366
-0.093678027 -0.15682036 0.1401172
-0.093678057 -0.15553316 0.14007056
-0.093677983 -0.15424475 0.14002392
-0.093677953 -0.15295523 0.13997725
-0.093677938 -0.15166456 0.13993052
-0.093677893 -0.15037268 0.13988376
-0.093677893 -0.14907968 0.13983691
-0.093677834 -0.14778548 0.13979018
-0.093677834 -0.14649019 0.13974327
-0.093677804 -0.1451937 0.13969627
-0.093677759 -0.14389601 0.13964936
-0.093677729 -0.14259717 0.13960233
-0.093677714 -0.14129718 0.13955528
-0.093677655 -0.13999599 0.13950825
-0.093677625 -0.13869366 0.13946107
-0.09367761 -0.13739014 0.13941389
-0.093677595 -0.13608544 0.13936666
-0.093677655 -0.13477957 0.13931936
-0.093677774 -0.13347255 0.13927186
-0.093677849 -0.13216433 0.13922441
-0.093677983 -0.13085493 0.13917688
-0.093678087 -0.12954435 0.13912934
-0.093678236 -0.12823257 0.13908169
-0.093678311 -0.12691963 0.139034
-0.09367846 -0.12560546 0.13898632
-0.093678549 -0.12429011 0.13893858
-0.093678564 -0.12297359 0.13889083
-0.093678579 -0.12165585 0.13884315
-0.093678609 -0.12033691 0.13879535
-0.093678594 -0.11901677 0.13874763
-0.093678609 -0.11769545 0.13869971
-0.093678623 -0.11637293 0.13865176
-0.093678668 -0.11504919 0.13860387
-0.093678683 -0.11372425 0.13855579
-0.093678668 -0.11239811 0.13850784
-0.093678683 -0.11107077 0.13845971
-0.093678683 -0.1097422 0.13841155
-0.093678713 -0.10841244 0.13836342
-0.093678758 -0.10708147 0.1383152
-0.093678728 -0.10574928 0.13826701
-0.093678758 -0.10441587 0.13821867
-0.093678772 -0.10308125 0.13817027
-0.093678787 -0.10174541 0.13812193
-0.093678787 -0.10040835 0.1380735
-0.093678817 -0.099070057 0.13802502
-0.093678832 -0.097730532 0.13797653
-0.090869024 -0.096256666 0.14064759
-0.088738367 -0.094831012 0.1426619
-0.086629421 -0.093419917 0.14465573
-0.084541872 -0.092023149 0.14662924
-0.082475439 -0.090640485 0.14858285
-0.080429763 -0.089271761 0.15051687
-0.078404635 -0.087916709 0.15243137
-0.076399609 -0.086575158 0.15432698
-0.074414462 -0.085246906 0.15620366
-0.072448894 -0.083931744 0.15806192
-0.070502609 -0.082629479 0.15990201
-0.068575293 -0.081339933 0.16172406
-0.066666752 -0.080062918 0.16352835
-0.064776808 -0.078798242 0.16531515
-0.062905088 -0.07754574 0.16708463
-0.061051324 -0.076305225 0.16883713
-0.059215233 -0.075076528 0.17057306
-0.057396561 -0.073859498 0.17229232
-0.05559504 -0.072653957 0.17399555
-0.053810433 -0.071459725 0.17568266
-0.052042514 -0.070276685 0.17735407
-0.050291106 -0.069104627 0.17900982
-0.048555881 -0.067943439 0.18065032
-0.047210082 -0.066780351 0.18191311
-0.046645135 -0.065596573 0.18241805
-0.046081528 -0.064415686 0.18292174
-0.045519292 -0.063237615 0.18342423
-0.044958442 -0.06206242 0.18392551
-0.044398919 -0.060890049 0.18442565
-0.043840706 -0.059720494 0.18492451
-0.04328388 -0.058553755 0.18542215
-0.042728409 -0.057389833 0.1859186
-0.04217425 -0.05622869 0.18641388
-0.041621402 -0.055070333 0.18690801
-0.041069895 -0.053914744 0.18740094
-0.040519714 -0.052761927 0.18789265
-0.039970845 -0.051611844 0.18838319
-0.039423272 -0.050464522 0.18887264
-0.03887704 -0.049319927 0.18936077
-0.03833206 -0.048178058 0.18984786
-0.037788391 -0.047038898 0.19033372
-0.037245974 -0.04590245 0.19081852
-0.036704943 -0.044768687 0.19130206
-0.036165103 -0.043637611 0.19178453
-0.03562656 -0.042509206 0.19226584
-0.035089299 -0.041383483 0.19274607
-0.034553319 -0.040260401 0.19322506
-0.034018591 -0.039139967 0.19370303
-0.0334851 -0.038022179 0.19417983
-0.03295289 -0.036907014 0.19465545
-0.032421947 -0.035794467 0.19513002
-0.031892195 -0.034684535 0.19560346
-0.031363696 -0.0335772 0.1960758
-0.030836508 -0.032472454 0.196547
-0.030310482 -0.031370297 0.19701716
-0.029785678 -0.030270707 0.19748616
-0.029262111 -0.02917368 0.19795409
-0.028739795 -0.028079215 0.19842097
-0.028218657 -0.026987299 0.19888672
-0.027698711 -0.025897916 0.19935137
-0.027180016 -0.024811067 0.19981503
-0.026662454 -0.023726735 0.20027757
-0.026146144 -0.022644911 0.20073906
-0.025631025 -0.021565598 0.20119938
-0.025117055 -0.02048878 0.20165876
-0.024637699 -0.019408207 0.20208448
-0.024789453 -0.018210046 0.20189387
-0.024941474 -0.017009594 0.20170301
-0.025093809 -0.01580685 0.20151174
-0.025246412 -0.014601801 0.20132011
-0.025399297 -0.013394456 0.20112815
-0.025552496 -0.012184802 0.20093578
-0.025705978 -0.010972813 0.20074308
-0.025859773 -0.0097585097 0.20055002
-0.026013866 -0.0085418671 0.20035657
-0.026168227 -0.0073228851 0.20016274
-0.026322916 -0.0061015598 0.19996849
-0.026477888 -0.0048778728 0.19977391
-0.026633129 -0.0036518462 0.199579
-0.026788697 -0.0024234317 0.19938365
-0.026944563 -0.0011926554 0.19918796
-0.027100727 4.0505081e-05 0.19899184
-0.027257234 0.0012760647 0.19879538
-0.027414024 0.0025140047 0.19859856
-0.027571097 0.0037543476 0.1984013
-0.027728453 0.004997097 0.19820371
-0.027886152 0.0062422678 0.19800571
-0.028044149 0.0074898563 0.19780737
-0.028202474 0.0087398775 0.19760859
-0.028361097 0.0099923424 0.19740942
-0.028520018 0.01124724 0.19720986
-0.028679267 0.012504596 0.19700992
-0.028838769 0.013764396 0.19680965
-0.028998643 0.015026677 0.1966089
-0.029158801 0.016291428 0.19640779
-0.029319271 0.017558653 0.19620624
-0.0294801 0.01882837 0.19600433
-0.029641226 0.020100579 0.19580212
-0.02980268 0.021375291 0.19559938
-0.029964417 0.022652518 0.1953963
-0.030126467 0.023932248 0.19519278
-0.030288875 0.025214516 0.19498894
-0.030451626 0.026499316 0.19478452
-0.030614674 0.027786657 0.19457984
-0.030778036 0.029076546 0.19437474
-0.03094174 0.030368991 0.19416919
