# .PCD v0.7 - Point Cloud Data file format
VERSION 0.7
FIELDS x y z
SIZE 4 4 4
TYPE F F F
COUNT 1 1 1
WIDTH 1332
HEIGHT 1
VIEWPOINT 0 0 0 1 0 0 0
POINTS 1332
DATA ascii
-0.093676269 -0.11809602 0.16327539
-0.093676254 -0.11663248 0.16333157
-0.093676195 -0.11517034 0.16338769
-0.09367618 -0.11370963 0.16344374
-0.09367615 -0.11225033 0.16349977
-0.093676105 -0.11079245 0.16355568
-0.09367606 -0.10933598 0.16361159
-0.093676075 -0.10788094 0.16366744
-0.093675986 -0.10642727 0.1637232
-0.093675956 -0.10497503 0.16377896
-0.093675956 -0.10352421 0.1638346
-0.093675911 -0.10207478 0.1638903
-0.093675882 -0.10062674 0.16394588
-0.093675822 -0.099180102 0.16400141
-0.093675822 -0.097734876 0.16405681
-0.093675792 -0.096291035 0.16411221
-0.093675762 -0.094848588 0.16416761
-0.093675733 -0.093407527 0.16422293
-0.093675688 -0.091967858 0.16427812
-0.093675643 -0.090529583 0.16433331
-0.093675613 -0.089092679 0.16438848
-0.093675584 -0.087657176 0.16444355
-0.093675569 -0.086223036 0.1644986
-0.093675494 -0.084790267 0.16455361
-0.093675435 -0.083358884 0.16460854
-0.09367542 -0.081928879 0.16466346
-0.093675405 -0.08050026 0.16471827
-0.09367536 -0.07907299 0.16477305
-0.0936753 -0.077647097 0.16482782
-0.091296867 -0.07527189 0.1670253
-0.085531548 -0.071574457 0.17227301
-0.079943269 -0.067990556 0.17735967
-0.076464832 -0.065269254 0.18054464
-0.075757235 -0.063641489 0.18123373
-0.075053006 -0.062021516 0.18191952
-0.07435219 -0.060409322 0.18260205
-0.073654652 -0.058804817 0.18328133
-0.072960481 -0.057207983 0.1839574
-0.072269633 -0.055618744 0.18463022
-0.071582034 -0.054037053 0.18529981
-0.070897728 -0.052462857 0.18596625
-0.070216626 -0.05089609 0.18662956
-0.069538742 -0.049336709 0.18728971
-0.068864077 -0.047784675 0.18794674
-0.068192557 -0.046239913 0.18860066
-0.06752418 -0.044702377 0.1892516
-0.066858917 -0.043172028 0.18989947
-0.066196725 -0.041648805 0.19054434
-0.065537617 -0.040132657 0.19118619
-0.064881638 -0.038623549 0.19182512
-0.064228639 -0.037121419 0.19246101
-0.063578635 -0.035626218 0.19309402
-0.062931627 -0.034137897 0.1937241
-0.062287614 -0.032656427 0.19435135
-0.061646566 -0.031181749 0.19497555
-0.061008424 -0.029713806 0.19559702
-0.060373232 -0.028252579 0.19621566
-0.059740886 -0.026797991 0.19683149
-0.059111446 -0.025350016 0.19744447
-0.058484852 -0.023908596 0.1980547
-0.057861075 -0.022473697 0.19866216
-0.057240129 -0.021045282 0.19926682
-0.056621984 -0.019623283 0.19986886
-0.056628957 -0.018379197 0.19991043
-0.056899354 -0.017207876 0.19971585
-0.057169899 -0.016035821 0.19952121
-0.057440564 -0.014863037 0.19932649
-0.057711437 -0.013689544 0.19913158
-0.057982489 -0.012515325 0.19893661
-0.058253676 -0.01134038 0.1987415
-0.058525056 -0.010164712 0.19854629
-0.058796614 -0.0089883134 0.19835088
-0.059068322 -0.0078111887 0.19815537
-0.059340209 -0.0066333413 0.19795978
-0.059612244 -0.00545476 0.19776407
-0.059884459 -0.0042754486 0.19756824
-0.060156807 -0.0030953996 0.19737232
-0.060429379 -0.0019146353 0.19717622
-0.060702085 -0.00073312968 0.19698
-0.06097497 0.0004490912 0.19678369
-0.061248034 0.0016320534 0.19658723
-0.061521247 0.0028157495 0.19639066
-0.061794654 0.0040001869 0.19619399
-0.062068209 0.0051853471 0.19599718
-0.062341958 0.0063712411 0.19580024
-0.062615871 0.0075578801 0.1956031
-0.062889963 0.0087452494 0.19540593
-0.06316416 0.0099333562 0.1952087
-0.063438579 0.011122204 0.19501126
-0.063713148 0.012311786 0.19481364
-0.063987866 0.013502125 0.19461605
-0.064262778 0.014693186 0.19441834
-0.064537838 0.015884995 0.19422039
-0.064813107 0.017077539 0.19402236
-0.065088525 0.018270832 0.19382423
-0.065364093 0.019464865 0.19362596
-0.065639883 0.020659629 0.19342759
-0.065915778 0.021855161 0.19322905
-0.066191897 0.023051418 0.19303042
-0.066468149 0.024248436 0.1928317
-0.066744611 0.025446184 0.19263276
-0.067021221 0.026644692 0.1924338
-0.06729798 0.027843937 0.19223464
-0.067574948 0.029043939 0.19203541
-0.067852125 0.030244675 0.19183597
-0.068433538 0.031407349 0.1913656
-0.069576398 0.032503184 0.19039559
-0.070725515 0.033604994 0.1894201
-0.071880952 0.034712844 0.1884394
-0.073042676 0.035826787 0.18745321
-0.074210823 0.036946855 0.18646169
-0.075385436 0.038073123 0.18546459
-0.076566547 0.039205618 0.18446195
-0.077754244 0.040344402 0.1834538
-0.078948528 0.041489542 0.1824401
-0.080149487 0.042641066 0.18142068
-0.081357136 0.043799043 0.18039551
-0.082571626 0.044963524 0.17936456
-0.08379297 0.046134569 0.17832786
-0.085021138 0.04731223 0.17728534
-0.086256325 0.048496552 0.17623687
-0.087498456 0.049687617 0.17518249
-0.088747695 0.050885454 0.17412204
-0.090004057 0.052090131 0.17305562
-0.091267616 0.053301729 0.17198306
-0.092538401 0.054520272 0.1709044
-0.093816563 0.055745848 0.16981938
-0.095102102 0.056978501 0.16872817
-0.09639506 0.058218293 0.16763061
-0.097695529 0.059465304 0.16652676
-0.099003628 0.060719579 0.16541639
-0.10031934 0.061981171 0.16429955
-0.1016428 0.063250184 0.16317612
-0.10297398 0.064526655 0.16204616
-0.10431308 0.065810658 0.16090947
-0.10566008 0.067102231 0.15976605
-0.10701506 0.068401508 0.15861592
-0.11132506 0.069653347 0.15484691
-0.11599751 0.070927292 0.1507577
-0.12077639 0.072230041 0.14657533
-0.12566596 0.0735626 0.1422962
-0.13066876 0.074925981 0.13791785
-0.1357886 0.076321304 0.13343704
-0.14102991 0.077749684 0.12885004
-0.1463968 0.079212315 0.12415314
-0.13276847 -0.24893317 0.12163359
-0.1309931 -0.24584392 0.12333381
-0.12923416 -0.24278346 0.12501824
-0.12751797 -0.23977149 0.12666285
-0.12624694 -0.2371113 0.12789747
-0.12498485 -0.23446985 0.12912348
-0.1237317 -0.23184705 0.13034081
-0.12248731 -0.22924261 0.13154969
-0.12125169 -0.22665642 0.13274997
-0.12002462 -0.22408825 0.13394198
-0.11880602 -0.22153783 0.13512573
-0.11759593 -0.21900514 0.13630122
-0.11639416 -0.21648988 0.1374687
-0.11520061 -0.2139919 0.1386281
-0.11401527 -0.21151102 0.13977951
-0.11283809 -0.20904711 0.14092302
-0.11166894 -0.20660001 0.14205879
-0.11050774 -0.20416947 0.14318681
-0.10935435 -0.20175536 0.14430723
-0.10820879 -0.19935754 0.14542004
-0.10707089 -0.19697577 0.14652544
-0.10594055 -0.19460991 0.14762351
-0.10481779 -0.19225983 0.14871415
-0.10370247 -0.18992536 0.14979759
-0.10259455 -0.18760636 0.15087378
-0.10149394 -0.18530264 0.151943
-0.10040054 -0.18301407 0.15300515
-0.099314332 -0.18074052 0.15406033
-0.098531857 -0.17867711 0.15483695
-0.097882405 -0.17670852 0.15549162
-0.097235769 -0.17474845 0.15614334
-0.09659192 -0.17279682 0.15679234
-0.095950812 -0.17085357 0.15743849
-0.095312431 -0.16891865 0.15808195
-0.094676852 -0.16699208 0.15872267
-0.09404397 -0.16507374 0.15936053
-0.093675882 -0.16332784 0.15975609
-0.093675941 -0.1618156 0.15981492
-0.093675941 -0.16030483 0.15987378
-0.093675971 -0.15879555 0.15993249
-0.093675956 -0.15728776 0.1599912
-0.093676031 -0.15578149 0.1600498
-0.093676075 -0.1542767 0.16010839
-0.09367609 -0.15277338 0.16016689
-0.093676105 -0.15127152 0.16022536
-0.093676165 -0.14977118 0.16028374
-0.09367615 -0.14827229 0.1603421
-0.093676195 -0.14677489 0.16040036
-0.093676209 -0.14527895 0.16045862
-0.093676224 -0.14378446 0.16051683
-0.093676284 -0.14229149 0.16057491
-0.093676269 -0.14079994 0.16063303
-0.093676299 -0.13930987 0.16069099
-0.093676329 -0.13782126 0.16074899
-0.093676358 -0.13633412 0.16080689
-0.093676403 -0.13484846 0.16086468
-0.093676448 -0.13336422 0.16092241
-0.093676448 -0.13188145 0.16098019
-0.093676448 -0.13040011 0.1610378
-0.093676478 -0.12892023 0.16109547
-0.093676552 -0.12744182 0.16115293
-0.093676597 -0.12596485 0.16121045
-0.093676686 -0.12448934 0.16126779
-0.093676746 -0.12301525 0.16132513
-0.093676791 -0.1215426 0.16138253
-0.093676761 -0.12007135 0.16143981
-0.093676761 -0.11860153 0.16149703
-0.093676701 -0.11713313 0.16155428
-0.093676671 -0.11566617 0.16161147
-0.093676656 -0.11420064 0.16166848
-0.093676612 -0.11273655 0.16172555
-0.093676582 -0.11127386 0.16178253
-0.093676507 -0.10981258 0.16183946
-0.093676507 -0.10835276 0.16189641
-0.093676478 -0.10689434 0.16195318
-0.093676433 -0.10543732 0.16200998
-0.093676388 -0.10398173 0.1620667
-0.093676373 -0.10252756 0.16212326
-0.093676329 -0.10107478 0.16217995
-0.093676314 -0.099623434 0.16223645
-0.093676269 -0.098173469 0.16229302
-0.093676209 -0.096724913 0.16234943
-0.093676224 -0.095277771 0.16240579
-0.093676165 -0.093832009 0.16246215
-0.093676105 -0.092387654 0.16251841
-0.093676105 -0.0909447 0.16257459
-0.093676046 -0.089503132 0.1626308
-0.093675986 -0.088062949 0.16268691
-0.093675986 -0.086624175 0.16274303
-0.093675941 -0.085186779 0.16279897
-0.093675926 -0.083750784 0.16285494
-0.093675882 -0.082316145 0.16291085
-0.093675837 -0.080882899 0.16296664
-0.093675822 -0.079451025 0.16302249
-0.092828661 -0.077677973 0.16384542
-0.086996138 -0.073915079 0.16918233
-0.081343994 -0.070268556 0.17435426
-0.075863972 -0.0667331 0.1793687
-0.074213743 -0.064731441 0.18091515
-0.073513687 -0.063109934 0.18160129
-0.072816983 -0.061496202 0.18228415
-0.072123632 -0.059890177 0.18296367
-0.071433574 -0.058291808 0.18364003
-0.070746794 -0.056701027 0.18431318
-0.070063308 -0.055117812 0.18498304
-0.06938301 -0.053542085 0.18564981
-0.068705946 -0.051973797 0.18631345
-0.068032056 -0.05041289 0.18697387
-0.06736137 -0.048859324 0.18763131
-0.066693783 -0.047313046 0.18828556
-0.06602934 -0.045774005 0.1889368
-0.065367967 -0.044242125 0.189585
-0.064709678 -0.042717382 0.19023019
-0.064054489 -0.041199729 0.19087234
-0.063402295 -0.039689112 0.1915116
-0.062753126 -0.038185485 0.19214779
-0.062106982 -0.036688782 0.19278115
-0.061463818 -0.035198979 0.19341156
-0.060823545 -0.033716008 0.19403905
-0.060186252 -0.032239828 0.19466367
-0.05955188 -0.03077041 0.19528538
-0.058920383 -0.029307678 0.1959044
-0.058291748 -0.027851604 0.19652045
-0.057666004 -0.026402157 0.19713378
-0.057043046 -0.024959248 0.19774434
-0.056422964 -0.023522887 0.19835207
-0.055805638 -0.022092983 0.19895715
-0.055191085 -0.020669512 0.19955945
-0.054579288 -0.019252442 0.20015907
-0.054826126 -0.018078063 0.19998518
-0.055095345 -0.01690919 0.19979107
-0.055364743 -0.015739594 0.19959691
-0.05563432 -0.014569283 0.19940257
-0.055904046 -0.013398238 0.19920817
-0.056173906 -0.012226477 0.19901368
-0.056443945 -0.011054002 0.19881898
-0.056714207 -0.0098808073 0.19862413
-0.056984603 -0.0087068789 0.19842923
-0.057255134 -0.0075322315 0.19823426
-0.057525873 -0.0063568652 0.19803905
-0.057796776 -0.0051807724 0.19784373
-0.058067843 -0.0040039457 0.19764838
-0.058339089 -0.0028263964 0.19745287
-0.058610469 -0.0016481206 0.19725725
-0.058881998 -0.00046910718 0.19706151
-0.059153721 0.0007106252 0.19686565
-0.059425622 0.0018910803 0.1966697
-0.059697717 0.003072273 0.19647351
-0.059969932 0.0042541921 0.19627732
-0.060242355 0.0054368488 0.19608089
-0.060514912 0.0066202283 0.19588444
-0.060787648 0.0078043491 0.19568783
-0.061060548 0.0089891925 0.19549116
-0.061333627 0.010174777 0.19529429
-0.061606869 0.011361096 0.1950973
-0.061880276 0.01254816 0.19490027
-0.062153816 0.01373595 0.19470304
-0.062427595 0.014924474 0.19450569
-0.062701479 0.016113747 0.19430831
-0.062975526 0.017303754 0.19411078
-0.063249782 0.018494498 0.19391304
-0.063524216 0.019685972 0.19371524
-0.06379877 0.020878203 0.19351736
-0.064073518 0.022071164 0.19331929
-0.064348429 0.023264874 0.19312111
-0.064623535 0.024459317 0.1929228
-0.064898804 0.025654502 0.19272438
-0.065174222 0.026850443 0.19252589
-0.065449819 0.028047115 0.19232723
-0.065725625 0.029244538 0.19212836
-0.066001564 0.030442704 0.19192952
-0.06668295 0.031589836 0.19136781
-0.06781888 0.032684062 0.19039959
-0.068960965 0.033784255 0.18942603
-0.070109293 0.034890458 0.18844718
-0.071263984 0.036002725 0.18746293
-0.072424993 0.037121117 0.18647331
-0.07359238 0.038245656 0.18547824
-0.074766248 0.03937643 0.1844776
-0.075946569 0.040513471 0.18347153
-0.077133521 0.041656829 0.18245971
-0.07832709 0.042806551 0.18144232
-0.079527244 0.043962717 0.1804193
-0.080734193 0.04512535 0.17939049
-0.081947893 0.046294525 0.17835593
-0.083168492 0.047470286 0.17731556
-0.084395975 0.048652701 0.17626926
-0.085630387 0.049841821 0.175217
-0.086871758 0.051037706 0.1741589
-0.088120222 0.052240394 0.17309469
-0.089375898 0.053449959 0.1720244
-0.090638697 0.054666482 0.17094797
-0.091908783 0.055889994 0.16986534
-0.0931862 0.057120547 0.16877645
-0.094471008 0.05835823 0.16768134
-0.095763221 0.059603095 0.16657981
-0.09706302 0.06085518 0.16547185
-0.098370373 0.062114596 0.16435748
-0.099685386 0.063381366 0.16323662
-0.10100809 0.06465558 0.16210917
-0.10233858 0.065937281 0.16097504
-0.10367696 0.067226574 0.15983418
-0.10502325 0.068523467 0.15868661
-0.10933162 0.069773413 0.15490121
-0.11397222 0.071046077 0.15082106
-0.11871806 0.072347477 0.14664838
-0.12357382 0.073678546 0.14237896
-0.12854174 0.07504034 0.13801101
-0.13362575 0.076433994 0.13354102
-0.13882993 0.077860586 0.12896529
-0.14415869 0.07932131 0.12428001
-0.13325191 -0.25372106 0.11899793
-0.13146475 -0.25059259 0.12071973
-0.12969437 -0.24749351 0.12242538
-0.12794034 -0.24442329 0.12411523
-0.12620252 -0.24138159 0.12578949
-0.12471621 -0.23854725 0.12723055
-0.12345947 -0.23590057 0.12845904
-0.12221165 -0.23327258 0.12967873
-0.12097248 -0.23066297 0.13088992
-0.11974202 -0.22807164 0.13209268
-0.11852017 -0.22549839 0.13328701
-0.11730675 -0.22294295 0.13447309
-0.11610177 -0.22040525 0.13565093
-0.11490506 -0.21788499 0.1368207
-0.11371657 -0.21538207 0.13798234
-0.11253624 -0.21289626 0.13913617
-0.11136405 -0.21042752 0.14028186
-0.11019988 -0.2079756 0.14141986
-0.10904357 -0.20554027 0.14255011
-0.10789505 -0.20312136 0.1436727
-0.10675436 -0.20071882 0.14478776
-0.10562123 -0.19833232 0.14589533
-0.1044957 -0.1959618 0.14699551
-0.10337767 -0.19360709 0.14808834
-0.10226707 -0.19126803 0.14917395
-0.10116382 -0.18894441 0.15025234
-0.10006788 -0.18663618 0.15132356
-0.098979101 -0.18434307 0.15238786
-0.0978975 -0.18206504 0.15344509
-0.096870035 -0.17983314 0.15445206
-0.096224636 -0.17786323 0.15510714
-0.095581949 -0.1759018 0.15575936
-0.094941959 -0.17394878 0.15640882
-0.094304785 -0.17200416 0.15705544
-0.093676209 -0.17007172 0.15769389
-0.093676195 -0.16854826 0.15775415
-0.093676254 -0.16702634 0.15781432
-0.093676329 -0.16550592 0.15787429
-0.093676314 -0.16398701 0.15793437
-0.093676358 -0.1624696 0.15799427
-0.093676388 -0.16095369 0.15805423
-0.093676418 -0.15943927 0.15811402
-0.093676388 -0.15792635 0.15817386
-0.093676448 -0.15641494 0.15823361
-0.093676478 -0.15490505 0.15829325
-0.093676493 -0.15339664 0.15835282
-0.093676537 -0.15188968 0.15841237
-0.093676567 -0.15038426 0.15847185
-0.093676552 -0.1488803 0.15853131
-0.093676627 -0.14737785 0.15859067
-0.093676642 -0.14587685 0.15864995
-0.093676642 -0.14437737 0.1587092
-0.093676716 -0.14287934 0.15876833
-0.093676716 -0.14138278 0.15882751
-0.093676761 -0.13988771 0.15888658
-0.093676761 -0.13839412 0.15894562
-0.093676791 -0.13690196 0.15900457
-0.093676791 -0.13541128 0.15906349
-0.093676835 -0.1339221 0.15912238
-0.093676865 -0.13243434 0.15918115
-0.09367688 -0.13094807 0.15923986
-0.09367691 -0.12946323 0.15929857
-0.093676925 -0.12797986 0.15935716
-0.093676999 -0.12649798 0.15941572
-0.093677089 -0.12501755 0.1594741
-0.093677208 -0.12353859 0.15953243
-0.093677267 -0.12206105 0.15959081
-0.093677238 -0.12058491 0.15964922
-0.093677208 -0.11911021 0.15970749
-0.093677163 -0.11763695 0.15976578
-0.093677133 -0.11616511 0.15982401
-0.093677059 -0.11469471 0.15988213
-0.093677059 -0.11322578 0.15994024
-0.093677044 -0.11175827 0.15999827
-0.093676969 -0.11029219 0.16005623
-0.09367694 -0.10882753 0.1601142
-0.09367691 -0.1073643 0.16017208
-0.09367688 -0.1059025 0.16022986
-0.093676835 -0.10444212 0.16028762
-0.09367685 -0.10298318 0.16034532
-0.093676805 -0.10152563 0.16040295
-0.093676731 -0.10006951 0.16046059
-0.093676686 -0.098614797 0.16051811
-0.093676686 -0.097161509 0.16057557
-0.093676627 -0.095709614 0.16063303
-0.093676612 -0.09425915 0.16069037
-0.093676537 -0.092810065 0.16074774
-0.093676522 -0.091362417 0.1608049
-0.093676522 -0.089916155 0.16086212
-0.093676507 -0.088471308 0.16091928
-0.093676433 -0.087027825 0.16097635
-0.093676373 -0.085585751 0.16103345
-0.093676344 -0.084145077 0.16109043
-0.093676314 -0.082705818 0.1611473
-0.093676299 -0.081267931 0.16120416
-0.093676239 -0.079831421 0.16126099
-0.088482797 -0.07629101 0.16604501
-0.082765505 -0.07258039 0.17130423
-0.077223614 -0.068983607 0.17640206
-0.072672307 -0.065819964 0.18059701
-0.071976438 -0.064196929 0.18128341
-0.071283862 -0.062581651 0.18196657
-0.070594639 -0.060974099 0.18264639
-0.069908693 -0.059374198 0.18332314
-0.069225952 -0.057781897 0.18399656
-0.068546519 -0.056197155 0.18466678
-0.067870215 -0.054619882 0.18533385
-0.067197159 -0.053050082 0.18599778
-0.066527277 -0.051487658 0.18665859
-0.06586054 -0.049932569 0.1873163
-0.065196916 -0.048384782 0.18797088
-0.064536408 -0.046844229 0.18862239
-0.063878953 -0.045310844 0.18927094
-0.063224584 -0.043784615 0.1899164
-0.062573269 -0.042265464 0.19055885
-0.061924905 -0.040753335 0.19119838
-0.06127955 -0.039248191 0.19183496
-0.060637236 -0.037750006 0.19246855
-0.059997812 -0.036258694 0.19309932
-0.059361368 -0.034774244 0.19372711
-0.058727816 -0.033296589 0.19435209
-0.058097154 -0.031825669 0.19497421
-0.057469368 -0.030361455 0.19559342
-0.056844413 -0.028903894 0.19620985
-0.056222335 -0.027452961 0.19682354
-0.055603042 -0.026008584 0.1974344
-0.054986581 -0.024570741 0.19804248
-0.054372877 -0.023139369 0.19864792
-0.053761929 -0.021714438 0.19925049
-0.053153709 -0.020295892 0.19985047
-0.052763149 -0.018943954 0.20025316
-0.053031102 -0.017778229 0.20005965
-0.053299189 -0.016611796 0.19986597
-0.053567439 -0.015444655 0.19967222
-0.053835869 -0.014276776 0.19947836
-0.054104462 -0.013108201 0.1992844
-0.054373205 -0.011938896 0.19909024
-0.054642141 -0.010768872 0.19889605
-0.054911181 -0.009598121 0.19870174
-0.055180445 -0.0084266663 0.19850728
-0.055449858 -0.0072544925 0.1983127
-0.055719435 -0.0060815848 0.19811797
-0.055989191 -0.0049079619 0.19792312
-0.056259111 -0.0037336126 0.19772825
-0.056529179 -0.002558548 0.19753313
-0.056799456 -0.001382757 0.19733796
-0.057069868 -0.00020623952 0.19714269
-0.057340458 0.00097100437 0.19694728
-0.057611182 0.0021489821 0.19675171
-0.057882071 0.0033276752 0.19655606
-0.058153167 0.0045071058 0.19636026
-0.058424413 0.005687248 0.1961644
-0.058695823 0.0068681315 0.19596833
-0.058967412 0.0080497414 0.1957722
-0.059239179 0.009232074 0.19557592
-0.05951111 0.010415148 0.1953795
-0.059783176 0.01159896 0.19518304
-0.060055405 0.01278349 0.19498637
-0.060327813 0.013968762 0.19478965
-0.060600385 0.015154768 0.1945928
-0.060873106 0.016341507 0.19439584
-0.061145991 0.017528977 0.19419879
-0.061419085 0.018717177 0.19400156
-0.061692327 0.019906122 0.19380414
-0.061965734 0.021095812 0.1936067
-0.062239334 0.022286229 0.19340914
-0.062513083 0.023477383 0.19321135
-0.062786996 0.024669278 0.19301355
-0.063061073 0.025861915 0.19281566
-0.063335359 0.027055286 0.19261751
-0.063609794 0.028249402 0.19241935
-0.063884377 0.029444247 0.19222099
-0.06415917 0.030639861 0.19202256
-0.064939022 0.031771637 0.19136992
-0.066068053 0.032864254 0.19040352
-0.067203209 0.03396282 0.18943185
-0.068344533 0.035067387 0.1884549
-0.069492146 0.036177993 0.18747258
-0.070645988 0.037294693 0.18648493
-0.071806267 0.03841754 0.18549186
-0.072972924 0.039546572 0.18449318
-0.074145988 0.040681869 0.18348905
-0.075325608 0.041823447 0.18247941
-0.07651177 0.042971388 0.18146408
-0.077704564 0.044125736 0.18044305
-0.078904018 0.045286536 0.17941633
-0.080110177 0.046453848 0.17838392
-0.081323192 0.047627725 0.17734569
-0.082543001 0.048808232 0.17630157
-0.083769724 0.049995407 0.17525151
-0.085003346 0.051189333 0.17419559
-0.086244002 0.052390054 0.17313355
-0.087491766 0.053597622 0.17206553
-0.088746652 0.054812089 0.17099142
-0.090008706 0.056033537 0.16991115
-0.091278091 0.057262011 0.16882461
-0.092554763 0.058497578 0.16773176
-0.093838841 0.059740297 0.16663265
-0.095130309 0.060990229 0.16552722
-0.096429378 0.06224744 0.1644153
-0.097736031 0.06351199 0.16329679
-0.099050313 0.064783968 0.16217187
-0.10037228 0.066063382 0.16104025
-0.10170209 0.067350358 0.15990201
-0.10303974 0.068644919 0.15875706
-0.10734637 0.069892995 0.15495524
-0.11195524 0.071164377 0.15088418
-0.11666824 0.072464406 0.14672112
-0.12149045 0.073794 0.14246157
-0.12642376 0.075154245 0.13810378
-0.13147214 0.0765462 0.13364452
-0.13663958 0.077971004 0.12907994
-0.14193043 0.079429813 0.12440652
-0.14734909 0.0809239 0.11962005
-0.13374066 -0.25856107 0.11633366
-0.13194147 -0.25539264 0.1180774
-0.13015932 -0.25225419 0.11980474
-0.12839392 -0.24914527 0.12151575
-0.12664483 -0.24606527 0.12321097
-0.12491192 -0.24301395 0.12489048
-0.1231951 -0.23999089 0.12655443
-0.12193394 -0.23733151 0.12779438
-0.12069137 -0.2346983 0.12901655
-0.11945745 -0.23208353 0.13023019
-0.11823224 -0.22948706 0.13143528
-0.11701557 -0.22690873 0.13263193
-0.11580732 -0.22434828 0.13382035
-0.11460741 -0.22180551 0.13500053
-0.11341578 -0.21928027 0.13617259
-0.11223237 -0.21677241 0.13733658
-0.11105704 -0.21428174 0.13849264
-0.10988981 -0.21180812 0.13964069
-0.1087306 -0.20935133 0.14078087
-0.10757923 -0.20691121 0.14191329
-0.10643563 -0.20448756 0.14303812
-0.1052997 -0.20208023 0.14415541
-0.10417143 -0.19968906 0.14526519
-0.10305068 -0.19731385 0.14636758
-0.1019374 -0.19495448 0.14746252
-0.10083151 -0.1926108 0.14855024
-0.09973295 -0.19028264 0.14963076
-0.098641649 -0.18796983 0.15070415
-0.09755753 -0.18567225 0.15177047
-0.096480504 -0.18338969 0.15282983
-0.095410511 -0.18112209 0.15388227
-0.09456867 -0.17901656 0.15472311
-0.093929946 -0.17705375 0.15537587
-0.093676567 -0.1753512 0.15567181
-0.093676597 -0.17381793 0.15573326
-0.093676612 -0.17228617 0.15579477
-0.093676642 -0.17075598 0.15585613
-0.093676642 -0.16922727 0.15591741
-0.093676701 -0.16770013 0.15597868
-0.093676716 -0.16617449 0.15603989
-0.093676716 -0.16465037 0.15610099
-0.093676746 -0.16312775 0.15616199
-0.093676776 -0.16160667 0.15622309
-0.093676835 -0.16008709 0.15628397
-0.09367682 -0.15856901 0.15634489
-0.093676865 -0.15705247 0.15640563
-0.093676895 -0.15553741 0.15646645
-0.09367694 -0.15402386 0.15652713
-0.093676955 -0.15251181 0.15658778
-0.093676969 -0.15100127 0.15664834
-0.093676984 -0.1494922 0.15670887
-0.093676999 -0.14798464 0.15676939
-0.093677059 -0.14647859 0.15682971
-0.093677059 -0.14497399 0.15689012
-0.093677089 -0.1434709 0.15695038
-0.093677104 -0.14196929 0.15701061
-0.093677148 -0.14046918 0.1570707
-0.093677193 -0.13897055 0.15713084
-0.093677223 -0.13747339 0.15719086
-0.093677238 -0.13597772 0.15725088
-0.093677297 -0.13448352 0.15731075
-0.093677312 -0.13299079 0.1573706
-0.093677282 -0.13149948 0.15743041
-0.093677357 -0.13000971 0.15749016
-0.093677357 -0.12852135 0.15754986
-0.093677431 -0.1270345 0.15760949
-0.093677551 -0.12554914 0.15766898
-0.09367761 -0.12406523 0.15772843
-0.093677655 -0.12258274 0.15778783
-0.093677685 -0.12110171 0.15784729
-0.093677625 -0.11962208 0.15790671
-0.09367758 -0.11814392 0.15796602
-0.093677565 -0.1166672 0.15802529
-0.093677536 -0.11519195 0.15808451
-0.093677506 -0.11371813 0.15814358
-0.093677461 -0.11224575 0.15820271
-0.093677431 -0.1107748 0.15826181
-0.093677387 -0.1093053 0.15832084
-0.093677387 -0.10783724 0.1583797
-0.093677312 -0.10637061 0.15843865
-0.093677282 -0.10490541 0.15849739
-0.093677253 -0.10344164 0.1585561
-0.093677223 -0.10197931 0.15861487
-0.093677193 -0.10051839 0.15867352
-0.093677148 -0.099058896 0.15873212
-0.093677148 -0.09760084 0.15879059
-0.093677089 -0.096144199 0.15884906
-0.093677044 -0.094688959 0.1589075
-0.093676984 -0.093235135 0.15896586
-0.093676969 -0.091782741 0.15902418
-0.093676969 -0.090331763 0.15908235
-0.093676955 -0.088882193 0.15914056
-0.09367688 -0.087434001 0.15919867
-0.09367685 -0.085987233 0.15925679
-0.09367682 -0.084541872 0.15931478
-0.093676805 -0.083097912 0.15937272
-0.093676716 -0.081655338 0.15943071
-0.089992061 -0.078703046 0.16286001
-0.084208325 -0.074926816 0.16820854
-0.078603312 -0.071267284 0.17339173
-0.073168874 -0.067719124 0.17841733
-0.070441216 -0.065282471 0.18096599
-0.069752768 -0.063665666 0.18164945
-0.069067642 -0.062056582 0.18232965
-0.06838575 -0.060455151 0.18300661
-0.067707106 -0.05886133 0.18368033
-0.067031696 -0.057275072 0.18435088
-0.066359445 -0.05569629 0.18501833
-0.065690398 -0.054124966 0.18568254
-0.065024495 -0.052561041 0.18634361
-0.064361691 -0.051004454 0.18700156
-0.063702032 -0.049455144 0.18765652
-0.063045442 -0.047913078 0.18830836
-0.062391892 -0.046378206 0.18895715
-0.061741382 -0.044850461 0.18960306
-0.061093912 -0.043329813 0.19024581
-0.060449436 -0.041816197 0.19088566
-0.059807867 -0.040309552 0.19152257
-0.059169292 -0.038809858 0.19215646
-0.058533683 -0.037317079 0.19278753
-0.05790098 -0.035831127 0.19341567
-0.057271183 -0.03435199 0.19404095
-0.056644246 -0.032879591 0.19466335
-0.05602017 -0.031413894 0.19528291
-0.055398911 -0.029954869 0.19589967
-0.054780498 -0.028502457 0.19651359
-0.054164886 -0.02705662 0.19712484
-0.053552032 -0.025617301 0.19773322
-0.052941933 -0.024184469 0.1983389
-0.052334577 -0.022758067 0.19894192
-0.051729947 -0.021338068 0.19954216
-0.051128045 -0.019924417 0.20013967
-0.050977007 -0.018642981 0.20032686
-0.051243812 -0.017479692 0.20013374
-0.051510796 -0.016315699 0.19994053
-0.051777914 -0.015150975 0.19974729
-0.052045196 -0.013985548 0.19955385
-0.052312687 -0.012819409 0.19936031
-0.052580297 -0.011652552 0.19916666
-0.052848101 -0.010484979 0.19897288
-0.053116053 -0.0093166865 0.19877896
-0.05338411 -0.0081476681 0.198585
-0.053652406 -0.0069779493 0.19839087
-0.053920835 -0.0058075041 0.19819662
-0.054189488 -0.0046363436 0.19800213
-0.054458261 -0.0034644678 0.19780767
-0.054727197 -0.0022918619 0.19761309
-0.054996282 -0.001118537 0.1974183
-0.055265576 5.55031e-05 0.19722348
-0.055534989 0.0012302659 0.19702852
-0.055804595 0.0024057552 0.19683343
-0.056074381 0.0035819635 0.19663817
-0.056344301 0.0047589056 0.19644284
-0.056614384 0.0059365779 0.19624746
-0.056884632 0.007114958 0.19605187
-0.057155102 0.0082940608 0.19585615
-0.057425693 0.0094739087 0.19566032
-0.057696491 0.010654472 0.1954644
-0.057967395 0.011835773 0.19526833
-0.058238506 0.013017789 0.19507211
-0.058509752 0.014200553 0.1948759
-0.058781162 0.015384041 0.1946795
-0.05905275 0.016568262 0.19448295
-0.059324488 0.01775321 0.19428632
-0.05959639 0.018938903 0.19408959
-0.059868485 0.020125318 0.19389266
-0.060140744 0.02131246 0.19369563
-0.060413152 0.022500351 0.19349855
-0.060685754 0.023688965 0.19330132
-0.060958475 0.024878316 0.19310394
-0.061231434 0.026068408 0.19290644
-0.061504513 0.027259238 0.19270885
-0.061777785 0.028450809 0.19251111
-0.062051207 0.029643107 0.19231322
-0.062324837 0.030836143 0.19211525
-0.063201785 0.031952731 0.19137204
-0.064323917 0.033043757 0.19040751
-0.065452144 0.03414071 0.18943775
-0.066586539 0.035243634 0.18846264
-0.067727163 0.036352575 0.18748221
-0.068873957 0.037467606 0.18649653
-0.070027083 0.038588747 0.18550533
-0.071186528 0.039716065 0.18450877
-0.072352439 0.040849611 0.18350655
-0.073524773 0.041989431 0.1824989
-0.074703604 0.043135583 0.18148562
-0.075889051 0.044288106 0.18046668
-0.07708104 0.045447081 0.17944208
-0.078279749 0.046612531 0.17841175
-0.079485208 0.047784545 0.17737561
-0.080697417 0.048963144 0.17633364
-0.081916496 0.05014839 0.17528579
-0.0831424 0.051340364 0.17423207
-0.084375307 0.052539095 0.17317232
-0.085615247 0.053744666 0.17210656
-0.086862206 0.054957114 0.17103472
-0.088116348 0.056176506 0.16995671
-0.089377686 0.057402909 0.16887251
-0.090646312 0.058636375 0.1677821
-0.091922253 0.059876963 0.16668537
-0.093205541 0.061124742 0.16558233
-0.094496354 0.062379755 0.16447279
-0.095794678 0.063642107 0.16335681
-0.097100571 0.06491182 0.16223434
-0.098414108 0.066188976 0.16110525
-0.099735394 0.06747365 0.15996954
-0.10106446 0.068765901 0.15882719
-0.1053692 0.0700121 0.15500915
-0.10994662 0.071282201 0.15094697
-0.11462694 0.072580822 0.14679354
-0.11941582 0.073908962 0.14254379
-0.12431481 0.075267643 0.13819626
-0.12932782 0.076657929 0.13374755
-0.13445882 0.078080952 0.12919414
-0.13971198 0.079537861 0.12453228
-0.14509185 0.081029907 0.11975804
-0.13423473 -0.26345408 0.11364013
-0.13242339 -0.260245 0.11540633
-0.13062927 -0.25706649 0.11715561
-0.12885211 -0.25391799 0.11888844
-0.12709171 -0.25079918 0.12060487
-0.12534755 -0.24770942 0.12230557
-0.12361957 -0.24464837 0.12399042
-0.12190767 -0.24161583 0.12565961
-0.12040816 -0.23876259 0.1271297
-0.11917086 -0.23612413 0.12835425
-0.11794224 -0.23350424 0.12957031
-0.11672224 -0.23090267 0.13077781
-0.11551078 -0.22831921 0.13197681
-0.11430764 -0.22575369 0.13316762
-0.11311284 -0.22320592 0.13435009
-0.11192632 -0.22067572 0.13552448
-0.11074793 -0.21816292 0.13669071
-0.10957766 -0.21566735 0.13784906
-0.10841548 -0.21318886 0.13899934
-0.10726114 -0.21072721 0.14014181
-0.10611472 -0.20828231 0.14127648
-0.10497595 -0.20585388 0.14240348
-0.10384491 -0.20344183 0.14352295
-0.10272144 -0.20104593 0.14463496
-0.10160547 -0.19866607 0.14573944
-0.10049695 -0.19630207 0.14683664
-0.099395812 -0.19395377 0.14792651
-0.098301917 -0.19162101 0.14900914
-0.09721528 -0.18930367 0.15008458
-0.096135736 -0.18700153 0.15115312
-0.095063373 -0.18471454 0.1522145
-0.093997926 -0.18244244 0.15326896
-0.09367694 -0.18068069 0.15363055
-0.093676925 -0.17913747 0.15369335
-0.093676955 -0.17759581 0.15375608
-0.093676969 -0.1760557 0.15381879
-0.093676984 -0.17451712 0.15388137
-0.093676999 -0.1729801 0.15394405
-0.093677044 -0.17144462 0.15400648
-0.093677104 -0.16991067 0.15406892
-0.093677104 -0.16837823 0.15413123
-0.093677133 -0.16684735 0.15419355
-0.093677178 -0.16531801 0.15425578
-0.093677223 -0.1637902 0.154318
-0.093677223 -0.16226387 0.15438005
-0.093677253 -0.16073908 0.15444216
-0.093677282 -0.15921584 0.15450412
-0.093677312 -0.15769407 0.15456605
-0.093677312 -0.15617383 0.15462795
-0.093677342 -0.15465513 0.1546897
-0.093677372 -0.15313792 0.15475151
-0.093677416 -0.15162221 0.15481314
-0.093677431 -0.15010804 0.15487477
-0.093677461 -0.14859533 0.15493637
-0.093677506 -0.14708416 0.15499786
-0.093677521 -0.14557448 0.15505928
-0.093677536 -0.1440663 0.1551207
-0.093677551 -0.14255959 0.155182
-0.09367758 -0.14105439 0.15524331
-0.09367758 -0.13955069 0.15530452
-0.093677625 -0.13804847 0.15536562
-0.0936777 -0.13654774 0.15542665
-0.093677714 -0.13504848 0.15548766
-0.093677714 -0.13355072 0.15554866
-0.093677685 -0.1320544 0.15560958
-0.093677729 -0.13055959 0.1556704
-0.093677744 -0.12906626 0.15573114
-0.093677923 -0.12757447 0.15579182
-0.093677998 -0.12608412 0.15585241
-0.093678072 -0.12459522 0.15591288
-0.093678147 -0.12310778 0.1559734
-0.093678147 -0.12162179 0.15603396
-0.093678117 -0.12013722 0.15609443
-0.093678087 -0.11865414 0.15615481
-0.093678027 -0.11717249 0.15621513
-0.093677998 -0.1156923 0.15627545
-0.093677968 -0.11421357 0.15633571
-0.093677923 -0.11273629 0.15639585
-0.093677878 -0.11126046 0.15645602
-0.093677863 -0.10978609 0.15651608
-0.093677834 -0.10831317 0.15657607
-0.093677804 -0.10684168 0.15663594
-0.093677759 -0.10537162 0.15669584
-0.093677714 -0.10390302 0.15675572
-0.093677714 -0.10243586 0.15681544
-0.09367764 -0.10097011 0.15687522
-0.093677625 -0.099505812 0.15693477
-0.093677565 -0.098042928 0.1569944
-0.093677536 -0.096581489 0.15705398
-0.093677491 -0.095121473 0.15711346
-0.093677506 -0.093662895 0.15717286
-0.093677461 -0.092205711 0.15723222
-0.093677416 -0.090749964 0.15729147
-0.093677387 -0.089295648 0.15735069
-0.093677327 -0.087842725 0.15740991
-0.093677312 -0.08639124 0.15746903
-0.093677238 -0.084941126 0.15752816
-0.093677223 -0.083492458 0.15758711
-0.091524437 -0.081152044 0.15962622
-0.085672796 -0.077308603 0.16506624
-0.08000347 -0.073584855 0.17033678
-0.074507847 -0.069975227 0.17544588
-0.069178194 -0.066474609 0.18040067
-0.068223715 -0.064748257 0.18133277
-0.067542657 -0.06313765 0.18201327
-0.066864818 -0.061534695 0.1826905
-0.066190273 -0.059939366 0.18336454
-0.065518886 -0.058351588 0.18403545
-0.064850658 -0.056771293 0.18470308
-0.064185604 -0.055198472 0.18536767
-0.063523665 -0.053633034 0.18602905
-0.06286484 -0.052074932 0.18668735
-0.0622091 -0.05052413 0.18734255
-0.061556324 -0.048980538 0.18799475
-0.060906693 -0.047444176 0.18864396
-0.060260072 -0.045914929 0.18929005
-0.059616432 -0.044392787 0.18993318
-0.058975786 -0.042877682 0.19057333
-0.058338076 -0.041369569 0.19121048
-0.057703316 -0.039868403 0.1918447
-0.057071432 -0.038374111 0.19247615
-0.056442484 -0.036886688 0.19310457
-0.055816427 -0.035406068 0.19373012
-0.055193201 -0.033932194 0.19435287
-0.054572821 -0.032465033 0.19497278
-0.053955272 -0.031004533 0.19558984
-0.053340495 -0.029550653 0.19620413
-0.052728489 -0.02810334 0.19681561
-0.05211927 -0.026662558 0.19742432
-0.051512778 -0.025228262 0.19803035
-0.050908983 -0.023800399 0.19863373
-0.05030793 -0.02237894 0.19923425
-0.049709544 -0.020963829 0.19983211
-0.049113855 -0.01955504 0.20042738
-0.049198598 -0.018343329 0.20040017
-0.049464256 -0.017182451 0.20020753
-0.049730092 -0.016020868 0.20001486
-0.049996093 -0.014858574 0.19982195
-0.050262287 -0.013695579 0.19962901
-0.050528616 -0.012531869 0.19943586
-0.050795123 -0.011367444 0.19924268
-0.051061794 -0.010202304 0.19904932
-0.051328614 -0.009036459 0.19885585
-0.051595613 -0.0078698993 0.19866225
-0.051862761 -0.0067026205 0.19846857
-0.052130058 -0.0055346191 0.19827479
-0.052397519 -0.0043659098 0.19808087
-0.052665189 -0.0031964779 0.19788679
-0.052932993 -0.0020263381 0.19769266
-0.053200975 -0.00085547939 0.19749838
-0.053469092 0.00031610206 0.19730392
-0.053737402 0.001488395 0.19710943
-0.054005876 0.0026614144 0.19691476
-0.054274514 0.0038351491 0.19672003
-0.054543301 0.0050096139 0.19652516
-0.054812267 0.0061847903 0.19633007
-0.055081367 0.0073607042 0.19613501
-0.055350631 0.0085373335 0.19593975
-0.055620089 0.0097146928 0.19574443
-0.055889741 0.01089276 0.19554892
-0.056159526 0.012071561 0.1953533
-0.056429476 0.013251089 0.19515756
-0.056699589 0.014431339 0.1949617
-0.056969851 0.015612327 0.19476584
-0.057240292 0.016794033 0.19456977
-0.057510883 0.017976478 0.19437358
-0.057781637 0.019159649 0.19417727
-0.058052585 0.020343546 0.19398078
-0.058323681 0.02152817 0.19378424
-0.058594957 0.022713535 0.1935876
-0.058866382 0.023899622 0.19339079
-0.059137985 0.025086455 0.19319385
-0.059409738 0.026274003 0.19299686
-0.059681669 0.027462292 0.19279972
-0.059953809 0.028651319 0.1926024
-0.060226068 0.029841088 0.19240502
-0.060498491 0.031031575 0.19220746
-0.061471105 0.032133143 0.19137418
-0.062586457 0.033222567 0.19041142
-0.063707799 0.034317907 0.18944353
-0.06483531 0.035419196 0.18847036
-0.065968886 0.036526501 0.18749186
-0.067108691 0.037639849 0.18650806
-0.068254799 0.038759291 0.18551883
-0.06940712 0.039884895 0.18452412
-0.070565835 0.041016705 0.18352401
-0.071730956 0.042154759 0.18251839
-0.072902516 0.043299131 0.18150711
-0.074080601 0.044449851 0.18049029
-0.075265244 0.045606993 0.17946777
-0.076456517 0.046770595 0.17843947
-0.077654451 0.047940731 0.17740548
-0.078859136 0.049117438 0.17636564
-0.08007063 0.050300762 0.17531991
-0.081288844 0.051490791 0.17426848
-0.082514033 0.052687563 0.17321092
-0.08374621 0.05389113 0.17214736
-0.08498539 0.055101559 0.17107779
-0.086231604 0.056318909 0.1700021
-0.087484986 0.057543233 0.16892022
-0.088745594 0.058774598 0.1678322
-0.090013474 0.060013063 0.16673779
-0.091288626 0.061258689 0.16563717
-0.092571214 0.062511526 0.16453007
-0.093861282 0.063771658 0.16341653
-0.09515886 0.065039165 0.1622965
-0.096463978 0.066314049 0.16116998
-0.097776845 0.067596428 0.1600368
-0.099097371 0.068886347 0.15889704
-0.10339999 0.070130706 0.15506279
-0.10794619 0.071399517 0.15100956
-0.11259446 0.072696783 0.1468654
-0.11734992 0.074023455 0.14262554
-0.12221482 0.075380556 0.13828823
-0.12719266 0.076769173 0.13385022
-0.13228743 0.078190409 0.12930784
-0.1375033 0.07964544 0.12465763
-0.14284465 0.081135452 0.11989543
-0.148316 0.082661748 0.11501738
-0.13291058 -0.26515058 0.11270589
-0.13110435 -0.26193124 0.11447769
-0.12931535 -0.25874257 0.11623263
-0.12754321 -0.25558406 0.11797094
-0.12578779 -0.25245529 0.11969292
-0.12404862 -0.24935573 0.12139893
-0.1223256 -0.24628505 0.12308908
-0.12061854 -0.24324286 0.12476361
-0.11892734 -0.24022883 0.12642255
-0.11765024 -0.2375502 0.12769192
-0.11642686 -0.23492512 0.1289103
-0.11521207 -0.23231843 0.13012016
-0.11400577 -0.22972989 0.13132158
-0.11280783 -0.22715931 0.13251474
-0.11161816 -0.22460654 0.13369954
-0.11043671 -0.22207136 0.13487619
-0.10926339 -0.21955359 0.13604489
-0.10809812 -0.21705313 0.13720536
-0.1069409 -0.21456976 0.13835788
-0.10579152 -0.21210328 0.13950264
-0.10464996 -0.20965354 0.1406396
-0.10351612 -0.20722038 0.14176884
-0.10238993 -0.20480356 0.14289054
-0.10127129 -0.20240298 0.14400467
-0.10016008 -0.20001841 0.14511138
-0.099056333 -0.19764978 0.14621067
-0.097959861 -0.19529685 0.14730269
-0.09687072 -0.19295955 0.14838737
-0.095788717 -0.19063762 0.14946505
-0.094713837 -0.18833099 0.15053561
-0.093677536 -0.18606108 0.15156963
-0.093677491 -0.18450782 0.1516338
-0.093677461 -0.18295607 0.15169796
-0.093677416 -0.18140587 0.15176204
-0.093677372 -0.17985725 0.15182599
-0.093677402 -0.17831025 0.15188992
-0.093677402 -0.17676476 0.15195376
-0.093677446 -0.17522088 0.1520175
-0.093677461 -0.17367853 0.15208119
-0.093677491 -0.17213774 0.15214476
-0.093677536 -0.17059848 0.15220839
-0.093677521 -0.16906072 0.15227193
-0.093677565 -0.16752459 0.15233532
-0.09367758 -0.16598994 0.15239877
-0.093677625 -0.16445687 0.15246195
-0.09367764 -0.1629253 0.15252525
-0.09367767 -0.16139527 0.15258843
-0.0936777 -0.15986678 0.15265152
-0.093677729 -0.1583398 0.15271461
-0.093677789 -0.15681437 0.15277761
-0.093677774 -0.15529044 0.15284055
-0.093677804 -0.15376803 0.15290344
-0.093677819 -0.15224716 0.15296623
-0.093677849 -0.15072781 0.15302896
-0.093677878 -0.14920995 0.15309164
-0.093677923 -0.1476936 0.15315425
-0.093677953 -0.1461788 0.15321684
-0.093677953 -0.14466546 0.15327933
-0.093677998 -0.14315367 0.15334174
-0.093677998 -0.14164335 0.15340412
-0.093678027 -0.14013451 0.15346643
-0.093678072 -0.13862723 0.15352866
-0.093678072 -0.13712139 0.15359083
-0.093678117 -0.13561706 0.15365294
-0.093678132 -0.13411424 0.15371498
-0.093678176 -0.13261291 0.15377697
-0.093678176 -0.13111305 0.15383902
-0.093678236 -0.12961468 0.15390083
-0.093678296 -0.12811783 0.15396261
-0.0936784 -0.12662247 0.15402427
-0.093678445 -0.12512854 0.1540859
-0.093678534 -0.12363612 0.15414754
-0.093678623 -0.12214518 0.15420908
-0.093678564 -0.12065565 0.15427062
-0.093678549 -0.11916757 0.15433216
-0.093678519 -0.11768098 0.15439352
-0.093678474 -0.11619584 0.15445495
-0.09367843 -0.11471218 0.15451628
-0.0936784 -0.11322997 0.15457752
-0.093678355 -0.11174922 0.15463874
-0.09367834 -0.11026994 0.15469986
-0.093678251 -0.10879208 0.15476102
-0.093678221 -0.1073157 0.15482199
-0.093678191 -0.10584077 0.15488297
-0.093678132 -0.10436728 0.15494388
-0.093678117 -0.10289526 0.15500477
-0.093678102 -0.10142467 0.15506551
-0.093678057 -0.099955522 0.15512615
-0.093678042 -0.098487817 0.15518692
-0.093678027 -0.097021557 0.15524745
-0.093677968 -0.095556714 0.15530804
-0.093677953 -0.09409333 0.15536851
-0.093677893 -0.092631347 0.15542898
-0.093677863 -0.09117081 0.15548936
-0.093677849 -0.089711703 0.15554965
-0.093677789 -0.088254012 0.15560985
-0.093677744 -0.086797751 0.15567008
-0.093677744 -0.085342921 0.15573019
-0.093080476 -0.083638839 0.15634248
-0.087159649 -0.079726599 0.16187611
-0.081424534 -0.07593707 0.16723621
-0.075866535 -0.072264552 0.17243069
-0.07047756 -0.068703748 0.17746726
-0.066696644 -0.065829419 0.18101645
-0.066019699 -0.064217284 0.18169728
-0.065345958 -0.062612832 0.18237481
-0.064675421 -0.06101599 0.18304917
-0.064007998 -0.059426673 0.18372041
-0.063343793 -0.0578449 0.1843884
-0.062682718 -0.056270551 0.18505317
-0.062024727 -0.054703608 0.1857149
-0.061369866 -0.053144019 0.18637353
-0.060718015 -0.051591709 0.18702915
-0.060069218 -0.050046649 0.18768159
-0.059423447 -0.048508778 0.18833104
-0.05878067 -0.046978053 0.18897745
-0.058140874 -0.045454413 0.18962091
-0.057504043 -0.043937821 0.19026136
-0.056870148 -0.042428225 0.19089887
-0.056239158 -0.040925574 0.19153342
-0.055611074 -0.039429825 0.19216505
-0.054985836 -0.037940912 0.19279382
-0.054363459 -0.036458801 0.19341975
-0.053743944 -0.03498346 0.19404283
-0.053127244 -0.033514827 0.19466302
-0.052513346 -0.03205286 0.1952804
-0.051902235 -0.030597515 0.19589502
-0.051293865 -0.029148746 0.1965068
-0.050688252 -0.027706504 0.19711593
-0.050085366 -0.026270755 0.1977222
-0.049485177 -0.024841439 0.19832584
-0.048887685 -0.023418535 0.19892675
-0.048292845 -0.022001985 0.19952491
-0.047700673 -0.020591743 0.20012048
-0.047163382 -0.019202709 0.20066532
-0.047427818 -0.01804496 0.20047328
-0.047692373 -0.016886488 0.20028105
-0.047957078 -0.015727311 0.20008883
-0.04822199 -0.014567442 0.19989634
-0.048487037 -0.013406854 0.19970384
-0.048752263 -0.012245562 0.19951114
-0.049017653 -0.011083569 0.19931832
-0.049283192 -0.0099208541 0.19912547
-0.049548924 -0.0087574422 0.19893241
-0.049814761 -0.0075933076 0.19873926
-0.050080821 -0.0064284652 0.19854605
-0.050347 -0.0052629076 0.19835272
-0.050613374 -0.0040966421 0.19815916
-0.050879866 -0.0029296502 0.19796556
-0.051146552 -0.001761958 0.19777188
-0.051413387 -0.00059354678 0.19757804
-0.051680416 0.00057557225 0.19738403
-0.051947579 0.0017454177 0.19719002
-0.052214935 0.0029159747 0.19699579
-0.052482441 0.0040872432 0.19680145
-0.052750081 0.0052592382 0.19660702
-0.053017914 0.0064319558 0.19641247
-0.053285897 0.007605385 0.19621778
-0.053554028 0.0087795444 0.19602305
-0.053822368 0.0099544153 0.19582811
-0.054090858 0.011130013 0.19563302
-0.054359496 0.012306325 0.19543788
-0.054628313 0.013483357 0.19524264
-0.054897293 0.014661126 0.19504723
-0.055166423 0.015839618 0.19485176
-0.055435702 0.017018829 0.19465616
-0.05570519 0.018198766 0.19446036
-0.055974782 0.019379437 0.1942645
-0.056244552 0.020560835 0.19406858
-0.056514487 0.021742947 0.19387251
-0.056784645 0.022925787 0.1936762
-0.057054922 0.02410936 0.1934799
-0.057325363 0.025293671 0.1932835
-0.057595983 0.026478715 0.19308689
-0.057866782 0.027664475 0.1928902
-0.05813773 0.028850969 0.19269338
-0.058408812 0.0300382 0.19249645
-0.058680132 0.031226158 0.19229937
-0.05974704 0.03231287 0.19137624
-0.060855567 0.033400711 0.19041538
-0.061970145 0.034494437 0.18944931
-0.063090742 0.035594098 0.18847802
-0.064217404 0.036699746 0.18750143
-0.065350264 0.037811413 0.18651953
-0.066489279 0.038929187 0.18553224
-0.067634597 0.040053077 0.18453953
-0.068786189 0.041183144 0.18354142
-0.069944113 0.042319447 0.18253776
-0.071108475 0.043462038 0.18152851
-0.072279245 0.04461097 0.18051371
-0.073456585 0.045766287 0.17949328
-0.074640468 0.046928041 0.17846709
-0.075830936 0.048096307 0.17743525
-0.07702814 0.049271122 0.1763975
-0.07823205 0.050452538 0.17535403
-0.07944271 0.051640622 0.1743046
-0.080660224 0.052835427 0.17324936
-0.081884652 0.054037012 0.17218804
-0.083116069 0.055245422 0.17112073
-0.084354401 0.056460738 0.17004734
-0.085599914 0.057682991 0.16896772
-0.086852565 0.058912277 0.16788203
-0.088112444 0.060148612 0.16679004
-0.089379504 0.061392091 0.16569173
-0.090653986 0.062642761 0.16458708
-0.091935799 0.063900709 0.16347602
-0.093225151 0.065165967 0.16235849
-0.09452191 0.066438608 0.1612345
-0.095826373 0.0677187 0.16010383
-0.097138464 0.069006316 0.15896651
-0.10143873 0.07024885 0.15511617
-0.10595396 0.07151638 0.15107188
-0.1105703 0.072812252 0.14693701
-0.11529265 0.074137449 0.14270708
-0.12012371 0.075493008 0.13837981
-0.1250667 0.076879941 0.13395235
-0.13012548 0.078299403 0.12942106
-0.13530433 0.079752527 0.12478232
-0.14060739 0.08124052 0.12003222
-0.14603928 0.082764655 0.11516681
-0.13340318 -0.27011022 0.1099757
-0.13158467 -0.2668494 0.11177033
-0.12978351 -0.26361972 0.11354792
-0.12799957 -0.26042086 0.11530834
-0.1262325 -0.25725231 0.11705226
-0.12448211 -0.25411361 0.11877966
-0.12274796 -0.25100425 0.12049103
-0.12102988 -0.24792379 0.12218666
-0.11932774 -0.24487199 0.12386641
-0.11764139 -0.2418485 0.12553063
-0.1161294 -0.23897642 0.12702945
-0.11491127 -0.23634616 0.12825027
-0.11370173 -0.23373434 0.1294626
-0.11250061 -0.23114073 0.13066635
-0.11130777 -0.2285651 0.13186184
-0.11012329 -0.22600731 0.13304901
-0.10894689 -0.22346713 0.13422802
-0.10777864 -0.22094446 0.13539883
-0.10661839 -0.21843907 0.13656166
-0.10546614 -0.21595082 0.13771647
-0.10432176 -0.21347955 0.13886341
-0.10318512 -0.21102497 0.14000255
-0.10205613 -0.20858701 0.14113408
-0.1009348 -0.20616548 0.1422579
-0.099820957 -0.20376015 0.14337426
-0.09871459 -0.20137092 0.14448315
-0.097615525 -0.19899765 0.14558461
-0.096523836 -0.19664012 0.14667875
-0.09543933 -0.19429821 0.14776567
-0.094362035 -0.19197176 0.14884537
-0.093678057 -0.18992949 0.14955455
-0.093678072 -0.18836761 0.14962003
-0.093678012 -0.18680727 0.14968547
-0.093677968 -0.18524852 0.14975086
-0.093677923 -0.18369135 0.14981613
-0.093677893 -0.18213576 0.14988133
-0.093677834 -0.18058173 0.14994651
-0.093677834 -0.17902932 0.15001157
-0.093677834 -0.17747846 0.1500766
-0.093677908 -0.17592922 0.15014151
-0.093677938 -0.17438149 0.15020636
-0.093677878 -0.17283532 0.15027115
-0.093677953 -0.17129076 0.15033585
-0.093677938 -0.16974768 0.15040046
-0.093678027 -0.1682062 0.15046507
-0.093678012 -0.16666624 0.15052962
-0.093678027 -0.16512784 0.15059412
-0.093678072 -0.163591 0.15065846
-0.093678087 -0.1620557 0.15072271
-0.093678117 -0.16052191 0.15078709
-0.093678117 -0.1589897 0.15085122
-0.093678176 -0.15745902 0.15091535
-0.093678251 -0.15592986 0.15097937
-0.093678221 -0.15440224 0.15104339
-0.093678266 -0.15287614 0.15110731
-0.093678281 -0.15135157 0.15117124
-0.093678296 -0.14982849 0.15123501
-0.09367834 -0.148307 0.15129882
-0.093678385 -0.14678699 0.15136248
-0.0936784 -0.1452685 0.15142611
-0.093678415 -0.14375153 0.15148962
-0.09367843 -0.14223605 0.15155315
-0.09367846 -0.14072213 0.15161654
-0.093678489 -0.13920966 0.15167996
-0.093678504 -0.13769874 0.15174323
-0.093678564 -0.13618931 0.1518065
-0.093678549 -0.13468137 0.15186965
-0.093678623 -0.13317496 0.15193278
-0.093678623 -0.13167003 0.15199581
-0.093678668 -0.13016659 0.15205881
-0.093678772 -0.12866469 0.15212166
-0.093678862 -0.12716427 0.15218443
-0.093678936 -0.12566534 0.15224722
-0.093678996 -0.12416787 0.15230992
-0.0936791 -0.12267191 0.15237254
-0.093679056 -0.12117735 0.15243518
-0.093679026 -0.1196843 0.1524978
-0.093678936 -0.11819269 0.15256044
-0.093678936 -0.11670259 0.15262282
-0.093678877 -0.11521395 0.15268525
-0.093678877 -0.11372678 0.15274757
-0.093678847 -0.11224107 0.15280995
-0.093678772 -0.11075683 0.15287217
-0.093678758 -0.10927408 0.15293437
-0.093678758 -0.10779278 0.15299642
-0.093678668 -0.10631291 0.1530585
-0.093678668 -0.10483454 0.15312052
-0.093678594 -0.10335761 0.15318245
-0.093678594 -0.10188213 0.15324432
-0.093678504 -0.10040808 0.15330619
-0.093678504 -0.09893553 0.15336791
-0.093678474 -0.09746439 0.1534296
-0.0936784 -0.095994696 0.15349123
-0.093678385 -0.094526462 0.1535528
-0.09367837 -0.093059666 0.15361431
-0.093678311 -0.091594309 0.15367576
-0.093678266 -0.090130374 0.15373716
-0.093678251 -0.088667907 0.15379846
-0.093678191 -0.087206833 0.15385973
-0.093678162 -0.085747212 0.15392092
-0.088669226 -0.08218161 0.15863711
-0.082867041 -0.078324743 0.16408873
-0.077245414 -0.074587867 0.1693708
-0.07179597 -0.070965454 0.17449099
-0.066510946 -0.067452349 0.17945668
-0.064498693 -0.065295495 0.18138173
-0.06382899 -0.06368953 0.18205959
