# .PCD v0.7 - Point Cloud Data file format
VERSION 0.7
FIELDS x y z
SIZE 4 4 4
TYPE F F F
COUNT 1 1 1
WIDTH 1378
HEIGHT 1
VIEWPOINT 0 0 0 1 0 0 0
POINTS 1378
DATA ascii
0.081906706 0.064945243 0.16342556
0.081242815 0.066637218 0.16213253
0.080573633 0.068342686 0.16082913
0.078441113 0.071086988 0.15707532
0.025099993 -0.10735818 0.097459674
0.03175956 -0.10537206 0.10767356
0.038100764 -0.10348083 0.11739904
0.044145942 -0.10167791 0.12667066
0.049918801 -0.09995693 0.13552454
0.054091424 -0.09843187 0.14188215
0.055109531 -0.097210065 0.14330599
0.056120306 -0.095997103 0.14471954
0.05712378 -0.094792873 0.14612299
0.058120027 -0.0935973 0.14751622
0.059109166 -0.092410274 0.14889956
0.060091272 -0.091231704 0.15027305
0.061066389 -0.090061486 0.15163681
0.062034592 -0.08889959 0.15299079
0.062996015 -0.08774586 0.15433535
0.063950643 -0.086600222 0.15567043
0.064898595 -0.085462615 0.15699625
0.065839931 -0.084332973 0.15831265
0.066774741 -0.083211161 0.15962005
0.067703038 -0.082097113 0.16091827
0.068624929 -0.080990791 0.1622076
0.069540501 -0.079892054 0.16348803
0.070449725 -0.078800857 0.16475961
0.07135275 -0.077717125 0.16602251
0.072249651 -0.07664077 0.1672768
0.073140427 -0.075571716 0.1685226
0.090844139 0.045280851 0.17835027
0.090245456 0.04681829 0.1771749
0.089642346 0.048367314 0.1759907
0.089034587 0.049928159 0.17479739
0.088422164 0.051500928 0.17359504
0.087805092 0.053085756 0.1723834
0.087183237 0.054682788 0.17116252
0.086556584 0.056292158 0.16993213
0.085925072 0.057914015 0.16869226
0.085288644 0.059548505 0.16744268
0.084647238 0.061195768 0.16618335
0.084000796 0.062855981 0.16491416
0.083349273 0.06452927 0.1636349
0.082692578 0.066215806 0.16234553
0.082030669 0.067915723 0.161046
0.081363484 0.069629207 0.15973607
0.025764093 -0.10752089 0.096086025
0.032418638 -0.1055274 0.10635084
0.038754568 -0.10362934 0.11612418
0.044794261 -0.10182004 0.12544048
0.050561011 -0.10009313 0.13433596
0.055319861 -0.098510541 0.14165288
0.056332499 -0.097289622 0.14307618
0.05733794 -0.096077546 0.14448926
0.058336034 -0.094874173 0.14589214
0.059327006 -0.093679428 0.14728492
0.06031093 -0.092493236 0.14866781
0.061287805 -0.091315478 0.15004075
0.062257752 -0.090146102 0.15140408
0.063220844 -0.088984966 0.15275764
0.0641772 -0.087832004 0.15410182
0.065126777 -0.086687148 0.15543643
0.066069722 -0.085550293 0.1567618
0.067006111 -0.084421374 0.15807787
0.067936018 -0.083300278 0.15938482
0.068859458 -0.082186967 0.16068274
0.06977655 -0.081081331 0.16197166
0.070687294 -0.079983279 0.16325173
0.07159178 -0.078892767 0.16452295
0.072490096 -0.077809699 0.16578549
0.073382333 -0.076733992 0.16703951
0.07426846 -0.075665593 0.16828498
0.091607288 0.046459336 0.17734569
0.091010556 0.048003696 0.1761646
0.090409324 0.049559772 0.17497459
0.089803472 0.051127728 0.17377549
0.089193031 0.052707672 0.17256722
0.088577881 0.054299749 0.17134967
0.087957978 0.05590412 0.17012268
0.087333307 0.0575209 0.1688863
0.086703762 0.059150241 0.16764027
0.086069301 0.060792308 0.16638452
0.085429862 0.06244722 0.16511896
0.084785372 0.064115167 0.16384339
0.084135845 0.065796286 0.16255769
0.083481163 0.067490697 0.16126195
0.082821265 0.069198623 0.15995577
0.026430473 -0.10768416 0.094707519
0.033079967 -0.10568326 0.10502365
0.039410532 -0.10377834 0.11484498
0.045444593 -0.10196261 0.12420633
0.051205263 -0.10022973 0.13314363
0.056545928 -0.09858907 0.141424
0.057553202 -0.097369045 0.14284682
0.058553189 -0.096157834 0.14425939
0.059546024 -0.094955318 0.14566171
0.060531706 -0.093761429 0.14705405
0.061510384 -0.092576057 0.1484364
0.062482059 -0.091399118 0.14980897
0.063446894 -0.090230525 0.15117174
0.06440489 -0.089070179 0.15252492
0.065356165 -0.087917998 0.15386868
0.066300765 -0.086773895 0.15520284
0.067238718 -0.085637793 0.15652779
0.06817019 -0.084509611 0.1578435
0.069095179 -0.083389252 0.15914997
0.070013762 -0.082276627 0.16044754
0.070925996 -0.081171691 0.16173604
0.071832046 -0.08007434 0.16301581
0.072731763 -0.078984499 0.1642867
0.073625356 -0.077902094 0.16554892
0.074512929 -0.076827049 0.16680264
0.075394422 -0.075759292 0.16804773
0.092963219 0.046101935 0.17751563
0.092372909 0.047641624 0.17633775
0.091778129 0.049192976 0.17515096
0.091178834 0.050756138 0.17395517
0.090574935 0.052331235 0.17275023
0.089966416 0.053918406 0.171536
0.089353234 0.055517782 0.17031249
0.088735312 0.057129517 0.16907948
0.088112578 0.05875374 0.16783696
0.087485015 0.060390621 0.16658476
0.086852565 0.062040292 0.16532281
0.086215109 0.063702911 0.16405091
0.085572645 0.065378621 0.16276893
0.084925085 0.067067593 0.16147685
0.084272414 0.068769962 0.16017452
0.063393176 0.085002825 0.12434638
0.027099252 -0.10784799 0.093324333
0.033743545 -0.10583967 0.10369202
0.040068686 -0.10392781 0.1135616
0.0460971 -0.10210565 0.1229682
0.051851571 -0.10036678 0.13194746
0.057349384 -0.098705739 0.14052632
0.058771521 -0.097448319 0.14261797
0.059766188 -0.096237957 0.14402995
0.060753673 -0.095036313 0.14543179
0.061734095 -0.093843251 0.14682361
0.062707558 -0.092658713 0.14820549
0.063674077 -0.091482595 0.14957759
0.064633787 -0.090314791 0.15093991
0.065586731 -0.089155242 0.1522927
0.06653294 -0.088003829 0.15363589
0.067472517 -0.086860493 0.15496972
0.068405554 -0.085725129 0.15629423
0.069332108 -0.084597677 0.15760955
0.070252225 -0.083478056 0.15891567
0.071165979 -0.082366154 0.16021281
0.072073415 -0.081261903 0.16150099
0.072974622 -0.080165237 0.16278037
0.07386966 -0.079076096 0.16405094
0.074758574 -0.077994332 0.1653128
0.075641513 -0.076919943 0.16656613
0.076518416 -0.075852826 0.16781095
0.093729407 0.047281113 0.17651024
0.093141049 0.048827764 0.17532665
0.092548206 0.050386161 0.17413408
0.091950849 0.051956423 0.17293248
0.091348901 0.05353871 0.17172155
0.090742365 0.05513313 0.17050141
0.090131178 0.056739841 0.16927189
0.089515209 0.058358986 0.16803285
0.088894501 0.059990715 0.16678414
0.088268906 0.061635174 0.16552565
0.087638438 0.063292488 0.16425744
0.087002993 0.064962849 0.16297919
0.086362541 0.066646382 0.16169086
0.085717022 0.068343237 0.16039231
0.075852349 0.07669583 0.14325458
0.027770311 -0.10801241 0.091936231
0.034409389 -0.10599661 0.10235572
0.040728986 -0.10407779 0.1122739
0.046751678 -0.10224916 0.1217261
0.052499875 -0.10050428 0.13074753
0.057991683 -0.098837554 0.1393666
0.059987471 -0.097527429 0.14238948
0.060976803 -0.096317939 0.14380088
0.061959058 -0.095117137 0.14520225
0.06293425 -0.093924932 0.14659363
0.063902512 -0.092741199 0.14797503
0.06486389 -0.091565914 0.14934662
0.065818459 -0.090398908 0.15070844
0.066766337 -0.089240141 0.15206084
0.067707539 -0.088089496 0.15340358
0.068642125 -0.08694692 0.15473697
0.069570214 -0.085812315 0.15606108
0.070491865 -0.084685594 0.15737599
0.071407109 -0.083566695 0.15868175
0.072316051 -0.082455501 0.15997851
0.073218748 -0.081351966 0.16126639
0.074115217 -0.08025597 0.16254532
0.075005502 -0.079167485 0.16381556
0.075889751 -0.078086421 0.16507706
0.076768041 -0.077012673 0.1663301
0.094498113 0.048464116 0.17550153
0.093911707 0.050017774 0.17431223
0.093320817 0.051583242 0.17311376
0.092725426 0.053160656 0.17190626
0.092125446 0.054750167 0.17068952
0.091520905 0.056351885 0.16946337
0.090911701 0.057965972 0.16822782
0.090297759 0.059592571 0.16698262
0.089678988 0.061231837 0.16572773
0.089055434 0.062883899 0.1644631
0.088426977 0.064548917 0.16318849
0.087793559 0.066227049 0.16190386
0.087155178 0.067918435 0.16060904
0.086511716 0.069623247 0.15930408
0.035077527 -0.10615408 0.10101503
0.041391551 -0.10422827 0.110982
0.047408387 -0.10239312 0.12047988
0.053150341 -0.1006422 0.12954375
0.058635995 -0.098969802 0.13820332
0.061201125 -0.097606376 0.1421614
0.062185183 -0.096397772 0.14357236
0.063162088 -0.095197834 0.14497316
0.064132124 -0.094006449 0.146364
0.065095186 -0.092823565 0.14774498
0.066051453 -0.09164907 0.14911604
0.067000926 -0.090482846 0.1504775
0.067943737 -0.089324884 0.15182933
0.068879917 -0.088175021 0.15317172
0.069809586 -0.087033212 0.15450472
0.070732757 -0.085899323 0.15582842
0.071649507 -0.084773354 0.15714282
0.072559893 -0.083655164 0.15844828
0.073464021 -0.082544684 0.15974456
0.07436195 -0.081441835 0.16103211
0.075253665 -0.08034654 0.16231075
0.076139286 -0.079258732 0.16358054
0.077018932 -0.078178316 0.1648418
0.077892557 -0.077105239 0.16609451
0.09584938 0.048102025 0.17567569
0.095269307 0.049650978 0.17448953
0.094684854 0.05121167 0.17329445
0.094095945 0.052784249 0.17209023
0.093502551 0.05436885 0.17087677
0.092904583 0.055965614 0.16965407
0.092302039 0.057574686 0.16842189
0.091694802 0.059196189 0.1671803
0.091082871 0.06083028 0.1659289
0.090466142 0.06247713 0.16466784
0.089844614 0.064136833 0.16339687
0.089218184 0.065809608 0.16211587
0.088586837 0.067495547 0.16082489
0.087950498 0.069194838 0.1595237
0.03574793 -0.10631208 0.099669695
0.042056307 -0.10437927 0.10968575
0.048067287 -0.10253757 0.11922964
0.053802803 -0.10078055 0.12833625
0.059282303 -0.099102437 0.13703644
0.062412471 -0.097685181 0.14193383
0.063391179 -0.096477449 0.14334425
0.064362928 -0.095278338 0.14474458
0.065327689 -0.094087824 0.14613488
0.06628561 -0.09290576 0.14751533
0.067236751 -0.091732055 0.14888594
0.068181217 -0.090566665 0.15024695
0.069118947 -0.089409456 0.15159836
0.07005018 -0.088260375 0.15294027
0.070974857 -0.087119311 0.15427285
0.071893141 -0.085986197 0.15559611
0.072805017 -0.084860951 0.15691018
0.073710591 -0.083743483 0.15821514
0.074609905 -0.082633719 0.15951121
0.075503096 -0.081531562 0.16079831
0.076390103 -0.080436945 0.1620765
0.077271044 -0.079349801 0.16334602
0.078145996 -0.07827007 0.1646069
0.079015091 -0.077197626 0.16585931
0.096621081 0.049285747 0.17466614
0.096043006 0.0508417 0.17347431
0.095460564 0.052409478 0.17227337
0.094873652 0.053989202 0.17106324
0.09428224 0.055581033 0.16984388
0.093686283 0.057185095 0.16861519
0.093085736 0.058801543 0.16737697
0.092480525 0.060430516 0.16612917
0.091870606 0.062072136 0.16487169
0.091255948 0.063726589 0.16360432
0.090636462 0.065394014 0.16232705
0.090012103 0.067074537 0.16103977
0.089382797 0.068768352 0.15974233
0.036420599 -0.10647064 0.098319709
0.042723224 -0.10453075 0.10838512
0.048728302 -0.10268247 0.11797532
0.054457352 -0.10091934 0.12712473
0.059930623 -0.099235497 0.13586587
0.063621491 -0.097763844 0.14170665
0.064594954 -0.096556984 0.1431165
0.065561458 -0.095358729 0.14451632
0.066521049 -0.094169036 0.14590621
0.067473814 -0.092987798 0.14728609
0.068419859 -0.09181492 0.14865634
0.069359258 -0.090650305 0.1500169
0.070292011 -0.089493886 0.15136772
0.071218222 -0.088345557 0.15270925
0.072138011 -0.087205261 0.15404141
0.073051378 -0.086072892 0.15536422
0.073958397 -0.084948391 0.15667793
0.074859157 -0.083831623 0.1579825
0.075753734 -0.08272256 0.15927818
0.076642156 -0.081621118 0.1605649
0.077524483 -0.080527186 0.16184276
0.078400761 -0.079440728 0.16311193
0.079271108 -0.078361645 0.16437244
0.080135584 -0.077289857 0.16562447
0.097967088 0.048922092 0.174842
0.097395346 0.050473325 0.17365333
0.096819282 0.052036311 0.17245573
0.096238792 0.053611189 0.171249
0.095653906 0.055198114 0.17003292
0.095064491 0.056797221 0.1688076
0.094470546 0.058408633 0.16757286
0.093872026 0.060032487 0.16632852
0.093268871 0.061668959 0.16507462
0.092661008 0.063318163 0.16381082
0.092048422 0.064980268 0.16253725
0.091430992 0.066655412 0.16125372
0.09080869 0.068343773 0.15995994
0.073056608 0.082706153 0.12844652
0.037095591 -0.10662973 0.096965104
0.043392435 -0.10468274 0.10708013
0.049391434 -0.10282786 0.11671689
0.055114001 -0.10105859 0.12590948
0.060580999 -0.099368967 0.13469169
0.064828217 -0.097842358 0.14147994
0.06579642 -0.096636362 0.14288929
0.066757694 -0.095438957 0.14428857
0.067712113 -0.094250083 0.14567786
0.068659768 -0.09306968 0.14705738
0.069600776 -0.091897607 0.1484271
0.070535079 -0.090733796 0.14978716
0.071462825 -0.089578152 0.15113759
0.072384119 -0.088430598 0.15247864
0.073298961 -0.087291069 0.15381038
0.074207455 -0.086159438 0.1551328
0.075109631 -0.085035644 0.1564461
0.076005638 -0.083919615 0.15775037
0.076895431 -0.082811266 0.15904555
0.077779114 -0.081710503 0.1603319
0.078656763 -0.080617264 0.16160944
0.079528436 -0.079531468 0.16287827
0.080394179 -0.078453057 0.16413847
0.098741859 0.050106529 0.17383161
0.098172128 0.051664747 0.17263731
0.097598061 0.053234827 0.17143378
0.097019583 0.054816868 0.17022115
0.096436724 0.05641102 0.1689992
0.09584932 0.058017425 0.16776782
0.095257446 0.059636217 0.16652706
0.094660982 0.06126754 0.16527662
0.094059885 0.062911548 0.16401646
0.093454093 0.064568356 0.16274649
0.092843533 0.066238165 0.1614666
0.092228189 0.067921102 0.16017663
0.08481285 0.074662551 0.14681059
0.037772909 -0.10678937 0.09560591
0.044063866 -0.10483524 0.10577089
0.050056815 -0.10297371 0.11545435
0.055772752 -0.10119829 0.12469026
0.061233357 -0.099502847 0.13351378
0.066032618 -0.097920731 0.14125362
0.066995621 -0.096715577 0.1426625
0.067951694 -0.095519036 0.14406121
0.068900973 -0.094331011 0.14545003
0.069843575 -0.093151405 0.14682907
0.070779443 -0.091980129 0.14819828
0.071708754 -0.090817124 0.14955786
0.072631523 -0.089662254 0.15090784
0.073547885 -0.088515483 0.15224853
0.074457824 -0.087376699 0.1535798
0.075361446 -0.08624582 0.15490183
0.076258823 -0.085122764 0.15621468
0.077150017 -0.084007449 0.15751851
0.078035042 -0.082899794 0.15881339
0.078914076 -0.081799746 0.16009939
0.079787031 -0.0807072 0.16137657
0.080654085 -0.07962206 0.16264501
0.081515208 -0.078544289 0.16390485
0.10008262 0.049741294 0.17400917
0.099519163 0.051294804 0.17281801
0.098951429 0.052860081 0.17161781
0.098379374 0.054437276 0.17040855
0.097802952 0.056026518 0.16918993
0.09722209 0.057627942 0.16796201
0.096636802 0.059241686 0.16672468
0.096046984 0.060867887 0.16547781
0.095452562 0.06250672 0.16422123
0.09485355 0.064158276 0.16295484
0.094249815 0.06582278 0.16167858
0.093641356 0.067500331 0.16039225
0.093028098 0.069191106 0.15909591
0.038452536 -0.10694955 0.094241977
0.044737518 -0.10498828 0.1044572
0.050724283 -0.10312005 0.11418763
0.056433603 -0.10133842 0.12346718
0.06188783 -0.099637166 0.13233221
0.067100272 -0.0980113 0.14080432
0.068192527 -0.096794635 0.14243606
0.069143459 -0.095598958 0.14383435
0.070087597 -0.094411761 0.14522263
0.071025074 -0.093232974 0.14660117
0.071955919 -0.092062533 0.1479699
0.072880238 -0.090900302 0.14932901
0.073798031 -0.089746222 0.15067866
0.074709445 -0.088600218 0.15201879
0.075614527 -0.087462187 0.15334964
0.076513276 -0.086332038 0.15467119
0.077405885 -0.085209697 0.15598372
0.07829231 -0.08409512 0.15728718
0.079172641 -0.08298818 0.15858161
0.080046937 -0.08188881 0.15986723
0.080915272 -0.080796935 0.16114402
0.081777677 -0.079712495 0.16241214
0.08263424 -0.07863538 0.16367164
0.10086042 0.050926428 0.17299807
0.10029899 0.052486956 0.17180112
0.099733263 0.054059319 0.17059514
0.099163264 0.05564367 0.16937986
0.098588899 0.057240143 0.16815537
0.098010108 0.058848869 0.16692147
0.097426847 0.060470011 0.16567802
0.096839115 0.062103666 0.16442505
0.096246794 0.063750029 0.16316229
0.095649838 0.065409236 0.16188961
0.095048219 0.067081422 0.16060707
0.094441876 0.068766773 0.15931439
0.039134532 -0.1071103 0.092873365
0.045413479 -0.1051418 0.10313901
0.05139403 -0.10326687 0.11291683
0.057096899 -0.10147898 0.12224069
0.062544286 -0.099771887 0.13114694
0.067750186 -0.098140545 0.13965833
0.069387138 -0.096873581 0.14221007
0.070332915 -0.095678717 0.14360783
0.071271941 -0.094492376 0.14499566
0.072204381 -0.093314394 0.14637366
0.073130205 -0.092144743 0.14774194
0.074049488 -0.090983331 0.1491006
0.074962407 -0.089830033 0.15044981
0.07586889 -0.088684782 0.15178952
0.076769114 -0.087547511 0.15311989
0.077663034 -0.086418107 0.15444106
0.078550816 -0.085296497 0.1557532
0.079432502 -0.084182635 0.15705618
0.080308124 -0.083076388 0.15835026
0.081177786 -0.08197771 0.15963557
0.082041457 -0.080886528 0.16091195
0.082899258 -0.079802752 0.16217971
0.10164075 0.052115429 0.1719836
0.10108133 0.053682998 0.17078084
0.10051769 0.055262491 0.16956899
0.099949732 0.056854028 0.1683479
0.099377424 0.058457773 0.16711736
0.098800704 0.060073853 0.16587746
0.098219573 0.061702393 0.16462797
0.097633898 0.063343577 0.16336876
0.097043693 0.064997517 0.16209975
0.096448824 0.066664398 0.16082081
0.09584935 0.068344325 0.15953186
0.039818868 -0.10727157 0.091500044
0.046091735 -0.10529584 0.10181656
0.052065909 -0.10341416 0.11164185
0.057762355 -0.10161997 0.12101027
0.063202843 -0.099907033 0.12995794
0.068402052 -0.098270178 0.13850892
0.070579559 -0.096952334 0.14198458
0.07152015 -0.095758341 0.14338174
0.072454125 -0.09457282 0.1447691
0.073381484 -0.09339568 0.1461466
0.074302256 -0.092226833 0.14751443
0.075216606 -0.091066182 0.14887258
0.076124564 -0.089913681 0.15022135
0.077026188 -0.088769197 0.15156063
0.077921554 -0.087632656 0.15289059
0.078810722 -0.086504005 0.15421137
0.10297675 0.051745489 0.17216527
0.10242358 0.053308289 0.17096585
0.10186626 0.054882955 0.16975725
0.10130467 0.056469601 0.16853952
0.10073878 0.058068387 0.16731244
0.10016859 0.059679415 0.166076
0.099593967 0.061302878 0.16482997
0.099014908 0.062938899 0.16357434
0.098431349 0.064587623 0.16230896
0.0978432 0.066249192 0.16103369
0.097250521 0.067923754 0.15974844
0.082370594 0.080492526 0.13239834
0.046772227 -0.10545041 0.10048947
0.052740037 -0.10356195 0.11036262
0.058429927 -0.10176145 0.11977598
0.063863456 -0.10004262 0.12876529
0.069055974 -0.09840025 0.13735583
0.07176967 -0.09703096 0.1417594
0.072705165 -0.095837809 0.14315614
0.073634058 -0.094653115 0.14454299
0.10376009 0.052935198 0.17114997
0.10320903 0.05450505 0.16994473
0.10265376 0.056086827 0.16873035
0.10209425 0.057680674 0.16750666
0.10153046 0.059286717 0.16627362
0.10096234 0.060905118 0.16503114
0.10038981 0.062536001 0.16377899
0.09981288 0.06417954 0.16251716
0.099231437 0.065835848 0.1612455
0.098645478 0.067505091 0.15996403
0.093465626 0.072699115 0.1502445
0.047455028 -0.10560551 0.099157929
0.053416401 -0.10371021 0.10907918
0.10509087 0.052563697 0.17133337
0.10454601 0.054128774 0.17013142
0.10399699 0.055705704 0.16892034
0.10344383 0.057294648 0.16770005
0.10288641 0.058895729 0.16647044
0.10232474 0.060509101 0.16523135
0.10175873 0.062134892 0.16398278
0.10118835 0.063773252 0.16272452
0.10061355 0.065424308 0.1614565
0.10003422 0.067088261 0.16017866
0.099450424 0.068765193 0.15889072
0.10587725 0.05375411 0.17031726
0.10533449 0.055326231 0.16910949
0.10478759 0.05691028 0.16789263
0.10423651 0.058506429 0.16666639
0.10368119 0.060114801 0.16543075
0.10312164 0.061735515 0.16418564
0.10255776 0.063368738 0.16293094
0.10198951 0.065014601 0.16166654
0.10141687 0.066673256 0.16039225
0.10083972 0.068344876 0.1591081
0.1072028 0.053381052 0.17050233
0.10666621 0.054948378 0.16929787
0.10612555 0.056527596 0.16808432
0.10558073 0.058118839 0.16686147
0.10503176 0.059722215 0.1656293
0.1044786 0.061337892 0.16438767
0.1039212 0.062966004 0.16313654
0.10335946 0.064606681 0.16187561
0.10279337 0.066260114 0.16060495
0.1022229 0.067926407 0.1593245
0.079712063 0.086760342 0.11690661
0.10799222 0.054572154 0.16948548
0.10745771 0.056146547 0.16827524
0.10691914 0.057732891 0.16705576
0.10637648 0.059331335 0.16582695
0.10582966 0.060942005 0.16458875
0.10527867 0.062565029 0.16334108
0.10472341 0.06420058 0.16208383
0.10416381 0.065848783 0.16081676
0.10359995 0.06750977 0.15953997
0.091353729 0.078357518 0.13620991
0.10878417 0.055767138 0.16846523
0.1082518 0.057348631 0.16724914
0.10771537 0.058942154 0.16602373
0.10717484 0.060547829 0.16478899
0.10663019 0.0621658 0.16354486
0.10608132 0.063796237 0.16229111
0.10552825 0.065439254 0.1610277
0.10497089 0.067094997 0.15975446
0.10182619 0.070801973 0.15356252
0.11010498 0.055389356 0.16865447
0.10957871 0.056966014 0.1674417
0.10904847 0.058554642 0.16621974
0.1085142 0.060155362 0.16498843
0.10797584 0.061768327 0.16374767
0.10743338 0.063393667 0.16249743
0.10688671 0.065031514 0.16123763
0.10633585 0.066682041 0.15996799
0.10578066 0.06834539 0.15868858
0.1108999 0.056585047 0.16763344
0.11037585 0.058168795 0.16641486
0.10984775 0.05976459 0.16518691
0.10931566 0.061372556 0.16394964
0.10877949 0.062992841 0.16270292
0.10823922 0.064625576 0.16144663
0.10769475 0.06627091 0.16018066
0.10714607 0.067928992 0.15890479
0.11221546 0.056205709 0.16782436
0.11169747 0.057784624 0.16660911
0.11117555 0.059375506 0.16538462
0.11064968 0.060978509 0.16415074
0.11011977 0.062593751 0.16290754
0.10958579 0.064221397 0.16165471
0.10904771 0.065861568 0.16039228
0.10850549 0.067514434 0.15912008
0.089048415 0.084437914 0.12113172
0.11301348 0.057402093 0.16680253
0.11249761 0.058988109 0.16558138
0.11197791 0.060586177 0.16435102
0.11145423 0.062196407 0.16311124
0.11092652 0.063818991 0.16186193
0.11039478 0.065454021 0.16060308
0.1098589 0.067101672 0.15933442
0.10002343 0.076297015 0.13988838
0.11432378 0.057021212 0.16699511
0.11381404 0.058602367 0.16577739
0.11330043 0.060195509 0.16455039
0.1127829 0.061800785 0.16331407
0.1122614 0.063418329 0.16206822
0.1117359 0.065048277 0.16081282
0.11120638 0.066690758 0.15954784
0.10990916 0.068967827 0.15677026
0.11512478 0.058218293 0.16597244
0.11461724 0.059806548 0.16474882
0.11410582 0.061406881 0.16351599
0.11359052 0.063019402 0.16227365
0.11307126 0.06464427 0.16102183
0.11254804 0.066281617 0.15976039
0.11202076 0.067931578 0.15848917
0.11592838 0.059419259 0.16494647
0.11542302 0.061014663 0.16371697
0.11491385 0.062622204 0.16247815
0.11440079 0.06424202 0.16122985
0.11388378 0.065874264 0.15997195
0.11336279 0.067519039 0.15870434
0.11723389 0.059033629 0.16514331
0.11673458 0.060624149 0.16391718
0.11623146 0.062226731 0.16268176
0.11572455 0.063841522 0.16143692
0.11521372 0.065468676 0.16018254
0.11469898 0.067108303 0.15891856
0.098048106 0.082199238 0.12520441
0.1180405 0.060235303 0.1641165
0.11754341 0.061832961 0.16288447
0.11704257 0.063442767 0.16164312
0.11653791 0.065064862 0.16039228
0.11602935 0.066699363 0.15913182
0.10839571 0.074307203 0.14344072
0.11934082 0.059848115 0.16431502
0.11884974 0.061440878 0.16308641
0.11835492 0.063045725 0.16184846
0.11785631 0.064662784 0.16060111
0.11735392 0.066292211 0.15934417
0.11684768 0.067934118 0.15807766
0.12015042 0.061050482 0.16328734
0.1196616 0.062650397 0.16205287
0.11916904 0.06426245 0.16080898
0.11867273 0.06588681 0.15955567
0.11817268 0.067523591 0.15829271
0.12144557 0.060661759 0.16348755
0.12096263 0.062256772 0.16225642
0.12047611 0.063863859 0.16101602
0.11998586 0.06548316 0.15976617
0.11949186 0.06711486 0.15850678
0.12225813 0.061864819 0.16245914
0.12177755 0.063466966 0.1612221
0.12129328 0.065081269 0.15997574
0.12080535 0.066707887 0.1587199
0.10672903 0.080039844 0.12913293
0.1230734 0.063071772 0.16142741
0.1225951 0.064681113 0.1601845
0.12211314 0.066302687 0.15893212
0.1164857 0.072384492 0.14687324
0.12436365 0.062678292 0.16163176
0.12389129 0.064282678 0.16039222
0.12341528 0.065899238 0.15914342
0.12293567 0.067528114 0.15788502
0.12518191 0.063885942 0.16059923
0.12471181 0.065497532 0.15935376
0.12423818 0.067121349 0.15809891
0.12646699 0.06349092 0.16080523
0.12600276 0.065097541 0.1595633
0.12553507 0.066716336 0.1583119
0.1049497 0.086159855 0.11385831
0.12728819 0.064699277 0.15977189
0.12682636 0.06631308 0.15852398
0.11510779 0.077955619 0.13292465
0.12856813 0.064302713 0.15997955
0.12811206 0.065911561 0.15873516
0.12430461 0.070528008 0.15018588
0.1293923 0.065511748 0.15894535
0.12893862 0.067127779 0.157695
0.13021915 0.066724718 0.15790784
0.13149422 0.06632337 0.15811977
0.11363843 0.083896443 0.11805046
0.12319992 0.07594268 0.13658673
0.13186727 0.068733305 0.15338749
0.093692303 -0.22067252 0.13547847
0.093693003 -0.22432771 0.13378209
0.094109893 -0.22305922 0.13437074
0.094525665 -0.22179416 0.13495773
0.093693674 -0.22800066 0.13207754
0.094111606 -0.22672409 0.13266984
0.094528332 -0.22545101 0.13326061
0.094944015 -0.22418138 0.13384974
0.12202027 0.081712991 0.12209457
0.093694389 -0.23169151 0.1303646
0.09411332 -0.23040688 0.1309607
0.094531119 -0.22912568 0.13155523
0.09494777 -0.22784796 0.13214812
0.095363259 -0.22657372 0.13273939
0.095777676 -0.2253029 0.13332909
0.13101985 0.073997468 0.14012554
0.093695089 -0.23540044 0.1286433
0.094115034 -0.23410758 0.12924325
0.094533846 -0.23281828 0.12984151
0.094951496 -0.23153245 0.13043818
0.095368028 -0.23025011 0.13103321
0.095783457 -0.22897124 0.13162661
0.096197724 -0.22769581 0.13221845
0.096610919 -0.22642381 0.13280872
0.09369579 -0.23912753 0.12691358
0.094116762 -0.23782642 0.12751731
0.094536602 -0.2365289 0.12811944
0.094955295 -0.2352349 0.1287199
0.095372826 -0.23394439 0.12931868
0.095789239 -0.23265742 0.12991589
0.096204519 -0.23137391 0.13051149
0.096618682 -0.23009387 0.13110545
0.097031727 -0.22881728 0.13169783
0.09744364 -0.22754413 0.1322886
0.094024837 -0.24164207 0.12559867
0.094520554 -0.2402734 0.12635192
0.09495908 -0.23895547 0.12699318
0.095377639 -0.23765674 0.12759581
0.095795035 -0.23636158 0.12819678
0.096211329 -0.23506993 0.12879619
0.096626505 -0.23378177 0.12939391
0.097040504 -0.2324971 0.12999001
0.09745346 -0.23121588 0.13058454
0.097865269 -0.22993813 0.13117748
0.098275974 -0.2286638 0.13176882
0.09381105 -0.24558416 0.12342894
0.094308957 -0.24420372 0.12418869
0.094805047 -0.24282807 0.12494576
0.095299453 -0.24145725 0.12570012
0.095792115 -0.24009122 0.12645194
0.096218213 -0.23878397 0.12707254
0.096634358 -0.23748761 0.12767404
0.0970494 -0.2361948 0.12827399
0.09746331 -0.23490548 0.12887225
0.097876087 -0.23361965 0.12946889
0.098287776 -0.23233727 0.13006398
0.098698333 -0.23105834 0.13065743
0.13011117 0.079605311 0.12599832
0.094095781 -0.24816211 0.12200999
0.094594046 -0.24677464 0.12277359
0.095090568 -0.24539199 0.1235345
0.095585346 -0.24401425 0.12429273
0.096078411 -0.2426413 0.12504834
0.096569747 -0.24127311 0.1258013
0.097058341 -0.23991054 0.12654957
0.097473234 -0.23861304 0.12715167
0.097887024 -0.23731904 0.1277521
0.098299667 -0.23602858 0.12835088
0.098711208 -0.23474154 0.12894812
0.099121645 -0.23345804 0.12954369
0.099530965 -0.23217797 0.13013762
0.13858113 0.072116598 0.14354733
0.093881115 -0.25214884 0.11981571
0.094381571 -0.25074938 0.12058592
0.094880193 -0.24935487 0.12135336
0.095377132 -0.24796522 0.12211818
0.095872283 -0.24658047 0.12288025
0.09636575 -0.24520053 0.12363964
0.096857458 -0.24382544 0.12439647
0.097347468 -0.24245512 0.12515056
0.097835779 -0.24108955 0.12590212
0.098311663 -0.23973782 0.12662953
0.098724186 -0.23844266 0.1272305
0.099135607 -0.23715101 0.12782988
0.099545866 -0.23586287 0.12842757
0.099955082 -0.23457819 0.12902367
0.10036315 -0.23329696 0.12961817
0.094167516 -0.2547527 0.11838248
0.094668344 -0.25334609 0.11915663
0.095167398 -0.25194448 0.11992797
0.095664695 -0.25054774 0.12069663
0.096160263 -0.24915592 0.12146264
0.096654117 -0.24776901 0.12222591
0.097146228 -0.24638695 0.12298653
0.097636595 -0.24500968 0.12374446
0.098125264 -0.2436372 0.12449983
0.098612249 -0.24226956 0.12525254
0.099097505 -0.24090666 0.12600258
0.099560872 -0.23956567 0.12670919
0.099971026 -0.23827291 0.12730905
0.10038008 -0.23698355 0.12790734
0.10078803 -0.23569772 0.12850404
0.1011949 -0.23441531 0.12909904
0.093951911 -0.25878483 0.11616325
0.094454974 -0.257366 0.11694407
0.094956174 -0.25595224 0.11772212
0.095455661 -0.25454348 0.11849743
0.095953315 -0.25313967 0.11927
0.096449301 -0.25174075 0.12003991
0.096943527 -0.25034678 0.12080708
0.097436011 -0.24895768 0.12157151
0.097926751 -0.24757345 0.12233332
0.098415792 -0.24619408 0.12309247
0.098903149 -0.24481949 0.12384894
0.099388763 -0.24344969 0.12460282
0.099872738 -0.24208464 0.12535405
0.10035501 -0.24072433 0.12610269
0.10080603 -0.23939407 0.12678862
0.10121383 -0.23810361 0.12738737
0.10162054 -0.2368166 0.12798461
0.10202616 -0.23553307 0.12858015
0.10887153 0.02649169 0.079938054
0.10933051 0.027594998 0.080697298
0.10978806 0.028694909 0.081454128
0.11024426 0.029791418 0.082208693
0.11069903 0.030884568 0.082960874
0.1111524 0.03197436 0.08371079
0.11175081 0.032969944 0.084808797
0.11251742 0.033853408 0.086311042
0.11327893 0.03473109 0.087803274
0.11403543 0.035602983 0.089285761
0.11478698 0.036469169 0.090758562
0.11553365 0.037329692 0.092221707
0.11627546 0.03818462 0.093675315
0.11701243 0.039034005 0.095119536
0.11774467 0.039877892 0.096554428
0.11847216 0.040716343 0.097980052
0.119195 0.041549407 0.099396497
0.11991318 0.042377163 0.10080385
0.12062678 0.043199595 0.10220227
0.12133583 0.044016812 0.10359177
0.12204042 0.04482884 0.10497248
0.12274055 0.045635749 0.10634446
0.093734801 -0.26284608 0.1139279
0.09423998 -0.26141495 0.11471552
0.094743446 -0.2599889 0.11550036
0.095245063 -0.25856793 0.1162824
0.095744953 -0.25715193 0.11706164
0.096242994 -0.25574097 0.1178382
0.096739367 -0.25433496 0.11861196
0.097233981 -0.25293389 0.11938307
0.097726837 -0.25153777 0.1201514
0.098217964 -0.25014654 0.12091705
0.098707363 -0.24876013 0.12168005
0.099195078 -0.24737857 0.1224404
0.099681094 -0.24600185 0.12319803
0.10016543 -0.24462995 0.12395304
0.10064806 -0.24326274 0.12470546
0.10112901 -0.24190034 0.12545532
0.10160829 -0.24054264 0.12620252
0.10204715 -0.23922303 0.12686771
0.10245262 -0.23793489 0.12746552
0.10247369 0.0027382746 0.068190902
0.1027282 0.0040001869 0.068454325
0.10298252 0.0052611381 0.068717599
0.10323665 0.0065211505 0.068980634
0.10349059 0.0077802017 0.069243491
0.10374434 0.0090383142 0.069506168
0.10399789 0.010295469 0.069768578
0.10425128 0.011551678 0.070030868
0.10450442 0.012806959 0.07029286
0.1047574 0.014061283 0.070554733
0.10509209 0.015273526 0.071011364
0.10556476 0.016413122 0.071797401
0.10603596 0.017549157 0.072581023
0.10650569 0.018681642 0.073362142
0.10697398 0.019810569 0.074140877
0.10744081 0.020935979 0.074917197
0.10790615 0.022057895 0.075691044
0.10837005 0.023176327 0.076462477
0.10883252 0.024291269 0.077231556
0.10929355 0.025402762 0.077998251
0.10975316 0.026510812 0.078762591
0.11021137 0.027615447 0.079524547
0.11066815 0.028716668 0.080284148
0.1111235 0.0298145 0.081041366
0.11157751 0.03090895 0.081796348
0.11203009 0.03200005 0.082548946
0.11248127 0.03308779 0.083299249
0.11309561 0.034068301 0.084444255
0.11385742 0.034947783 0.085947037
0.11461423 0.035821453 0.087439924
0.11536603 0.036689423 0.088922948
0.11611289 0.037551694 0.090396255
0.11685492 0.038408332 0.091859996
0.11759214 0.0392594 0.09331423
0.11832455 0.040104941 0.094759047
0.11905222 0.040945027 0.096194446
0.11977519 0.041779697 0.097620666
0.12049355 0.04260901 0.099037707
0.12120731 0.043433022 0.10044569
0.12191647 0.044251781 0.10184461
0.12262115 0.045065325 0.10323471
0.1233214 0.045873687 0.10461599
0.12401718 0.046676956 0.10598853
0.12470858 0.04747517 0.10735244
0.12576814 0.047983348 0.10961881
0.13792598 0.077569559 0.12976885
0.094023526 -0.26549324 0.1124709
0.094529122 -0.26405478 0.11326253
0.09503299 -0.26262143 0.11405134
0.09553504 -0.26119313 0.11483744
0.096035287 -0.25976995 0.11562067
0.096533746 -0.25835177 0.11640111
0.097030476 -0.25693861 0.11717886
0.097525507 -0.25553042 0.11795387
0.098018751 -0.25412717 0.11872616
0.098510236 -0.25272885 0.11949569
0.099000037 -0.25133544 0.1202625
0.09948808 -0.24994691 0.12102672
0.099974483 -0.2485632 0.12178826
0.10045913 -0.24718438 0.12254706
0.10094211 -0.24581032 0.12330323
0.10142343 -0.24444103 0.12405682
0.10190311 -0.24307649 0.12480783
0.10238104 -0.24171668 0.12555617
0.10285737 -0.24036156 0.12630194
0.1032842 -0.23905258 0.12694666
0.10246199 -0.0023820847 0.066191554
0.102717 -0.0011155158 0.066456288
0.10297185 0.00015009195 0.066720814
0.10322656 0.0014147311 0.06698519
0.10348107 0.0026784316 0.067249358
0.10373534 0.0039411709 0.067513317
0.10398945 0.005202949 0.067777097
0.10424335 0.006463781 0.068040669
0.10449708 0.0077236667 0.068304002
0.10475062 0.0089825988 0.068567187
0.10500394 0.0102406 0.068830103
0.10525711 0.01149762 0.069092959
0.10551003 0.01275371 0.069355518
0.10576278 0.014008865 0.069617867
0.10601537 0.015263062 0.069880068
0.10645585 0.016419955 0.070593596
0.10692625 0.017557375 0.071380109
0.10739516 0.018691253 0.072164118
0.10786262 0.01982158 0.072945684
0.10832866 0.020948377 0.073724836
0.1087932 0.022071671 0.074501455
0.1092563 0.023191448 0.075275779
0.10971798 0.024307765 0.076047599
0.11017822 0.025420599 0.076817095
0.11063701 0.026529994 0.077584177
0.11109439 0.027635951 0.078348905
0.11155038 0.028738495 0.079111248
0.11200497 0.029837642 0.079871237
0.11245812 0.030933402 0.080628902
0.11290987 0.032025795 0.081384212
0.1133603 0.033114824 0.082137257
0.11380929 0.034200527 0.082887977
0.11443925 0.035165738 0.084079981
0.11519632 0.036041223 0.085583359
0.11594836 0.036910936 0.087076813
0.11669548 0.037774947 0.088560432
0.11743769 0.03863332 0.090034336
0.11817512 0.03948608 0.091498643
0.11890768 0.040333286 0.092953414
0.11963554 0.041175012 0.094398797
0.12035869 0.042011287 0.095834821
0.12107718 0.042842191 0.097261578
0.12179106 0.043667756 0.098679185
0.12250039 0.044488031 0.10008776
0.12320514 0.045303084 0.10148731
0.12390545 0.046112973 0.10287794
0.12460133 0.046917707 0.10425979
0.12529276 0.047717359 0.1056329
0.12597992 0.048511971 0.1069974
0.12667181 0.049294528 0.10837573
0.12830742 0.049327265 0.11208627
0.12991385 0.049359452 0.11573052
0.13149188 0.049391046 0.11931032
0.14589636 0.070296921 0.1468578
0.093805432 -0.2696012 0.11020988
0.094313279 -0.26815015 0.11100847
0.094819322 -0.26670429 0.11180416
0.095323548 -0.26526359 0.11259708
0.095826015 -0.26382801 0.11338711
0.096326664 -0.26239753 0.1141744
0.096825555 -0.26097211 0.11495888
0.097322688 -0.25955173 0.11574054
0.097818047 -0.25813636 0.11651948
0.098311663 -0.25672597 0.11729568
0.098803565 -0.25532055 0.11806914
0.099293694 -0.25392008 0.11883986
0.099782154 -0.25252452 0.11960793
0.1002689 -0.2511338 0.12037331
0.10075393 -0.24974799 0.12113595
0.10123725 -0.248367 0.121896
0.10171892 -0.2469908 0.12265337
0.10219893 -0.24561939 0.12340817
0.10267726 -0.24425273 0.12416029
0.10315388 -0.24289082 0.12490976
0.10362889 -0.24153362 0.12565669
0.10410228 -0.24018107 0.12640107
0.10304299 -0.0077460408 0.06559664
0.10308595 -0.0063981339 0.065356553
0.103129 -0.0050481632 0.065116078
0.10321642 -0.0037136972 0.064981133
0.10347146 -0.0024453402 0.065246671
0.10372633 -0.0011779442 0.065511912
0.10398097 8.8497996e-05 0.065776974
0.10423544 0.0013539791 0.066041946
0.10448968 0.0026184991 0.066306561
0.10474375 0.0038820729 0.066571057
0.10499766 0.0051446781 0.066835374
0.10525134 0.0064063482 0.067099482
0.10550487 0.0076670572 0.067363381
0.10575816 0.0089268237 0.067627072
0.10601124 0.010185637 0.067890495
0.1062642 0.011443492 0.068153858
0.10651696 0.012700409 0.068416923
0.10676949 0.013956387 0.06867981
0.10702184 0.015211396 0.068942517
0.10734917 0.016426776 0.06938687
0.10781874 0.017565623 0.070176214
0.10828686 0.018700905 0.070963055
0.10875352 0.019832622 0.071747512
0.10921873 0.020960804 0.072529435
0.10968244 0.022085462 0.073308975
0.11014476 0.023206618 0.07408607
0.11060558 0.02432429 0.074860722
0.11106503 0.025438473 0.075632989
0.11152303 0.026549205 0.076402873
0.11197962 0.027656507 0.077170342
0.11243476 0.028760385 0.077935457
0.11288854 0.029860836 0.078698248
0.11334091 0.030957904 0.079458624
0.11379184 0.032051601 0.080216676
0.11424148 0.033141926 0.080972373
0.11468963 0.034228921 0.081725776
0.1151365 0.035312559 0.082476944
0.11578177 0.036262251 0.083716065
0.11653405 0.037133742 0.085219979
0.11728139 0.0379995 0.086714059
0.11802383 0.03885958 0.088198245
0.11876144 0.039714035 0.089672744
0.11949416 0.040562928 0.091137528
0.1202222 0.041406296 0.092592925
0.12094547 0.042244192 0.094038874
0.12166409 0.043076683 0.095475435
0.12237813 0.043903805 0.096902817
0.1230875 0.04472563 0.098321021
0.12379237 0.045542199 0.099730134
0.12449278 0.046353556 0.10113025
0.12518869 0.047159776 0.10252148
0.1258802 0.047960874 0.10390389
0.12656735 0.048756909 0.10527757
0.12725019 0.04954794 0.10664263
0.12792875 0.050333995 0.10799915
0.12920915 0.050631404 0.11085665
0.13081041 0.050651971 0.11451846
0.13238327 0.050672177 0.11811531
0.13392854 0.050692026 0.12164906
0.13544689 0.050711531 0.12512124
0.094095886 -0.27227533 0.10873795
0.094604135 -0.2708168 0.1095407
0.095110595 -0.26936355 0.11034045
0.095615238 -0.26791543 0.11113739
0.096118093 -0.26647252 0.1119315
0.096619159 -0.26503471 0.11272284
0.097118422 -0.26360202 0.11351129
0.097615942 -0.2621744 0.11429697
0.098111689 -0.26075178 0.11507985
0.098605707 -0.25933427 0.11586004
0.099097967 -0.25792167 0.11663747
0.099588513 -0.25651407 0.11741209
0.1000773 -0.25511143 0.11818403
0.10056438 -0.2537137 0.11895329
0.10104978 -0.25232086 0.1197198
0.10153346 -0.25093287 0.1204837
0.10201545 -0.24954976 0.12124485
0.10249579 -0.24817143 0.12200341
0.10297447 -0.24679787 0.12275937
0.10345146 -0.24542911 0.12351266
0.10392681 -0.24406511 0.12426332
0.10440047 -0.24270579 0.12501138
0.10487257 -0.24135116 0.12575692
0.10390505 -0.013196833 0.065678895
0.10394858 -0.011856429 0.065439433
0.10399216 -0.010514021 0.065199643
0.10403582 -0.0091695711 0.064959437
0.10407954 -0.0078230798 0.064718902
0.10412335 -0.006474562 0.06447807
0.10416719 -0.0051239952 0.06423679
0.10422748 -0.0037778765 0.064034522
0.10448231 -0.0025086924 0.064300567
0.10473694 -0.0012404472 0.064566374
0.10499135 2.682209e-05 0.064831972
0.10524558 0.0012931377 0.065097421
0.10549966 0.0025584996 0.065362632
0.1057535 0.0038229078 0.065627605
0.10600717 0.0050863475 0.065892458
0.10626064 0.0063488409 0.066157043
0.10651392 0.0076103769 0.066421479
0.10676698 0.0088709742 0.066685677
0.1070199 0.010130607 0.066949695
0.10727262 0.0113893 0.067213535
0.10752513 0.012647033 0.067477137
0.10777745 0.013903819 0.06774053
0.10802962 0.015159663 0.068003833
0.10828152 0.016414568 0.068266809
0.10871351 0.017573889 0.068969309
0.10918081 0.018710565 0.069759041
0.10964663 0.019843686 0.070546299
0.110111 0.020973261 0.071331114
0.11057393 0.022099297 0.072113514
0.11103541 0.023221824 0.072893441
0.11149544 0.024340853 0.073670894
0.11195403 0.025456402 0.074445933
0.11241123 0.02656848 0.075218648
0.11286701 0.027677108 0.075988948
0.11332133 0.028782308 0.076756805
0.11377428 0.029884096 0.077522278
0.11422586 0.030982472 0.078285456
0.11467606 0.032077465 0.079046249
0.11512479 0.033169094 0.079804748
0.11557217 0.034257367 0.080560833
0.11601819 0.035342298 0.081314623
0.11646286 0.03642391 0.082066089
0.11712313 0.037357844 0.083352447
0.11787072 0.03822536 0.084856898
0.11861332 0.039087165 0.086351514
0.11935107 0.039943319 0.087836295
0.120084 0.040793873 0.089311391
0.12081219 0.041638874 0.090776801
0.12153558 0.042478416 0.092232704
0.12225433 0.043312494 0.093679249
0.12296842 0.044141196 0.095116377
0.12367795 0.044964559 0.096544325
0.1243829 0.045782648 0.097963095
0.12508336 0.046595506 0.099372804
0.12577933 0.047403179 0.10077348
0.12647091 0.048205733 0.10216528
0.12715808 0.049003202 0.10354826
0.12784094 0.049795631 0.10492256
0.12851948 0.050583083 0.10628816
0.12919377 0.051365584 0.10764518
0.13011415 0.051940233 0.10962263
0.13171017 0.051949125 0.11330202
0.13327785 0.051957853 0.11691609
0.13481794 0.051966432 0.12046656
0.13633116 0.051974867 0.1239551
0.13781825 0.051983137 0.12738335
0.1392798 0.05199128 0.1307528
0.14071654 0.051999275 0.134065
0.093876898 -0.27643067 0.10645089
0.094387397 -0.27495942 0.10726058
0.094896063 -0.27349338 0.10806739
0.095402941 -0.27203262 0.10887137
0.095908016 -0.27057707 0.10967237
0.096411228 -0.26912677 0.11047056
0.096912682 -0.2676816 0.1112659
0.097412378 -0.26624155 0.11205843
0.09791027 -0.26480663 0.11284813
0.098406404 -0.2633768 0.113635
0.09890075 -0.26195204 0.11441913
0.099393427 -0.26053226 0.11520049
0.099884301 -0.25911748 0.11597911
0.10037348 -0.25770774 0.11675498
0.10086091 -0.25630292 0.11752808
0.10134669 -0.25490299 0.11829856
0.10183072 -0.25350803 0.11906627
0.10231309 -0.2521179 0.11983129
0.10279375 -0.2507326 0.12059367
0.10327275 -0.24935219 0.12135342
0.10375011 -0.2479765 0.12211049
0.10422578 -0.2466056 0.12286499
0.10469978 -0.2452395 0.12361678
0.10517222 -0.24387807 0.12436607
0.10564297 -0.24252138 0.12511268
0.10476282 -0.018620156 0.065760732
0.1048069 -0.017287217 0.065521926
0.10485098 -0.015952282 0.065282792
0.10489522 -0.014615327 0.0650433
0.10493949 -0.013276353 0.064803421
0.10498378 -0.011935353 0.064563215
0.10502817 -0.010592341 0.064322591
0.10507265 -0.0092472881 0.064081669
0.10511716 -0.0079002008 0.06384033
0.10516177 -0.006551072 0.063598663
0.10520642 -0.0051998943 0.063356608
0.10525113 -0.0038466677 0.063114166
0.10549442 -0.0025721118 0.0633533
0.10574882 -0.0013030395 0.063619584
0.10600303 -3.4920871e-05 0.063885719
0.10625704 0.0012322143 0.064151704
0.10651086 0.0024984255 0.064417422
0.10676451 0.0037636608 0.064682961
0.10701796 0.0050279349 0.06494835
0.10727121 0.0062912628 0.065213442
0.10752428 0.0075536296 0.065478414
0.10777713 0.0088150427 0.065743178
0.10802983 0.010075521 0.066007674
0.10828233 0.011335026 0.06627202
0.10853462 0.01259359 0.066536188
0.10878673 0.013851207 0.066800117
0.10903865 0.015107866 0.067063868
0.10929038 0.016363595 0.06732738
0.10961045 0.017582178 0.067759305
0.11007696 0.018720262 0.068552017
0.11054197 0.019854777 0.069342166
0.1110055 0.020985745 0.070129812
0.11146758 0.022113174 0.070915014
0.11192824 0.023237072 0.071697742
0.11238749 0.024357453 0.072478145
0.11284524 0.025474373 0.073255986
0.11330162 0.026587799 0.074031472
0.11375658 0.027697772 0.074804544
0.11421013 0.028804295 0.075575233
0.11466226 0.029907402 0.076343507
0.11511298 0.031007111 0.077109396
0.1155623 0.032103408 0.077872962
0.11601028 0.033196326 0.078634113
0.11645688 0.034285884 0.079392999
0.11690208 0.035372097 0.080149502
0.11734591 0.036454994 0.080903709
0.11778839 0.037534557 0.081655592
0.1184634 0.038452514 0.082989097
0.11920621 0.039316047 0.084494144
0.11994414 0.040173911 0.085989326
0.12067723 0.041026145 0.087474644
0.1214055 0.041872807 0.088950336
0.12212908 0.042713948 0.090416372
0.12284793 0.043549635 0.091872871
0.12356211 0.04437992 0.093319893
0.12427171 0.045204841 0.094757617
0.12497672 0.046024449 0.096186131
0.12567724 0.046838809 0.097605437
0.12637328 0.04764796 0.099015713
0.12706488 0.048451953 0.10041702
0.12775207 0.049250856 0.10180938
0.12843493 0.050044686 0.10319296
0.12911348 0.050833527 0.10456777
0.12978774 0.051617388 0.10593396
0.13045782 0.052396342 0.10729155
0.13112366 0.053170424 0.1086407
0.13261314 0.053250935 0.11208123
0.1341756 0.053248096 0.11571258
0.13571048 0.053245325 0.11927992
0.13721855 0.053242587 0.12278494
0.13870049 0.053239912 0.1262292
0.14015701 0.053237267 0.12961441
0.14158873 0.053234685 0.1329419
0.14299628 0.053232126 0.13621327
0.14438024 0.05322963 0.13942987
0.14911586 0.062233765 0.14812937
0.14911582 0.06345515 0.14781669
0.14911577 0.064679228 0.1475032
0.14911571 0.065905914 0.1471892
0.14911564 0.067135319 0.14687431
0.14911546 0.068367496 0.14655852
0.14911529 0.069602355 0.14624205
0.13722822 0.083377019 0.1150946
0.09416905 -0.27913228 0.1049639
0.094679996 -0.27765343 0.10577774
0.09518908 -0.27617985 0.10658869
0.095696375 -0.27471158 0.10739681
0.096201792 -0.27324855 0.10820195
0.096705481 -0.27179077 0.10900423
0.097207308 -0.27033818 0.10980365
0.097707376 -0.26889077 0.11060023
0.098205686 -0.26744851 0.11139396
0.098702192 -0.26601142 0.11218488
0.09919697 -0.26457936 0.11297303
0.09968996 -0.26315236 0.11375836
0.10018124 -0.2617304 0.11454093
0.10067074 -0.26031345 0.11532068
0.10115856 -0.25890151 0.11609778
0.10164469 -0.25749451 0.11687213
0.10212907 -0.25609246 0.11764374
0.10261177 -0.2546953 0.11841261
0.10309277 -0.25330305 0.11917886
0.10357212 -0.25191563 0.1199424
0.1040498 -0.25053301 0.12070334
0.10452579 -0.24915522 0.12146157
0.10500017 -0.24778226 0.12221718
0.10547288 -0.24641402 0.12297019
0.10594395 -0.24505048 0.12372062
0.10641342 -0.24369168 0.12446842
0.10564452 -0.024024405 0.065910369
0.10566084 -0.022690676 0.065604001
0.10570553 -0.021363162 0.065365553
0.10575023 -0.02003365 0.065126717
0.10579504 -0.018702127 0.064887524
0.10583988 -0.017368607 0.064647943
0.10588481 -0.016033061 0.064408034
0.10592981 -0.014695518 0.064167708
0.10597485 -0.013355948 0.063927084
0.10601996 -0.012014359 0.063686073
0.10606518 -0.010670729 0.063444674
0.10611044 -0.0093250871 0.063202977
0.10615578 -0.0079773888 0.062960833
0.10620119 -0.006627664 0.062718421
0.10624668 -0.0052758828 0.062475622
0.1062922 -0.0039220452 0.062232405
0.10650787 -0.0026356354 0.062404752
0.10676201 -0.0013657138 0.062671632
0.10701601 -9.675324e-05 0.062938273
0.10726979 0.0011712238 0.063204765
0.10752343 0.0024382621 0.063471019
0.10777684 0.0037043318 0.063737094
0.10803008 0.0049694516 0.064002991
0.10828307 0.0062336028 0.064268649
0.10853592 0.0074968114 0.064534038
0.10878859 0.0087590516 0.064799368
0.10904105 0.010020345 0.06506443
0.10929331 0.011280686 0.065329343
0.10954542 0.012540068 0.065593958
0.10979725 0.013798516 0.065858424
0.11004901 0.01505601 0.066122681
0.11030047 0.016312547 0.066386759
0.11055182 0.017568149 0.066650629
0.11097534 0.018729988 0.067341864
0.11143953 0.019865915 0.068134904
0.11190228 0.020998258 0.0689255
0.11236353 0.022127073 0.069713593
0.11282335 0.023252349 0.070499182
0.11328171 0.024374116 0.071282387
0.11373872 0.02549237 0.072063118
0.11419426 0.026607156 0.072841406
0.11464834 0.02771847 0.07361722
0.11510107 0.028826341 0.074390709
0.11555235 0.029930782 0.075161755
0.11600229 0.031031787 0.075930446
0.11645083 0.032129396 0.076696783
0.11689796 0.033223625 0.077460706
0.11734371 0.034314487 0.078222275
0.11778811 0.035401989 0.078981519
0.11823113 0.036486138 0.079738468
0.11867283 0.037566978 0.080493063
0.11911313 0.038644508 0.081245303
0.1198025 0.03954627 0.082626045
0.1205406 0.040405836 0.084131688
0.12127386 0.041259751 0.085627466
0.12200227 0.042108081 0.087113351
0.12272593 0.042950846 0.088589579
0.1234449 0.043788139 0.090056181
0.12415919 0.044619996 0.091513216
0.12486884 0.045446482 0.092960835
0.12557392 0.046267617 0.094399154
0.12627447 0.047083478 0.095828205
0.12697053 0.047894116 0.097248107
0.12766218 0.048699565 0.098658949
0.12834935 0.049499895 0.10006079
0.12903222 0.050295141 0.10145375
0.12971075 0.051085349 0.10283789
0.13038501 0.051870573 0.10421333
0.13105501 0.052650888 0.10558003
0.13172083 0.053426288 0.10693821
0.13238247 0.054196835 0.10828796
0.13351935 0.054557413 0.11085606
0.13507651 0.054542948 0.11450475
0.13660617 0.054528721 0.11808908
0.13810901 0.054514762 0.12161064
0.13958585 0.054501038 0.12507111
0.14103724 0.054487556 0.128472
0.14246389 0.054474279 0.13181502
0.1438664 0.054461259 0.13510141
0.1452454 0.054448463 0.13833266
0.14660148 0.054435842 0.14151025
0.14793518 0.054423448 0.14463544
0.14911562 0.05574654 0.14705673
0.14911558 0.056961089 0.14674282
0.14911553 0.058178257 0.1464282
0.14911547 0.059398089 0.14611289
0.14911543 0.060620546 0.1457969
0.14911537 0.061845675 0.14548025
0.14911532 0.063073479 0.14516285
0.14911528 0.064303949 0.14484483
0.14911522 0.06553711 0.14452609
0.14911519 0.06677296 0.14420667
0.149115 0.068011627 0.14388621
0.14911482 0.069253013 0.14356506
0.14911465 0.070497155 0.14324316
0.14547864 0.075602099 0.13341287
0.093949094 -0.28333583 0.10265025
0.094462305 -0.28184393 0.10347128
0.094973683 -0.28035742 0.10428944
0.095483154 -0.27887627 0.10510454
0.095990866 -0.27740043 0.10591674
0.096496731 -0.27592987 0.10672611
0.097000763 -0.27446464 0.10753247
0.097503006 -0.27300462 0.108336
0.098003462 -0.27154976 0.10913667
0.098502189 -0.27010012 0.10993448
0.098999068 -0.2686556 0.11072946
0.099494189 -0.26721624 0.1115216
0.099987596 -0.26578203 0.11231092
0.10047922 -0.26435277 0.11309749
