ply
format ascii 1.0
comment PCL generated
element vertex 1348
property float x
property float y
property float z
element face 0
element camera 0
property float view_px
property float view_py
property float view_pz
property float x_axisx
property float x_axisy
property float x_axisz
property float y_axisx
property float y_axisy
property float y_axisz
property float z_axisx
property float z_axisy
property float z_axisz
property float focal
property float scalex
property float scaley
property float centerx
property float centery
property int viewportx
property int viewporty
property float k1
property float k2
end_header
-0.029624686 0.043566771 0.18481266
-0.030803237 0.043348614 0.18488714
-0.031979479 0.043130875 0.18496147
-0.033153411 0.042913567 0.18503559
-0.034325033 0.042696677 0.18510956
-0.035494361 0.042480219 0.18518347
-0.03666142 0.042264182 0.1852572
-0.037826188 0.042048573 0.18533075
-0.038988721 0.041833382 0.18540421
-0.040148929 0.041618578 0.18547747
-0.041306917 0.041404221 0.18555063
-0.042462654 0.041190267 0.18562359
-0.043616142 0.040976744 0.18569645
-0.04476738 0.040763639 0.18576917
-0.045916397 0.040550921 0.1858418
-0.04706322 0.040338639 0.18591419
-0.12861618 -0.055376764 0.065960944
-0.1297978 -0.056098413 0.065255135
-0.13098153 -0.056821328 0.064548135
-0.13216735 -0.057545565 0.063839763
-0.13335533 -0.058271095 0.06313014
-0.1345454 -0.058997922 0.062419355
-0.13573763 -0.059726063 0.061707228
-0.13693199 -0.060455531 0.060993761
-0.13812853 -0.061186247 0.060279071
-0.13932718 -0.061918341 0.0595631
-0.14052802 -0.062651731 0.058845788
-0.14173104 -0.06338644 0.058127195
-0.14293619 -0.064122476 0.057407349
-0.14414355 -0.064859845 0.056686193
-0.14535306 -0.065598562 0.055963755
-0.14656481 -0.066338591 0.055239946
-0.14777869 -0.067079984 0.054514825
-0.1489948 -0.06782268 0.053788453
-0.14912558 -0.073478825 0.045057148
0.14762731 0.066565 0.15593532
0.14552388 0.066476703 0.15654159
0.14358321 0.066326484 0.15699369
0.14178534 0.066121362 0.15730959
0.13999355 0.065917 0.15762457
0.13820797 0.065713279 0.15793827
0.13642843 0.065510318 0.15825105
0.13465497 0.065308012 0.15856275
0.13288759 0.065106399 0.15887329
0.13112617 0.064905457 0.15918285
0.12937072 0.064705245 0.15949136
0.12762129 0.064505659 0.1597988
0.12587771 0.064306788 0.16010529
0.12414002 0.064108558 0.16041061
0.12240826 0.063911013 0.16071495
0.12068226 0.063714124 0.16101828
0.11896206 0.063517906 0.1613206
0.11724766 0.063322328 0.16162187
0.11553898 0.063127413 0.16192216
0.11383603 0.062933154 0.16222146
0.11213876 0.062739536 0.16251972
0.11044713 0.062546574 0.16281703
0.10876113 0.062354252 0.1631133
0.10708074 0.062162563 0.16340864
0.10540594 0.061971519 0.16370293
0.10373662 0.061781127 0.16399634
0.10207289 0.061591305 0.1642887
0.1004146 0.061402135 0.16458008
0.098761775 0.06121362 0.16487059
0.097114421 0.06102569 0.16516009
0.09547244 0.060838398 0.16544864
0.093835853 0.06065172 0.16573629
0.092204645 0.060465638 0.16602293
0.090578705 0.060280159 0.1663087
0.088958107 0.060095299 0.16659349
0.087342791 0.059911016 0.16687736
0.085732713 0.059727363 0.16716033
0.084127851 0.059544306 0.16744238
0.082528234 0.059361815 0.16772348
0.080933757 0.059179947 0.16800365
0.079344429 0.058998648 0.16828302
0.077760227 0.058817931 0.16856143
0.076181106 0.058637809 0.16883892
0.074607104 0.058458224 0.16911554
0.073038138 0.058279261 0.16939121
0.07147418 0.058100883 0.16966611
0.06991525 0.057923026 0.16994008
0.06836126 0.057745751 0.17021313
0.066812247 0.057569068 0.17048544
0.065268196 0.057392925 0.17075673
0.063729011 0.057217348 0.17102718
0.062194712 0.057042338 0.17129689
0.060665324 0.056867883 0.17156568
0.059140731 0.05669396 0.17183357
0.057620913 0.056520618 0.17210072
0.056105915 0.056347799 0.17236701
0.054595709 0.05617553 0.17263237
0.053090211 0.056003828 0.17289698
0.051589467 0.055832632 0.17316073
0.050093401 0.055662002 0.17342368
0.048602022 0.055491894 0.17368576
0.047115326 0.055322297 0.1739471
0.04563326 0.055153247 0.17420757
0.044155806 0.054984719 0.17446721
0.042682908 0.05481673 0.17472613
0.041214626 0.05464926 0.17498416
0.039750893 0.054482307 0.17524135
0.038291667 0.054315869 0.17549789
0.036836974 0.054149933 0.17575356
0.035386778 0.053984508 0.17600846
0.033941027 0.053819586 0.17626253
0.032499727 0.053655203 0.17651585
0.03106286 0.053491298 0.17676836
0.029630391 0.053327907 0.1770201
0.028202284 0.05316503 0.1772711
0.026778577 0.053002626 0.17752135
0.025359213 0.052840717 0.17777076
0.023944184 0.0526793 0.17801946
0.022533432 0.052518431 0.17826745
0.021126987 0.052357979 0.1785146
0.019724816 0.052198052 0.17876104
0.018326851 0.052038603 0.17900676
0.016933145 0.051879629 0.1792517
0.015543671 0.05172113 0.17949587
0.014158354 0.05156311 0.17973933
0.01277721 0.051405594 0.17998207
0.011400254 0.051248528 0.18022406
0.010027395 0.051091924 0.1804654
0.0086586326 0.050935812 0.18070593
0.0072940136 0.050780147 0.18094578
0.0059334477 0.050624955 0.18118492
0.0045769643 0.050470199 0.18142325
0.0032244893 0.050315965 0.18166098
0.0018760527 0.050162133 0.18189794
0.00053163915 0.050008807 0.18213427
-0.00074706064 0.049808528 0.1822741
-0.0019838288 0.049578674 0.18235293
-0.0032181086 0.049349293 0.18243158
-0.0044499445 0.049120363 0.18251011
-0.0056792768 0.048891895 0.18258852
-0.0069061513 0.048663884 0.18266666
-0.0081305811 0.048436344 0.18274474
-0.0093525536 0.048209246 0.18282264
-0.010572095 0.047982607 0.18290037
-0.011789209 0.047756404 0.18297797
-0.01300388 0.047530677 0.18305537
-0.014216121 0.047305387 0.18313262
-0.015425978 0.047080535 0.18320978
-0.016633421 0.04685615 0.18328682
-0.017838467 0.046632197 0.18336362
-0.019041112 0.046408705 0.18344027
-0.020241372 0.046185628 0.18351671
-0.021439278 0.045963015 0.18359309
-0.022634787 0.045740839 0.18366936
-0.023827925 0.045519091 0.18374532
-0.025018739 0.045297775 0.18382129
-0.026207199 0.045076907 0.18389699
-0.027393321 0.044856481 0.18397266
-0.0285771 0.044636477 0.18404809
-0.029758556 0.044416904 0.18412337
-0.030937688 0.044197798 0.18419853
-0.032114509 0.043979075 0.18427357
-0.033289023 0.043760799 0.18434843
-0.034461256 0.043542955 0.18442318
-0.03563115 0.043325529 0.18449777
-0.036798794 0.043108534 0.18457216
-0.037964158 0.042891972 0.18464646
-0.039127227 0.042675797 0.18472058
-0.040288057 0.042460088 0.1847946
-0.041446611 0.042244792 0.18486843
-0.0426029 0.042029899 0.18494219
-0.043756954 0.041815408 0.18501568
-0.044908758 0.041601349 0.18508914
-0.046058342 0.041387722 0.18516245
-0.04720569 0.041174483 0.18523556
-0.048350833 0.04096166 0.18530855
-0.12884971 -0.054420833 0.064945519
-0.13003257 -0.055142265 0.064238161
-0.13121757 -0.055864979 0.063529551
-0.13240469 -0.056589037 0.06281966
-0.13359393 -0.057314336 0.062108576
-0.13478532 -0.058040995 0.061396122
-0.13597885 -0.058768917 0.060682446
-0.13717453 -0.059498169 0.059967458
-0.13837232 -0.060228705 0.059251159
-0.13957231 -0.060960591 0.058533669
-0.14077447 -0.061693784 0.057814777
-0.1419788 -0.062428299 0.057094634
-0.14318529 -0.06316416 0.056373149
-0.14439395 -0.063901357 0.055650324
-0.14560482 -0.064639829 0.054926276
-0.14681791 -0.065379664 0.054200977
-0.14803319 -0.066120878 0.053474307
-0.14912456 -0.067420669 0.05183208
-0.1491261 -0.073682994 0.042060673
0.14857033 0.067206264 0.15413046
0.1464574 0.06711597 0.15474328
0.14435515 0.067026168 0.15535304
0.14226352 0.066936828 0.15595976
0.14018239 0.066847958 0.15656343
0.13815318 0.066742323 0.15712234
0.1363726 0.06653741 0.15743664
0.134598 0.066333242 0.15774998
0.13282949 0.066129744 0.15806213
0.13106707 0.065926932 0.15837321
0.12931055 0.06572482 0.15868336
0.12755996 0.065523408 0.15899235
0.12581538 0.065322652 0.15930036
0.12407666 0.065122597 0.15960732
0.12234381 0.064923197 0.15991324
0.1206168 0.064724483 0.16021803
0.11889556 0.064526424 0.16052192
0.11718013 0.06432905 0.16082481
0.11547047 0.064132303 0.16112655
0.1137665 0.063936256 0.16142741
0.1120682 0.063740827 0.16172719
0.11037562 0.063546069 0.16202596
0.10868862 0.063351966 0.16232377
0.10700725 0.063158497 0.16262057
0.10533147 0.062965654 0.16291645
0.10366121 0.062773481 0.16321135
0.1019965 0.062581912 0.1635052
0.10033728 0.062390987 0.16379803
0.098683521 0.062200714 0.16409001
0.097035177 0.062011067 0.16438103
0.095392294 0.061822005 0.16467103
0.093754776 0.061633594 0.16496009
0.092122622 0.06144578 0.16524825
0.090495825 0.061258581 0.16553539
0.088874295 0.061072003 0.16582161
0.087258086 0.060886025 0.166107
0.085647136 0.060700644 0.16639134
0.084041409 0.060515914 0.16667482
0.082440861 0.060331739 0.16695738
0.080845512 0.060148161 0.16723898
0.079255313 0.059965193 0.16751975
0.077670261 0.059782773 0.16779956
0.076090299 0.059601013 0.16807845
0.074515402 0.059419788 0.16835651
0.072945617 0.05923913 0.16863361
0.071380831 0.059059083 0.16890982
0.069821052 0.058879633 0.16918522
0.068266265 0.058700703 0.16945967
0.066716418 0.058522385 0.16973329
0.06517151 0.058344629 0.17000595
0.063631557 0.058167428 0.17027783
0.06209645 0.057990778 0.17054883
0.060566224 0.05781471 0.17081898
0.059040871 0.057639178 0.17108825
0.0575203 0.057464227 0.17135671
0.056004528 0.057289813 0.17162427
0.054493491 0.057115968 0.17189103
0.052987263 0.056942657 0.1721569
0.051485751 0.056769896 0.17242202
0.049988925 0.056597687 0.17268634
0.048496787 0.056426015 0.17294973
0.047009334 0.056254849 0.17321226
0.045526508 0.056084249 0.17347413
0.044048313 0.05591416 0.17373505
0.042574711 0.055744618 0.1739952
0.041105691 0.055575598 0.1742546
0.03964122 0.055407103 0.17451316
0.038181312 0.055239111 0.17477086
0.036725882 0.055071671 0.17502782
0.035274953 0.054904722 0.175284
0.033828489 0.054738298 0.17553931
0.032386508 0.054572377 0.17579389
0.030948963 0.054406982 0.17604768
0.029515777 0.054242093 0.17630073
0.028087026 0.054077692 0.17655295
0.026662646 0.053913798 0.17680439
0.02524258 0.053750426 0.17705518
0.023826867 0.053587534 0.17730504
0.022415474 0.053425133 0.17755425
0.021008343 0.053263254 0.17780271
0.019605517 0.053101849 0.17805037
0.018206911 0.05294092 0.17829728
0.016812563 0.052780487 0.17854342
0.015422405 0.05262053 0.17878884
0.014036464 0.05246108 0.17903352
0.012654708 0.052302074 0.17927748
0.011277081 0.052143577 0.17952064
0.0099036098 0.051985554 0.17976317
0.0085342536 0.051827997 0.18000495
0.0071689934 0.051670901 0.18024594
0.0058078011 0.051514313 0.18048629
0.0044507072 0.051358156 0.18072587
0.0030976511 0.051202457 0.18096471
0.0017486332 0.051047254 0.18120286
0.00040360872 0.050892513 0.18144038
-0.00086604606 0.050683685 0.18156603
-0.0021035145 0.050452828 0.18164572
-0.0033384499 0.050222423 0.18172508
-0.0045709116 0.049992479 0.18180445
-0.0058008847 0.049762983 0.18188351
-0.0070283995 0.049533933 0.18196243
-0.008253485 0.049305387 0.18204123
-0.0094761131 0.049077276 0.18211994
-0.010696282 0.048849631 0.18219846
-0.011914021 0.048622426 0.18227676
-0.013129317 0.048395686 0.1823549
-0.014342215 0.048169393 0.18243292
-0.015552683 0.047943547 0.18251076
-0.016760752 0.047718175 0.18258858
-0.017966392 0.047493212 0.18266609
-0.019169679 0.047268707 0.18274346
-0.020370563 0.04704468 0.18282074
-0.021569068 0.046821054 0.18289778
-0.022765188 0.046597887 0.18297479
-0.023958964 0.04637517 0.18305159
-0.02515039 0.046152886 0.18312815
-0.026339447 0.045931038 0.18320468
-0.027526161 0.045709647 0.183281
-0.028710553 0.045488659 0.18335724
-0.029892592 0.045268118 0.18343326
-0.031072335 0.045048006 0.18350914
-0.032249752 0.044828344 0.1835849
-0.033424832 0.0446091 0.18366048
-0.034597658 0.044390291 0.18373588
-0.035768133 0.044171911 0.18381119
-0.036936343 0.043953933 0.18388629
-0.038102273 0.043736402 0.18396133
-0.039265923 0.043519288 0.18403617
-0.040427309 0.043302607 0.18411091
-0.041586444 0.043086357 0.1841855
-0.042743299 0.042870495 0.18425989
-0.043897931 0.042655084 0.18433419
-0.045050301 0.042440072 0.18440828
-0.046200436 0.042225476 0.18448228
-0.04734835 0.042011343 0.1845561
-0.048494045 0.041797582 0.18462977
-0.12908362 -0.053463142 0.063928217
-0.13026778 -0.054184366 0.063219368
-0.13145405 -0.054906901 0.062509179
-0.13264248 -0.055630755 0.061797768
-0.13383301 -0.056355868 0.061085105
-0.13502568 -0.057082269 0.060371101
-0.1362205 -0.057810042 0.059655815
-0.13741748 -0.058539074 0.058939219
-0.13861662 -0.059269421 0.058221459
-0.13981791 -0.060001109 0.05750221
-0.14102139 -0.060734075 0.056781828
-0.14222702 -0.061468441 0.056060016
-0.14343485 -0.06220407 0.055337071
-0.14464486 -0.062941059 0.054612607
-0.14585705 -0.063679352 0.05388701
-0.14707145 -0.064419053 0.053159982
-0.14828804 -0.065160044 0.052431673
-0.14912501 -0.067591637 0.048914969
0.14739724 0.067759708 0.15293273
0.14528544 0.067667931 0.15354913
0.14318436 0.067576624 0.15416244
0.14109382 0.067485802 0.15477273
0.13901384 0.067395441 0.15537986
0.13694431 0.067305565 0.15598404
0.13488524 0.067216121 0.1565851
0.13283646 0.067127123 0.1571832
0.13100782 0.0669498 0.15756255
0.12925027 0.066745788 0.1578742
0.12749864 0.066542499 0.15818486
0.12575294 0.066339925 0.15849441
0.12401321 0.066137962 0.1588029
0.1222793 0.065936744 0.15911037
0.12055121 0.065736189 0.15941682
0.11882901 0.06553629 0.15972218
0.11711255 0.065337092 0.16002658
0.11540182 0.065138549 0.16032997
0.11369689 0.064940646 0.16063225
0.11199757 0.064743444 0.16093355
0.11030398 0.064546868 0.16123396
0.10861603 0.064350955 0.16153321
0.10693368 0.064155698 0.16183153
0.10525688 0.063961111 0.1621289
0.1035857 0.063767128 0.16242519
0.10192 0.063573815 0.16272065
0.10025986 0.063381113 0.16301501
0.098605156 0.063189089 0.16330844
0.096955851 0.062997684 0.16360089
0.095312074 0.062806875 0.16389236
0.093673617 0.062616736 0.16418293
0.092040516 0.062427197 0.16447249
0.090412818 0.06223825 0.1647611
0.088790409 0.062049963 0.16504887
0.087173276 0.061862301 0.16533557
0.08556141 0.061675202 0.16562143
0.083954796 0.061488733 0.16590631
0.082353361 0.061302889 0.1661903
0.080757171 0.061117608 0.16647333
0.079166085 0.060932957 0.16675547
0.077580191 0.060748886 0.16703668
0.075999364 0.060565427 0.16731703
0.074423634 0.060382549 0.16759646
0.072852954 0.060200252 0.16787499
0.071287364 0.060018532 0.1681526
0.069726728 0.059837412 0.16842934
0.068171114 0.059656873 0.1687052
0.066620469 0.059476886 0.16898015
0.065074764 0.059297495 0.16925424
0.063533947 0.059118681 0.1695275
0.061998066 0.058940407 0.16979983
0.060467023 0.058762718 0.17007133
0.058940865 0.058585592 0.17034191
0.057419527 0.058409002 0.17061177
0.055902973 0.058233008 0.17088068
0.054391187 0.05805758 0.17114878
0.052884191 0.057882644 0.17141601
0.051381893 0.057708308 0.17168242
0.049884323 0.057534505 0.17194802
0.048391439 0.057361253 0.17221272
0.0469032 0.057188548 0.17247665
0.045419663 0.057016388 0.17273971
0.043940719 0.05684473 0.17300203
0.042466402 0.056673624 0.17326349
0.040996626 0.056503087 0.17352414
0.039531428 0.056333039 0.17378399
0.038070809 0.056163501 0.174043
0.036614664 0.05599454 0.17430127
0.035163004 0.055826072 0.17455867
0.033715881 0.055658095 0.17481527
0.032273173 0.055490673 0.17507112
0.030834915 0.055323768 0.17532623
0.029401045 0.05515736 0.1755805
0.027971616 0.054991473 0.17583394
0.026546521 0.054826103 0.17608669
0.025125815 0.054661214 0.17633867
0.023709431 0.054496843 0.17658979
0.022297353 0.054332934 0.17684022
0.02088958 0.05416958 0.17708993
0.019486057 0.054006718 0.17733884
0.018086836 0.053844299 0.17758691
0.016691819 0.05368242 0.17783436
0.015301036 0.053521015 0.17808095
0.013914452 0.05336009 0.17832687
0.012532056 0.053199656 0.178572
0.011153788 0.053039715 0.17881647
0.0097796926 0.052880235 0.17906016
0.0084097236 0.052721243 0.17930308
0.0070438236 0.052562743 0.17954528
0.0056820353 0.052404694 0.17978683
0.0043243156 0.052247122 0.18002754
0.0029706636 0.052090026 0.18026763
0.001621005 0.051933393 0.180507
0.00027538455 0.051777232 0.1807456
-0.0009852103 0.051559974 0.18085718
-0.0022233045 0.051328048 0.18093753
-0.0034589104 0.051096611 0.18101776
-0.0046920278 0.050865639 0.18109778
-0.005922657 0.050635155 0.18117762
-0.0071508568 0.050405111 0.18125737
-0.0083765537 0.05017554 0.18133697
-0.0095998077 0.049946412 0.18141636
-0.010820646 0.049717765 0.18149558
-0.012038996 0.04948955 0.18157467
-0.013254948 0.049261797 0.18165365
-0.014468442 0.049034491 0.18173236
-0.015679564 0.048807647 0.181811
-0.016888259 0.04858128 0.18188947
-0.018094542 0.048355311 0.18196774
-0.019298423 0.048129823 0.18204582
-0.020499906 0.047904752 0.18212378
-0.021699036 0.047680162 0.18220165
-0.022895779 0.047456 0.18227932
-0.024090169 0.0472323 0.18235683
-0.025282191 0.047009043 0.1824342
-0.026471857 0.046786193 0.18251142
-0.027659168 0.046563804 0.18258852
-0.028844142 0.046341848 0.18266544
-0.030026792 0.046120342 0.18274224
-0.031207113 0.045899265 0.18281886
-0.032385129 0.045678634 0.1828953
-0.033560805 0.045458421 0.18297163
-0.034734197 0.045238622 0.1830478
-0.035905283 0.045019288 0.1831238
-0.037074074 0.044800356 0.18319961
-0.038240582 0.044581875 0.1832754
-0.039404828 0.044363823 0.18335098
-0.04056678 0.044146188 0.18342641
-0.041726481 0.04392897 0.18350166
-0.042883903 0.043712154 0.18357676
-0.044039089 0.0434958 0.18365178
-0.045192026 0.043279849 0.18372658
-0.046342731 0.043064319 0.18380126
-0.047491193 0.042849205 0.18387583
-0.048637439 0.042634506 0.18395022
-0.049781464 0.042420238 0.18402451
-0.12931797 -0.052503739 0.062909186
-0.1305034 -0.053224754 0.062198788
-0.13169098 -0.053947099 0.061487049
-0.13288064 -0.054670736 0.060773998
-0.13407248 -0.055395629 0.060059726
-0.13526647 -0.056121875 0.059344172
-0.13646263 -0.056849401 0.058627307
-0.13766091 -0.057578225 0.057909161
-0.13886134 -0.058308382 0.057189792
-0.14006397 -0.059039887 0.056468993
-0.14126873 -0.059772659 0.055747002
-0.14247571 -0.06050681 0.05502364
-0.14368486 -0.061242234 0.054299057
-0.14489619 -0.061979029 0.053573042
-0.14610973 -0.06271714 0.052845806
-0.14732547 -0.063456625 0.052117109
-0.14854345 -0.064197429 0.051387221
-0.14912544 -0.067764163 0.04596889
0.14834359 0.068407863 0.15110967
0.1462221 0.068314143 0.15173289
0.14411141 0.068220854 0.1523529
0.14201143 0.068128057 0.15296981
0.13992204 0.068035781 0.15358353
0.13784321 0.067943931 0.1541943
0.13577484 0.067852572 0.15480196
0.1337169 0.067761667 0.15540653
0.13166922 0.067671217 0.15600815
0.12963185 0.067581251 0.1566067
0.12760459 0.067491725 0.15720227
0.12569048 0.067358516 0.15768734
0.1239496 0.06715472 0.15799746
0.12221471 0.066951625 0.15830648
0.1204856 0.066749223 0.15861449
0.11876232 0.06654752 0.15892139
0.11704486 0.066346444 0.15922731
0.11533315 0.066146098 0.15953219
0.11362718 0.065946385 0.15983608
0.11192688 0.065747343 0.16013896
0.11023226 0.065548986 0.1604408
0.10854334 0.06535127 0.1607416
0.10686 0.065154225 0.16104144
0.10518225 0.064957842 0.1613403
0.10351008 0.064762101 0.1616382
0.10184343 0.064567015 0.16193503
0.1001823 0.064372562 0.16223091
0.098526664 0.064178742 0.16252583
0.09687648 0.063985564 0.16281977
0.09523169 0.063793041 0.16311276
0.093592346 0.063601136 0.16340476
0.091958344 0.063409865 0.16369578
0.090329707 0.063219219 0.16398585
0.088706374 0.0630292 0.16427505
0.087088369 0.062839784 0.16456324
0.085475571 0.062651001 0.16485053
0.083868086 0.062462814 0.16513687
0.082265779 0.062275272 0.16542226
0.08066868 0.062088326 0.16570675
0.079076767 0.061901975 0.16599023
0.077489965 0.061716218 0.16627297
0.075908303 0.061531089 0.16655466
0.074331731 0.061346512 0.16683543
0.072760202 0.061162561 0.16711539
0.071193725 0.060979206 0.16739443
0.069632307 0.060796402 0.16767249
0.068075858 0.06061421 0.1679498
0.066524372 0.060432598 0.16822615
0.064977854 0.060251568 0.16850159
0.06343624 0.060071133 0.16877621
0.061899513 0.059891261 0.16904989
0.06036773 0.059711915 0.16932276
0.058840752 0.059533179 0.16959479
0.057318632 0.059354994 0.16986588
0.05580131 0.059177376 0.17013612
0.054288737 0.059000328 0.17040563
0.052780982 0.058823813 0.17067409
0.051277936 0.058647878 0.17094186
0.049779598 0.058472496 0.17120874
0.04828595 0.058297683 0.17147484
0.046796978 0.058123402 0.17174011
0.045312669 0.057949658 0.17200446
0.04383298 0.057776451 0.17226812
0.042357918 0.057603795 0.17253086
0.040887438 0.057431675 0.17279276
0.039421521 0.057260081 0.17305392
0.037960131 0.057089034 0.17331424
0.036503296 0.056918513 0.17357379
0.035050973 0.056748495 0.17383242
0.033603057 0.056579061 0.17409036
0.032159679 0.056410082 0.17434752
0.030720713 0.056241676 0.17460382
0.029286193 0.056073744 0.17485934
0.027856033 0.055906352 0.17511415
0.026430292 0.055739451 0.17536804
0.025008893 0.055573083 0.17562133
0.023591815 0.055407226 0.17587379
0.022179082 0.05524186 0.17612541
0.020770654 0.055076994 0.17637622
0.019366488 0.054912642 0.17662635
0.017966598 0.054748781 0.1768758
0.016570942 0.054585442 0.17712441
0.015179501 0.054422561 0.17737228
0.013792262 0.054260191 0.1776194
0.012409241 0.054098293 0.17786574
0.011030347 0.053936876 0.17811137
0.0096556395 0.053775966 0.17835623
0.0082850019 0.053615548 0.1786004
0.0069185346 0.053455621 0.17884386
0.0055561354 0.053296141 0.17908648
0.0041977749 0.05313715 0.1793285
0.0028435122 0.052978639 0.17956969
0.0014932726 0.052820574 0.17981023
0.00014707098 0.052662987 0.18005005
-0.0011045088 0.052437332 0.18014738
-0.0023432586 0.052204423 0.18022853
-0.0035795202 0.051971946 0.18030947
-0.004813293 0.051739961 0.18039027
-0.0060445778 0.051508408 0.18047088
-0.0072733886 0.051277343 0.18055135
-0.0084997555 0.051046759 0.18063167
-0.0097236652 0.050816622 0.18071184
-0.01094513 0.050586946 0.18079185
-0.012164136 0.050357733 0.1808717
-0.013380713 0.050128967 0.18095136
-0.014594862 0.049900647 0.1810309
-0.015806582 0.049672816 0.18111026
-0.017015917 0.049445421 0.18118945
-0.018222826 0.049218476 0.18126854
-0.019427331 0.048991989 0.18134737
-0.020629441 0.048765946 0.18142611
-0.02182918 0.048540354 0.18150461
-0.02302655 0.048315208 0.18158305
-0.024221523 0.048090495 0.18166134
-0.025414154 0.047866262 0.18173945
-0.026604431 0.047642458 0.18181747
-0.027792355 0.047419082 0.18189526
-0.028977938 0.047196142 0.18197286
-0.030161168 0.046973635 0.18205038
-0.031342089 0.046751589 0.18212774
-0.032520667 0.046529964 0.1822049
-0.033696953 0.046308797 0.18228194
-0.034870915 0.046088018 0.18235883
-0.036042582 0.045867715 0.18243557
-0.037211969 0.04564783 0.18251213
-0.038379047 0.045428377 0.18258855
-0.03954386 0.045209356 0.1826649
-0.040706377 0.044990767 0.18274102
-0.041866641 0.044772599 0.18281701
-0.043024644 0.04455483 0.1828928
-0.044180397 0.044337507 0.1829685
-0.0453339 0.044120617 0.18304408
-0.046485182 0.043904144 0.18311942
-0.047634184 0.043688074 0.1831947
-0.048780996 0.043472435 0.1832698
-0.049925588 0.043257229 0.18334478
-0.051067926 0.043042414 0.18341964
-0.12836817 -0.050823063 0.062598974
-0.12955275 -0.051542595 0.061888248
-0.13073947 -0.052263416 0.06117627
-0.13192834 -0.052985534 0.060462981
-0.13311933 -0.053708948 0.059748381
-0.13431244 -0.054433677 0.059032559
-0.13550773 -0.055159684 0.058315367
-0.13670515 -0.055887006 0.057597041
-0.13790475 -0.056615636 0.056877315
-0.13910651 -0.05734561 0.056156278
-0.14031044 -0.058076885 0.055433869
-0.14151655 -0.0588095 0.054710269
-0.14272487 -0.059543394 0.053985327
-0.14393532 -0.060278639 0.053259134
-0.14514802 -0.061015222 0.05253154
-0.1463629 -0.061753165 0.051802665
-0.14757997 -0.062492445 0.051072359
-0.14879929 -0.063233063 0.050340831
-0.14912593 -0.06793844 0.042993069
0.14716521 0.068964794 0.14990401
0.14504482 0.068869524 0.1505309
0.14293523 0.068774782 0.15115455
0.1408364 0.068680502 0.151775
0.13874815 0.068586707 0.15239239
0.13667054 0.068493366 0.15300652
0.13460332 0.06840051 0.15361771
0.13254647 0.06830819 0.15422586
0.13049997 0.068216316 0.15483093
0.1284637 0.068124875 0.15543294
0.12643768 0.068033896 0.15603197
0.1244217 0.067943364 0.15662798
0.12241571 0.067853309 0.15722114
0.12041989 0.067763612 0.15781102
0.11869556 0.067560062 0.15811956
0.1169771 0.067357153 0.15842697
0.11526434 0.067154959 0.15873349
0.11355734 0.06695345 0.15903893
0.1118561 0.066752605 0.1593433
0.11016048 0.066552423 0.15964666
0.10847052 0.066352911 0.15994903
0.10678624 0.066154055 0.16025037
0.1051075 0.065955892 0.16055071
0.10343435 0.065758355 0.16085011
0.10176677 0.065561473 0.16114846
0.10010467 0.06536527 0.1614458
0.098448053 0.065169707 0.16174224
0.09679696 0.064974755 0.16203767
0.095151253 0.064780481 0.16233209
0.093510933 0.064586841 0.16262561
0.091876037 0.064393811 0.16291803
0.090246461 0.064201437 0.16320968
0.088622227 0.064009696 0.16350025
0.087003335 0.063818559 0.16378984
0.085389651 0.063628055 0.16407862
0.083781257 0.063438162 0.16436633
0.082178108 0.063248895 0.16465321
0.080580108 0.063060246 0.16493911
0.078987308 0.062872216 0.16522408
0.077399671 0.062684759 0.16550812
0.075817123 0.062497932 0.1657913
0.074239694 0.062311731 0.16607356
0.072667345 0.062126096 0.16635481
0.071100026 0.061941069 0.1666353
0.069537729 0.061756641 0.16691479
0.067980483 0.061572779 0.16719335
0.066428155 0.061389528 0.1674712
0.06488084 0.061206829 0.16774797
0.063338399 0.061024755 0.16802394
0.061800908 0.060843233 0.16829908
0.060268309 0.060662288 0.16857326
0.058740515 0.060481932 0.16884661
0.057217591 0.060302138 0.16911906
0.055699494 0.060122926 0.16939071
0.054186158 0.05994425 0.16966146
0.05267759 0.059766185 0.16993141
0.051173814 0.059588626 0.17020044
0.049674727 0.059411652 0.17046863
0.048180323 0.059235256 0.17073601
0.046690613 0.059059381 0.17100257
0.045205511 0.058884077 0.17126834
0.043725122 0.058709305 0.17153323
0.042249311 0.05853511 0.17179731
0.040778089 0.058361445 0.17206055
0.039311446 0.058188282 0.17232296
0.037849344 0.058015704 0.17258456
0.036391791 0.057843629 0.17284536
0.034938727 0.057672095 0.17310545
0.033490174 0.057501093 0.17336452
0.032046072 0.057330616 0.17362297
0.030606428 0.057160657 0.17388052
0.029171178 0.056991249 0.17413732
0.027740348 0.056822319 0.17439342
0.02631392 0.056653943 0.17464864
0.024891822 0.056486074 0.17490309
0.023474095 0.056318693 0.1751568
0.022060692 0.056151852 0.17540962
0.020651594 0.055985518 0.1756618
0.019246742 0.055819687 0.17591316
0.017846229 0.055654332 0.17616373
0.016449913 0.055489518 0.17641357
0.015057818 0.055325195 0.17666271
0.013669969 0.055161349 0.17691103
0.012286277 0.054997995 0.17715856
0.010906772 0.054835144 0.17740548
0.0095313946 0.054672785 0.17765152
0.0081601888 0.054510921 0.17789692
0.0067930818 0.054349504 0.1781415
0.0054300274 0.054188639 0.17838544
0.0040711155 0.054028206 0.1786285
0.0027162118 0.053868249 0.17887104
0.0013653762 0.05370881 0.17911267
1.8563675e-05 0.053549808 0.17935368
-0.0012239412 0.053315811 0.17943665
-0.0024633764 0.053081859 0.17951855
-0.0037002936 0.052848384 0.17960027
-0.0049347221 0.052615341 0.17968187
-0.0061666626 0.052382786 0.17976326
-0.0073961439 0.052150697 0.17984453
-0.0086231371 0.051919069 0.17992553
-0.0098476866 0.051687919 0.18000653
-0.011069792 0.051457245 0.18008724
-0.012289439 0.051227 0.18016788
-0.013506657 0.050997235 0.18024829
-0.014721418 0.050767921 0.18032855
-0.015933776 0.050539065 0.18040866
-0.017143724 0.050310668 0.18048865
-0.018351242 0.050082706 0.18056837
-0.01955639 0.049855236 0.18064803
-0.020759124 0.049628187 0.18072751
-0.021959476 0.049401596 0.18080682
-0.023157442 0.049175449 0.18088597
-0.024353039 0.048949752 0.18096495
-0.025546283 0.048724532 0.1810438
-0.026737155 0.048499715 0.18112251
-0.027925674 0.048275363 0.18120101
-0.029111855 0.048051454 0.18127945
-0.030295694 0.047827974 0.18135765
-0.031477194 0.047604945 0.18143576
-0.032656386 0.047382347 0.18151367
-0.033833254 0.047160182 0.18159142
-0.035007812 0.046938479 0.181669
-0.036180072 0.046717197 0.18174648
-0.037350025 0.046496358 0.18182376
-0.038517699 0.046275936 0.18190095
-0.039683077 0.046055946 0.1819779
-0.040846191 0.045836389 0.18205476
-0.042007025 0.045617249 0.18213153
-0.043165609 0.045398541 0.18220806
-0.044321928 0.04518025 0.18228447
-0.045475978 0.044962425 0.18236071
-0.046627812 0.044744998 0.18243688
-0.047777396 0.044527989 0.18251282
-0.048924729 0.044311382 0.18258858
-0.050069857 0.044095222 0.18266422
-0.05121278 0.043879494 0.18273979
-0.12860209 -0.049860399 0.061577737
-0.12978795 -0.050579704 0.060865521
-0.13097595 -0.051300347 0.060151875
-0.1321661 -0.052022211 0.059437007
-0.1333584 -0.052745432 0.058720917
-0.13455281 -0.053469952 0.058003485
-0.1357494 -0.054195754 0.057284772
-0.13694817 -0.054922894 0.056564718
-0.13814907 -0.0556513 0.055843443
-0.13935214 -0.05638105 0.055120796
-0.14055736 -0.057112139 0.054396927
-0.14176482 -0.057844512 0.053671718
-0.14297442 -0.058578238 0.052945167
-0.14418627 -0.05931329 0.052217275
-0.1454003 -0.060049679 0.051488101
-0.14661652 -0.060787395 0.050757617
-0.14783493 -0.061526485 0.050025731
-0.1490556 -0.062266901 0.049292505
-0.14912641 -0.068114452 0.039987117
0.14811487 0.069619991 0.14806256
0.14598469 0.069522701 0.14869624
0.14386545 0.069425948 0.14932674
0.14175703 0.069329672 0.14995402
0.13965932 0.069233894 0.15057805
0.13757221 0.069138616 0.15119901
0.13549572 0.069043815 0.15181676
0.13342968 0.068949483 0.15243146
0.13137402 0.068855651 0.15304312
0.12932865 0.068762317 0.15365162
0.12729357 0.068669438 0.15425715
0.12526867 0.068577029 0.15485966
0.12325384 0.068485059 0.15545917
0.12124908 0.068393558 0.1560556
0.11925423 0.068302557 0.15664923
0.11726929 0.068211935 0.15723979
0.1152941 0.068121806 0.1578275
0.11348746 0.067961834 0.15824065
0.11178517 0.067759171 0.15854657
0.11008858 0.067557164 0.15885147
0.10839763 0.067355871 0.15915537
0.10671234 0.067155212 0.15945828
0.10503268 0.066955224 0.15976009
0.10335854 0.066755913 0.16006091
0.10168996 0.066557281 0.16036084
0.10002696 0.066359259 0.16065967
0.098369397 0.066161908 0.16095757
0.096717313 0.065965235 0.16125444
0.09507069 0.065769196 0.16155037
0.093429446 0.065573812 0.16184536
0.091793597 0.065379038 0.16213933
0.090163149 0.065184914 0.16243234
0.088537984 0.064991437 0.16272444
0.08691816 0.064798594 0.16301557
0.085303642 0.064606331 0.1633057
0.083694339 0.064414769 0.16359496
0.082090244 0.064223796 0.16388321
0.080491424 0.064033426 0.16417053
0.078897737 0.063843705 0.16445693
0.077309251 0.063654557 0.16474235
0.075725839 0.063466042 0.16502696
0.07414753 0.063278154 0.16531062
0.072574377 0.063090838 0.1655933
0.071006209 0.062904134 0.1658752
0.069443092 0.062718041 0.16615605
0.067884989 0.062532537 0.16643608
0.066331871 0.062347624 0.16671523
0.064783692 0.062163316 0.16699344
0.063240469 0.061979573 0.16727078
0.061702147 0.061796442 0.16754726
0.06016871 0.061613876 0.16782284
0.058640167 0.061431892 0.1680975
0.057116434 0.061250485 0.16837141
0.055597547 0.061069634 0.16864434
0.054083448 0.060889367 0.16891643
0.052574098 0.060709693 0.16918772
0.051069532 0.060530569 0.16945809
0.049569726 0.060351983 0.16972762
0.04807457 0.060173977 0.16999638
0.046584081 0.059996556 0.17026424
0.045098275 0.059819654 0.1705313
0.043617148 0.059643332 0.17079744
0.04214057 0.05946755 0.17106289
0.040668622 0.059292316 0.17132744
0.039201241 0.059117619 0.1715911
0.037738442 0.058943473 0.17185405
0.036280133 0.058769882 0.17211613
0.034826402 0.058596794 0.17237738
0.033377115 0.058424275 0.17263785
0.031932287 0.05825229 0.17289761
0.030491943 0.0580808 0.17315647
0.029056029 0.057909843 0.17341447
0.02762452 0.057739425 0.17367172
0.02619737 0.057569537 0.17392826
0.024774639 0.057400163 0.17418399
0.023356242 0.057231296 0.17443889
0.021942122 0.057062946 0.17469308
0.02053237 0.056895122 0.17494649
0.019126907 0.056727789 0.175199
0.017725691 0.056560978 0.17545086
0.016328707 0.0563947 0.17570198
0.014936001 0.056228869 0.17595226
0.013547496 0.056063563 0.17620185
0.012163193 0.055898778 0.17645061
0.010783047 0.05573447 0.17669868
0.0094070593 0.055570655 0.17694595
0.0080351988 0.055407345 0.17719257
0.0066674501 0.05524452 0.17743838
0.0053038299 0.055082165 0.17768341
0.0039442768 0.054920316 0.17792776
0.0025887624 0.054758973 0.17817149
0.0012373307 0.054598063 0.17841429
-0.00010095831 0.05443088 0.17864227
-0.0013435377 0.054195408 0.17872506
-0.0025836136 0.053960413 0.17880777
-0.0038212014 0.053725876 0.17889026
-0.0050562858 0.053491853 0.17897257
-0.0062888963 0.053258259 0.17905474
-0.0075190184 0.053025138 0.17913669
-0.0087466668 0.052792497 0.17921859
-0.009971858 0.052560315 0.17930028
-0.01119459 0.052328601 0.17938176
-0.012414876 0.052097362 0.17946315
-0.013632735 0.051866584 0.17954436
-0.01484815 0.051636264 0.17962539
-0.016061122 0.05140638 0.17970619
-0.017271694 0.051176976 0.17978686
-0.018479869 0.050948042 0.17986739
-0.019685613 0.050719544 0.17994779
-0.020888973 0.050491508 0.18002802
-0.022089936 0.050263904 0.18010807
-0.023288526 0.050036792 0.180188
-0.02448472 0.049810097 0.18026772
-0.025678575 0.049583863 0.18034729
-0.026870057 0.049358077 0.18042675
-0.028059188 0.049132738 0.18050608
-0.02924595 0.048907846 0.18058515
-0.030430399 0.048683371 0.18066406
-0.031612497 0.048459362 0.18074292
-0.03279227 0.048235781 0.18082145
-0.033969715 0.048012644 0.18090001
-0.035144869 0.047789957 0.18097836
-0.036317699 0.047567688 0.18105653
-0.037488248 0.04734588 0.18113461
-0.038656488 0.04712449 0.1812124
-0.039822474 0.046903551 0.18129015
-0.040986139 0.046683025 0.18136778
-0.042147554 0.046462931 0.18144518
-0.04330669 0.046243269 0.18152249
-0.044463575 0.046024039 0.18159956
-0.04561821 0.045805242 0.18167654
-0.046770595 0.045586862 0.18175334
-0.047920726 0.045368902 0.18183002
-0.049068656 0.045151372 0.18190655
-0.050214335 0.044934258 0.18198296
-0.051357798 0.044717565 0.18205917
-0.052499067 0.044501286 0.18213528
-0.12883641 -0.048895989 0.060554653
-0.13002357 -0.0496151 0.059840828
-0.13121288 -0.050335489 0.059125662
-0.13240431 -0.05105719 0.058409244
-0.13359787 -0.051780142 0.057691514
-0.13479361 -0.052504472 0.056972533
-0.13599151 -0.053230077 0.056252211
-0.13719158 -0.053956978 0.055530697
-0.13839379 -0.05468519 0.054807752
-0.13959818 -0.055414762 0.054083437
-0.14080478 -0.056145601 0.053358018
-0.14201356 -0.056877792 0.05263117
-0.14322451 -0.057611309 0.051903009
-0.14443764 -0.058346152 0.051173538
-0.14565301 -0.059082359 0.050442696
-0.14687058 -0.059819892 0.049710572
-0.14809039 -0.060558729 0.048977166
-0.1491255 -0.062109523 0.046872228
-0.14912689 -0.068292312 0.036950499
0.14907113 0.070279725 0.14620817
0.14693114 0.070180409 0.14684892
0.14480208 0.070081629 0.1474863
0.14268398 0.069983333 0.14812049
0.14057668 0.069885567 0.14875135
0.13848011 0.069788307 0.14937904
0.13639416 0.069691509 0.15000355
0.13431881 0.069595195 0.15062493
0.13225396 0.069499403 0.15124312
0.13019946 0.069404088 0.15185824
0.12815529 0.069309294 0.15247032
0.12612139 0.069214962 0.15307936
0.12409759 0.069121107 0.15368527
0.12208401 0.069027714 0.15428826
0.12008035 0.068934798 0.15488821
0.1180867 0.068842314 0.15548512
0.11610292 0.068750322 0.15607914
0.11412896 0.068658754 0.15667018
0.11216473 0.068567641 0.15725836
0.11021015 0.068477005 0.15784356
0.10832467 0.068360098 0.15836066
0.10663837 0.068157673 0.158665
0.10495771 0.067955874 0.15896842
0.10328263 0.067754775 0.15927079
0.10161309 0.06755434 0.15957215
0.099949107 0.06735456 0.15987256
0.098290622 0.067155451 0.16017193
0.096637584 0.066956989 0.16047037
0.094989985 0.066759184 0.16076773
0.09334787 0.066562034 0.16106418
0.091711104 0.06636554 0.16135964
0.090079725 0.066169649 0.16165406
0.088453658 0.065974452 0.16194764
0.086832926 0.065779865 0.16224018
0.085217498 0.065585904 0.16253179
0.083607279 0.065392591 0.16282251
0.082002342 0.065199926 0.16311216
0.080402628 0.065007851 0.16340095
0.078808077 0.064816408 0.16368878
0.077218682 0.064625584 0.16397566
0.075634457 0.064435378 0.1642617
0.074055314 0.064245798 0.16454667
0.072481222 0.064056821 0.16483086
0.070912257 0.063868448 0.16511413
0.069348283 0.063680664 0.16539639
0.067789353 0.063493513 0.16567782
0.066235423 0.06330695 0.16595832
0.064686425 0.063120976 0.16623798
0.063142382 0.062935621 0.16651666
0.061603263 0.062750839 0.16679454
0.060069028 0.062566631 0.16707146
0.058539663 0.06238303 0.16734749
0.057015166 0.062200002 0.16762269
0.055495478 0.062017538 0.16789708
0.0539806 0.061835673 0.16817051
0.05247049 0.061654374 0.16844308
0.050965156 0.061473642 0.16871485
0.049464528 0.061293494 0.16898575
0.047968656 0.061113879 0.1692557
0.046477448 0.060934845 0.16952494
0.044990893 0.060756397 0.16979325
0.043508977 0.060578495 0.17006078
0.042031709 0.06040113 0.17032748
0.040559035 0.060224336 0.17059335
0.039090909 0.060048088 0.17085838
0.03762738 0.059872393 0.17112261
0.036168389 0.059697248 0.17138594
0.034713905 0.05952264 0.17164856
0.033263911 0.059348557 0.17191035
0.031818405 0.059175037 0.17217129
0.030377351 0.059002042 0.17243144
0.028940724 0.058829583 0.17269078
0.027508523 0.058657642 0.17294931
0.026080729 0.058486212 0.17320704
0.02465729 0.058315344 0.17346406
0.023238195 0.058144987 0.17372024
0.021823464 0.057975132 0.17397565
0.020413026 0.057805818 0.17423028
0.019006863 0.057637006 0.17448404
0.017605007 0.05746872 0.17473724
0.016207412 0.057300925 0.17498946
0.014814065 0.057133652 0.17524105
0.013424888 0.056966897 0.17549175
0.012039916 0.056800619 0.17574182
0.010659159 0.056634851 0.17599109
0.0092825601 0.056469589 0.17623952
0.0079100579 0.05630485 0.17648739
0.0065417141 0.056140557 0.17673439
0.0051774383 0.055976771 0.17698067
0.0038172894 0.055813506 0.17722625
0.0024611787 0.0556507 0.17747104
0.0011091511 0.055488374 0.17771515
-0.00022003325 0.055312622 0.17792892
-0.0014633129 0.055076104 0.17801258
-0.0027040446 0.054840069 0.178096
-0.003942288 0.054604523 0.17817929
-0.0051780278 0.05436945 0.17826235
-0.0064112791 0.054134827 0.17834535
-0.0076420424 0.053900681 0.17842811
-0.0088703465 0.053667013 0.1785107
-0.010096177 0.053433836 0.17859316
-0.011319565 0.053201091 0.17867541
-0.012540478 0.052968834 0.17875755
-0.013758993 0.052737027 0.17883947
-0.014975018 0.052505687 0.17892122
-0.016188631 0.052274801 0.17900288
-0.017399829 0.052044395 0.1790843
-0.0186086 0.051814437 0.17916557
-0.019814968 0.051584911 0.17924669
-0.021018971 0.051355876 0.17932767
-0.022220556 0.051127303 0.17940852
-0.023419745 0.050899148 0.17948911
-0.024616566 0.050671469 0.17956957
-0.025811028 0.050444253 0.17964995
-0.027003124 0.050217465 0.17973009
-0.028192837 0.049991146 0.17981011
-0.029380236 0.049765255 0.17988995
-0.030565254 0.049539827 0.17996967
-0.031747948 0.04931483 0.18004924
-0.032928318 0.049090266 0.18012851
-0.034106363 0.048866164 0.18020779
-0.035282109 0.048642498 0.18028685
-0.036455534 0.048419259 0.18036577
-0.03762665 0.048196483 0.18044451
-0.038795486 0.047974125 0.18052316
-0.039962023 0.047752209 0.1806016
-0.041126285 0.047530714 0.18067989
-0.042288266 0.047309667 0.18075806
-0.043447964 0.047089055 0.18083605
-0.044605415 0.046868857 0.1809139
-0.04576062 0.046649095 0.18099156
-0.046913557 0.046429761 0.18106908
-0.048064243 0.046210829 0.18114644
-0.049212739 0.04599236 0.18122363
-0.05035897 0.045774292 0.18130079
-0.051502991 0.045556661 0.18137768
-0.052644782 0.045339443 0.18145445
-0.12788486 -0.047212217 0.060243875
-0.12907115 -0.047929805 0.059529752
-0.13025962 -0.048648708 0.058814317
-0.13145021 -0.049368888 0.058097661
-0.13264295 -0.050090369 0.057379633
-0.13383782 -0.050813157 0.056660295
-0.1350349 -0.051537216 0.055939734
-0.13623407 -0.052262641 0.055217803
-0.13743544 -0.052989334 0.054494619
-0.138639 -0.053717341 0.053770185
-0.13984472 -0.05444666 0.053044349
-0.14105263 -0.055177346 0.052317232
-0.14226271 -0.055909283 0.051588744
-0.14347503 -0.056642607 0.050859034
-0.14468952 -0.05737726 0.050127864
-0.14590621 -0.05811324 0.049395412
-0.14712514 -0.058850557 0.048661709
-0.14834628 -0.059589233 0.047926575
-0.14912578 -0.062255185 0.043915719
0.14788413 0.070842721 0.14498866
0.14574526 0.070741877 0.14563304
0.14361738 0.070641547 0.14627415
0.14150038 0.070541754 0.14691198
0.13939422 0.070442438 0.14754653
0.13729882 0.070343666 0.14817783
0.135214 0.070245378 0.14880604
0.13313983 0.070147611 0.14943093
0.13107614 0.070050314 0.15005273
0.12902288 0.069953516 0.1506713
0.1269799 0.069857217 0.1512869
0.12494709 0.069761433 0.15189946
0.12292452 0.069666132 0.15250891
0.12091208 0.069571286 0.15311536
0.11890962 0.069476925 0.15371871
0.11691714 0.069383048 0.15431905
0.11493455 0.06928961 0.15491647
0.11296179 0.069196634 0.15551093
0.11099871 0.06910415 0.15610245
0.10904537 0.069012076 0.15669098
0.10710155 0.068920501 0.15727678
0.10516734 0.068829328 0.15785959
0.10324252 0.068738617 0.15843955
0.10153613 0.068552725 0.15878251
0.099871151 0.068351172 0.15908432
0.098211735 0.068150267 0.15938526
0.096557766 0.067950025 0.15968513
0.094909251 0.067750469 0.15998399
0.093266174 0.067551538 0.16028193
0.09162847 0.067353301 0.16057885
0.089996137 0.067155682 0.16087481
0.088369213 0.066958718 0.16116986
0.086747564 0.06676241 0.16146386
0.085131183 0.066566736 0.16175696
0.083520159 0.066371679 0.16204897
0.081914313 0.066177286 0.16234022
0.080313675 0.065983512 0.16263041
0.078718275 0.065790363 0.16291967
0.077128001 0.06559784 0.16320804
0.075542897 0.065405935 0.16349539
0.073962927 0.065214679 0.16378185
0.072387993 0.065024011 0.16406745
0.070818149 0.064833961 0.16435206
0.069253393 0.064644545 0.16463572
0.067693613 0.064455718 0.16491857
0.066138811 0.064267509 0.16520047
0.064589038 0.064079888 0.16548148
0.063044183 0.063892841 0.16576159
0.061504249 0.063706413 0.16604081
0.059969217 0.063520588 0.16631913
0.058439057 0.063335367 0.16659659
0.056913733 0.063150719 0.16687316
0.055393297 0.06296663 0.16714883
0.053877622 0.062783144 0.16742361
0.052366737 0.062600218 0.16769755
0.050860636 0.06241791 0.16797063
0.049359251 0.062236134 0.16824293
0.047862612 0.062054954 0.16851422
0.04637067 0.061874315 0.16878474
0.044883367 0.061694268 0.16905436
0.043400727 0.061514787 0.16932324
0.041922711 0.061335877 0.16959122
0.040449288 0.061157528 0.16985843
0.038980454 0.060979702 0.17012474
0.037516177 0.06080246 0.17039031
0.036056492 0.060625751 0.17065489
0.03460126 0.060449596 0.17091885
0.033150576 0.06027399 0.17118186
0.031704385 0.06009892 0.17144406
0.030262619 0.059924386 0.17170554
0.028825305 0.059750408 0.17196611
0.027392412 0.059576951 0.17222595
0.025963936 0.059404012 0.17248496
0.024539795 0.059231628 0.17274326
0.023120044 0.059059747 0.17300066
0.021704642 0.058888406 0.17325729
0.020293532 0.058717601 0.17351317
0.01888673 0.058547299 0.17376825
0.017484218 0.058377534 0.17402261
0.016085953 0.058208264 0.17427614
0.014691919 0.058039531 0.17452893
0.013302133 0.057871275 0.17478091
0.011916549 0.057703555 0.17503217
0.010535107 0.057536323 0.17528263
0.0091578821 0.057369586 0.17553237
0.0077847843 0.057203367 0.17578134
0.0064158146 0.057037659 0.17602956
0.0050509274 0.056872427 0.17627707
0.0036901529 0.056707703 0.17652383
0.0023334462 0.056543469 0.17676988
0.0009807779 0.056379743 0.17701513
-0.00033928704 0.056195483 0.17721477
-0.0015832223 0.055957925 0.1772992
-0.002824595 0.055720855 0.17738342
-0.0040634936 0.055484265 0.17746741
-0.005299889 0.055248138 0.1775513
-0.0065338109 0.055012487 0.17763504
-0.0077652447 0.054777328 0.17771858
-0.0089941751 0.054542616 0.17780188
-0.010220662 0.054308392 0.17788512
-0.011444674 0.054074638 0.17796817
-0.012666243 0.053841356 0.17805102
-0.013885354 0.053608563 0.17813367
-0.015102065 0.05337619 0.17821625
-0.016316302 0.053144295 0.17829865
-0.017528128 0.052912876 0.17838082
-0.018737538 0.052681919 0.17846292
-0.019944534 0.052451409 0.17854479
-0.021149145 0.052221347 0.17862648
-0.022351343 0.051991772 0.17870808
-0.023551159 0.051762648 0.17878938
-0.024748588 0.051533945 0.17887062
-0.025943648 0.05130573 0.17895171
-0.027136341 0.051077947 0.17903262
-0.028326677 0.050850641 0.17911342
-0.029514674 0.050623763 0.17919397
-0.030700289 0.050397325 0.17927438
-0.031883575 0.050171345 0.17935467
-0.033064526 0.049945813 0.17943469
-0.034243181 0.049720727 0.17951471
-0.035419498 0.049496073 0.17959449
-0.036593519 0.049271867 0.17967415
-0.037765212 0.049048111 0.17975357
-0.038934629 0.048824783 0.17983294
-0.040101737 0.048601888 0.17991215
-0.041266564 0.04837944 0.17999113
-0.042429142 0.048157424 0.18007001
-0.043589424 0.047935855 0.18014872
-0.044747442 0.047714673 0.18022734
-0.045903206 0.047493972 0.18030566
-0.047056708 0.047273669 0.18038395
-0.048207976 0.047053814 0.18046206
-0.049356993 0.046834391 0.18054003
-0.050503805 0.046615385 0.18061784
-0.051648367 0.046396796 0.18069544
-0.052790739 0.046178639 0.18077293
-0.05393089 0.045960899 0.18085027
-0.12811872 -0.046244528 0.059218645
-0.12930636 -0.046961907 0.058502942
-0.13049608 -0.047680587 0.057785958
-0.13168797 -0.048400562 0.057067692
-0.13288201 -0.049121801 0.056348085
-0.1340782 -0.049844366 0.055627197
-0.13527657 -0.050568245 0.054905027
-0.1364771 -0.051293418 0.054181546
-0.13767976 -0.05201989 0.053456813
-0.13888463 -0.0527477 0.05273068
-0.14009169 -0.053476825 0.052003235
-0.14130092 -0.054207243 0.051274538
-0.14251234 -0.054939035 0.050544381
-0.14372596 -0.055672135 0.049813062
-0.14494181 -0.056406561 0.049080342
-0.14615986 -0.057142362 0.048346251
-0.14738017 -0.057879459 0.047610879
-0.14860263 -0.058617938 0.046874106
-0.14912625 -0.062401738 0.04093039
0.14884385 0.071509615 0.14311531
0.14669497 0.071406737 0.14376697
0.14455724 0.071304336 0.14441508
0.14243053 0.071202472 0.14505985
0.1403147 0.071101151 0.14570138
0.13820966 0.071000323 0.1463396
0.13611542 0.070900045 0.14697456
0.13403179 0.070800252 0.14760631
0.13195878 0.070700973 0.14823487
0.12989625 0.070602193 0.14886019
0.12784415 0.07050392 0.14948243
0.12580237 0.070406131 0.15010145
0.1237708 0.070308879 0.15071747
0.12174939 0.070212126 0.15133044
0.11973812 0.07011582 0.15194029
0.11773687 0.070020013 0.15254718
0.11574557 0.069924697 0.15315098
0.11376417 0.069829836 0.15375182
0.11179257 0.06973546 0.15434963
0.10983074 0.069641545 0.15494451
0.10787854 0.069548093 0.15553644
0.10593597 0.06945511 0.15612558
0.10400292 0.069362581 0.15671161
0.10207934 0.069270469 0.15729499
0.10016513 0.069178835 0.15787542
0.098260216 0.069087662 0.15845305
0.096477829 0.068944372 0.15889889
0.09482836 0.068743028 0.1591993
0.093184337 0.068542376 0.15949869
0.091545731 0.068342343 0.15979713
0.089912504 0.06814298 0.16009456
0.088284627 0.067944273 0.16039106
0.086662106 0.067746215 0.16068649
0.085044853 0.067548804 0.16098106
0.083432853 0.067352057 0.16127464
0.081826158 0.06715589 0.16156721
0.080224663 0.066960409 0.16185883
0.078628376 0.066765562 0.16214955
0.07703726 0.066571347 0.16243935
0.075451255 0.066377766 0.16272819
0.073870406 0.066184819 0.16301608
0.072294682 0.065992445 0.16330302
0.070723981 0.065800749 0.16358912
0.069158331 0.065609626 0.16387415
0.067597754 0.065419108 0.1641584
0.066042155 0.065229222 0.16444173
0.064491488 0.06503997 0.16472411
0.062945865 0.064851277 0.16500556
0.061405111 0.064663231 0.16528621
0.059869282 0.06447576 0.16556585
0.058338314 0.064288877 0.16584474
0.05681223 0.064102583 0.16612265
0.05529099 0.063916877 0.16639963
0.053774554 0.063731775 0.16667581
0.052262895 0.063547261 0.16695109
0.050756011 0.063363321 0.16722554
0.049253844 0.06317997 0.16749913
0.047756437 0.062997192 0.16777179
0.046263739 0.062814966 0.16804364
0.044775691 0.062633336 0.16831464
0.043292288 0.06245229 0.16858476
0.04181356 0.062271751 0.16885406
0.040339444 0.062091824 0.16912255
0.038869869 0.061912466 0.16939023
0.037404843 0.061733656 0.16965705
0.035944417 0.0615554 0.16992304
0.034488518 0.061377693 0.17018816
0.033037115 0.061200526 0.17045248
0.031590179 0.061023921 0.17071611
0.030147759 0.060847871 0.1709787
0.028709739 0.06067235 0.17124063
