# .PCD v0.7 - Point Cloud Data file format
VERSION 0.7
FIELDS x y z
SIZE 4 4 4
TYPE F F F
COUNT 1 1 1
WIDTH 1375
HEIGHT 1
VIEWPOINT 0 0 0 1 0 0 0
POINTS 1375
DATA ascii
0.10292687 -0.30377692 0.029620707
0.10083324 -0.30388799 0.029709458
0.098744385 -0.30399889 0.029797971
0.096660107 -0.30410951 0.029886365
0.094580516 -0.30421975 0.02997452
0.093670905 -0.30630657 0.02822125
0.093670748 -0.30996662 0.025004268
0.093669765 -0.31366745 0.021751523
0.093668714 -0.31741107 0.018461108
0.09366776 -0.32119843 0.015132308
-0.094366618 -0.18370107 0.15272778
-0.095630184 -0.18397184 0.15260234
-0.096892476 -0.18424234 0.15247691
-0.09815342 -0.18451254 0.15235165
-0.099413082 -0.18478252 0.15222654
-0.10067141 -0.18505223 0.15210155
-0.10192847 -0.18532158 0.1519767
-0.1031842 -0.18559068 0.15185192
-0.10443863 -0.18585949 0.15172738
-0.10569182 -0.18612809 0.15160286
-0.10694367 -0.18639633 0.15147853
-0.10819422 -0.18666434 0.15135428
-0.1094435 -0.1869321 0.15123016
-0.11069146 -0.18719955 0.15110621
-0.11193817 -0.18746673 0.15098238
-0.11318358 -0.18773359 0.15085864
-0.11442772 -0.18800025 0.15073508
-0.1156706 -0.18826658 0.15061161
-0.11691215 -0.18853264 0.15048832
-0.11815246 -0.1887985 0.15036514
-0.11939149 -0.18906395 0.15024206
-0.12062923 -0.18932925 0.15011907
-0.12186571 -0.18959418 0.14999625
-0.12310091 -0.18985893 0.14987361
-0.12433487 -0.19012341 0.14975101
-0.12556756 -0.19038755 0.14962852
-0.12679899 -0.19065148 0.14950621
-0.12802906 -0.19091533 0.14938381
-0.12925792 -0.19117904 0.14926139
-0.13048548 -0.19144249 0.1491392
-0.1317118 -0.19170569 0.14901698
-0.13293688 -0.1919686 0.148895
-0.1341607 -0.19223122 0.1487731
-0.13435997 -0.19790989 0.14379954
-0.13436034 -0.20483543 0.13771227
-0.13436069 -0.21198235 0.13143048
-0.13436107 -0.21936136 0.12494466
-0.13436148 -0.22698405 0.11824474
-0.13436128 -0.23486622 0.11131659
-0.13436121 -0.24301641 0.10415289
-0.13436133 -0.25144905 0.096741021
-0.13436322 -0.26016915 0.089076608
-0.13436432 -0.26920763 0.081132203
-0.12892862 -0.31302351 0.042136014
-0.13053334 -0.31306529 0.042242229
-0.13213465 -0.31310686 0.042348206
-0.13373251 -0.31314844 0.042453945
-0.13436471 -0.3197993 0.036664367
-0.13436565 -0.33113652 0.026699483
0.13301438 -0.14247778 0.16689238
0.13141538 -0.1427404 0.16680524
0.12981875 -0.14300257 0.1667183
0.12822457 -0.14326441 0.16663149
0.12663276 -0.14352584 0.16654485
0.12504336 -0.14378683 0.16645834
0.12345635 -0.14404747 0.16637182
0.12187171 -0.14430772 0.16628557
0.12028942 -0.14456753 0.16619939
0.11870956 -0.14482701 0.16611344
0.11713217 -0.1450862 0.1660274
0.11555722 -0.14534511 0.16594136
0.11398464 -0.14560366 0.1658555
0.11241444 -0.14586183 0.1657697
0.11084658 -0.14611956 0.16568407
0.10928106 -0.146377 0.16559857
0.10771783 -0.14663398 0.16551325
0.10615695 -0.14689058 0.16542801
0.10459842 -0.14714684 0.16534284
0.1030422 -0.14740273 0.16525784
0.10148825 -0.14765817 0.16517296
0.099936612 -0.14791325 0.16508824
0.098387338 -0.148168 0.16500366
0.096840344 -0.14842235 0.16491911
0.095295653 -0.14867635 0.16483468
0.093753196 -0.14892994 0.16475046
0.093674436 -0.15091845 0.1630024
0.093674339 -0.15301792 0.16114923
0.093674235 -0.15513574 0.15927997
0.093674161 -0.1572721 0.15739423
0.093674049 -0.1594272 0.15549198
0.093673952 -0.16160136 0.15357289
0.093673863 -0.16379486 0.15163675
0.093673788 -0.16600795 0.1496833
0.093673661 -0.16824076 0.1477125
0.093673579 -0.17049372 0.14572385
0.093673468 -0.172767 0.14371732
0.093673348 -0.17506093 0.14169249
0.093673237 -0.17737578 0.1396493
0.093673155 -0.17971185 0.13758728
0.093673006 -0.18206935 0.13550636
0.093672827 -0.18444863 0.13340622
0.093672648 -0.18684997 0.13128671
0.093672521 -0.1892738 0.12914729
0.093672387 -0.19172035 0.12698776
0.093672276 -0.19418997 0.12480783
0.093672127 -0.19668292 0.12260741
0.093672015 -0.19919965 0.120386
0.093671873 -0.20174034 0.11814338
0.093671709 -0.20430544 0.1158793
0.093671598 -0.20689534 0.11359322
0.093671478 -0.2095103 0.11128503
0.093671322 -0.21215072 0.10895449
0.09367118 -0.21481699 0.10660094
0.093671024 -0.21750949 0.10422438
0.093670897 -0.22022867 0.10182428
0.093670741 -0.22297478 0.099400342
0.093670584 -0.22574829 0.0969522
0.09367048 -0.2285497 0.094479561
0.093670279 -0.23137929 0.091982007
0.093670659 -0.23423836 0.089458227
0.093671076 -0.23712663 0.086908817
0.093671009 -0.24004374 0.084333956
0.093670279 -0.2429899 0.081733525
0.093669489 -0.24596645 0.079106212
0.093669198 -0.24897473 0.076450944
0.093669556 -0.25201541 0.073767006
0.093669899 -0.25508803 0.071054816
0.093670286 -0.25819319 0.068313956
0.093670659 -0.26133129 0.06554395
0.093671031 -0.26450288 0.062744439
0.11532013 -0.3016935 0.027957916
0.11319728 -0.30180776 0.028049171
0.11107921 -0.30192176 0.028140247
0.1089659 -0.30203548 0.028231025
0.10685741 -0.30214906 0.028321743
0.10475357 -0.30226222 0.028412223
0.10265449 -0.30237523 0.028502405
0.1005601 -0.30248788 0.028592527
0.098470464 -0.30260035 0.028682292
0.096385472 -0.30271259 0.028771937
0.09430512 -0.30282459 0.028861403
0.093670808 -0.30537683 0.026666045
0.093670718 -0.30903688 0.023435354
0.093669862 -0.31273785 0.020168662
0.093668848 -0.31648153 0.016864359
-0.094143569 -0.17980716 0.15450135
-0.095418319 -0.18001659 0.15443179
-0.096676663 -0.18027586 0.15431684
-0.097930238 -0.18054658 0.15419137
-0.099182554 -0.18081692 0.15406606
-0.10043353 -0.18108706 0.15394089
-0.10168327 -0.18135688 0.15381581
-0.10293169 -0.18162644 0.15369084
-0.10417884 -0.18189575 0.153566
-0.10542469 -0.1821647 0.1534414
-0.1066693 -0.18243344 0.15331677
-0.10791259 -0.18270187 0.1531924
-0.10915463 -0.18297006 0.15306813
-0.1103954 -0.18323794 0.15294388
-0.11163488 -0.18350558 0.15281987
-0.11287308 -0.18377297 0.15269592
-0.11411006 -0.18404 0.15257213
-0.11534575 -0.18430683 0.15244848
-0.11658019 -0.18457337 0.15232494
-0.11781332 -0.18483964 0.15220147
-0.11904526 -0.18510558 0.15207824
-0.12027587 -0.18537132 0.15195507
-0.12150528 -0.18563679 0.15183198
-0.12273341 -0.18590192 0.15170914
-0.12396028 -0.18616682 0.15158632
-0.12518592 -0.18643147 0.15146366
-0.12641031 -0.18669583 0.15134117
-0.12763344 -0.18695991 0.15121871
-0.12885538 -0.18722375 0.15109643
-0.13007598 -0.18748751 0.15097409
-0.13129528 -0.18775114 0.15085176
-0.13251343 -0.18801452 0.15072951
-0.13373028 -0.18827763 0.15060741
-0.13435978 -0.19159509 0.14773607
-0.13436015 -0.19834162 0.14178121
-0.13436052 -0.20530112 0.13563824
-0.13436083 -0.21248396 0.12929818
-0.13436125 -0.21990103 0.12275127
-0.13436165 -0.22756398 0.11598745
-0.13436121 -0.23549031 0.10899103
-0.1343613 -0.24368516 0.10175759
-0.13436143 -0.25216591 0.094271839
-0.13436364 -0.26093498 0.086531848
-0.13436477 -0.27002785 0.078505933
-0.12917134 -0.31242588 0.040612102
-0.13077839 -0.31246829 0.040720165
-0.13238205 -0.3125107 0.040827811
-0.13398224 -0.31255296 0.040935338
-0.13436487 -0.32095268 0.033555806
0.13420711 -0.13896768 0.16805884
0.13261248 -0.13923202 0.16797122
0.13102029 -0.13949604 0.16788369
0.12943047 -0.13975959 0.16779625
0.12784301 -0.14002274 0.16770905
0.126258 -0.14028555 0.16762188
0.12467532 -0.14054795 0.16753489
0.12309503 -0.14080997 0.16744801
0.12151705 -0.14107153 0.16736126
0.11994155 -0.14133283 0.16727459
0.11836854 -0.14159387 0.1671879
0.11679788 -0.14185454 0.16710126
0.11522957 -0.14211483 0.16701478
0.11366358 -0.14237471 0.1669285
0.11209994 -0.14263426 0.16684225
0.11053866 -0.14289343 0.16675615
0.10897963 -0.14315215 0.16667023
0.10742296 -0.14341052 0.16658437
0.10586856 -0.14366846 0.16649875
0.10431649 -0.14392607 0.16641313
0.10276673 -0.14418331 0.16632769
0.10121927 -0.14444016 0.16624233
0.099674061 -0.14469662 0.16615716
0.09813115 -0.14495268 0.16607204
0.096590556 -0.14520839 0.1659871
0.095052198 -0.14546372 0.16590232
0.093674555 -0.14590418 0.1656386
0.093674436 -0.14796621 0.16381082
0.093674332 -0.15004605 0.16196722
0.093674235 -0.15214401 0.16010755
0.093674146 -0.15426028 0.15823168
0.093674071 -0.15639514 0.15633932
0.093673959 -0.15854876 0.15443033
0.093673855 -0.16072142 0.15250438
0.093673781 -0.16291347 0.15056136
0.093673699 -0.16512501 0.14860106
0.093673542 -0.16735637 0.14662313
0.09367349 -0.16960788 0.14462736
0.093673371 -0.17187972 0.14261362
0.093673274 -0.17417218 0.14058149
0.093673155 -0.17648561 0.13853088
0.093673021 -0.17882021 0.13646141
0.093672909 -0.18117633 0.13437298
0.093672737 -0.18355419 0.13226518
0.093672596 -0.18595421 0.13013777
0.093672402 -0.18837661 0.12799054
0.093672268 -0.19082181 0.12582314
0.093672149 -0.19329007 0.12363523
0.09367203 -0.19578174 0.12142664
0.09367191 -0.19829711 0.11919689
0.093671761 -0.20083652 0.11694592
0.093671605 -0.20340031 0.11467338
0.093671486 -0.20598893 0.11237884
0.093671359 -0.20860267 0.110062
0.093671188 -0.21124184 0.10772258
0.093671061 -0.21390691 0.10536021
0.093670934 -0.21659823 0.10297459
0.093670778 -0.21931618 0.10056531
0.093670636 -0.22206117 0.098132193
0.09367045 -0.22483356 0.095674694
0.093670323 -0.22763385 0.093192577
0.093670145 -0.23046234 0.090685248
0.093670465 -0.2333203 0.088151932
0.09367083 -0.23620749 0.085592628
0.093671247 -0.23912431 0.083007097
0.093670353 -0.24206926 0.080396771
0.093669616 -0.24504496 0.077759087
0.093669228 -0.24805216 0.075093508
0.093669556 -0.25109193 0.07239902
0.093669899 -0.25416368 0.069676042
0.093670256 -0.25726801 0.066924334
0.093670644 -0.26040536 0.0641433
0.093671031 -0.26357627 0.061332524
0.11505208 -0.30028039 0.026830614
0.11292847 -0.30039635 0.026923239
0.11080962 -0.30051196 0.027015567
0.10869555 -0.30062741 0.027107775
0.10658622 -0.30074257 0.027199686
0.10448169 -0.30085748 0.027291477
0.1023818 -0.30097204 0.027383029
0.10028671 -0.3010864 0.027474403
0.098196238 -0.30120045 0.027565539
0.096110545 -0.30131435 0.027656436
0.094029427 -0.3014279 0.027747273
0.093670703 -0.3044444 0.02510637
0.093670622 -0.30810437 0.02186209
0.093669981 -0.31180561 0.018581331
0.093668915 -0.31554922 0.015262961
-0.094945952 -0.17698318 0.15543976
-0.09621466 -0.17719369 0.15536988
-0.097481728 -0.17740379 0.1553002
-0.098747075 -0.17761369 0.15523055
-0.10001075 -0.17782323 0.15516096
-0.10127269 -0.17803256 0.15509155
-0.10253295 -0.17824161 0.1550222
-0.10379156 -0.17845036 0.15495294
-0.10504844 -0.17865884 0.15488374
-0.10630367 -0.17886697 0.15481466
-0.10755723 -0.17907491 0.1547457
-0.10880916 -0.17928256 0.15467671
-0.11005938 -0.17948991 0.15460795
-0.11130795 -0.17969699 0.15453929
-0.11255482 -0.17990379 0.15447062
-0.11379612 -0.18012622 0.15438765
-0.11502472 -0.18039349 0.15426376
-0.11625207 -0.18066043 0.15414
-0.11747816 -0.18092713 0.15401638
-0.11870304 -0.18119358 0.15389293
-0.11992665 -0.1814597 0.15376955
-0.12114901 -0.18172559 0.15364626
-0.12237018 -0.18199117 0.15352321
-0.12359011 -0.18225653 0.15340015
-0.12480874 -0.18252157 0.15327731
-0.12602618 -0.18278641 0.15315458
-0.12724239 -0.18305092 0.15303192
-0.12845738 -0.18331519 0.15290949
-0.12967108 -0.18357919 0.15278712
-0.13088362 -0.18384288 0.1526649
-0.13209487 -0.18410651 0.15254262
-0.13330491 -0.18437006 0.15242028
-0.13435958 -0.18542404 0.15158311
-0.13435994 -0.19199774 0.14575607
-0.1343603 -0.19877662 0.13974717
-0.13436066 -0.20577043 0.13354784
-0.13436104 -0.21298955 0.12714869
-0.13436143 -0.22044504 0.12054005
-0.13436186 -0.22814868 0.11371154
-0.13436128 -0.23611887 0.10664651
-0.13436136 -0.24435957 0.09934181
-0.13436151 -0.25288907 0.091781199
-0.1343641 -0.2617076 0.083964527
-0.13436523 -0.27085555 0.075855762
-0.12941486 -0.31182635 0.039083242
-0.13102432 -0.31186944 0.039193094
-0.13263026 -0.31191257 0.039302588
-0.13423283 -0.31195545 0.039411962
-0.13436504 -0.32211748 0.030416369
0.13380164 -0.13574694 0.16912943
0.13221379 -0.13601261 0.16904137
0.13062836 -0.13627794 0.16895336
0.12904526 -0.13654284 0.16886553
0.12746459 -0.13680738 0.16877782
0.12588622 -0.13707151 0.1686902
0.12431023 -0.13733523 0.16860279
0.12273659 -0.13759854 0.16851541
0.12116549 -0.1378617 0.16842803
0.11959679 -0.13812456 0.16834068
0.1180304 -0.13838696 0.16825354
0.11646631 -0.13864897 0.16816652
0.11490455 -0.13891058 0.16807956
0.11334513 -0.13917182 0.16799283
0.111788 -0.13943267 0.16790614
0.11023318 -0.13969316 0.16781965
0.10868065 -0.13995321 0.16773328
0.10713043 -0.14021289 0.16764697
0.1055825 -0.1404722 0.16756082
0.10403688 -0.14073114 0.16747478
0.1024935 -0.14098971 0.16738895
0.10095241 -0.14124787 0.16730317
0.099413574 -0.14150561 0.16721755
0.097877055 -0.14176305 0.16713196
0.096342742 -0.14202009 0.16704661
0.094810717 -0.14227673 0.16696134
0.093674518 -0.14299014 0.16643247
0.093674429 -0.145033 0.16461399
0.093674332 -0.14709347 0.16277981
0.09367425 -0.14917181 0.16092971
0.093674175 -0.15126824 0.15906355
0.093674071 -0.15338299 0.15718102
0.093673959 -0.15551627 0.15528208
0.093673863 -0.15766838 0.15336627
0.093673773 -0.15983954 0.15143362
0.093673676 -0.16203007 0.14948368
0.093673572 -0.16424012 0.14751634
0.093673483 -0.16647004 0.14553136
0.093673363 -0.16872001 0.1435284
0.093673289 -0.17099041 0.14150733
0.09367317 -0.17328145 0.13946795
0.093673065 -0.17559341 0.13740993
0.093672968 -0.17792661 0.135333
0.093672842 -0.18028131 0.13323686
0.093672678 -0.18265779 0.13112137
0.093672492 -0.18505634 0.12898624
0.09367232 -0.18747738 0.12683117
0.093672186 -0.18992119 0.12465578
0.093672037 -0.19238806 0.12245983
0.093671918 -0.19487835 0.12024301
0.093671784 -0.19739239 0.1180051
0.093671627 -0.1999305 0.11574578
0.093671523 -0.20249306 0.11346459
0.093671367 -0.20508036 0.11116147
0.09367121 -0.2076928 0.10883594
0.093671083 -0.21033074 0.10648769
0.093670949 -0.21299462 0.10411644
0.093670808 -0.21568474 0.1017217
0.093670622 -0.21840143 0.099303424
0.09367048 -0.22114529 0.096860945
0.093670316 -0.22391652 0.094394028
0.093670204 -0.22671573 0.091902256
0.093670018 -0.22954315 0.08938539
0.093670212 -0.23239987 0.086842358
0.093670622 -0.23528604 0.0842731
0.093671039 -0.23820184 0.081677496
0.09367045 -0.24114628 0.079056442
0.093669705 -0.24412103 0.076408505
0.093669243 -0.24712716 0.073732495
0.093669578 -0.25016606 0.071027279
0.093669906 -0.25323692 0.068293631
0.093670279 -0.25634041 0.065531015
0.093670614 -0.2594769 0.062738895
0.093671016 -0.26264706 0.059916914
0.11459871 -0.29857644 0.025977194
0.11251927 -0.29876292 0.026005566
0.11044399 -0.29894906 0.026033878
0.10837283 -0.29913479 0.026062131
0.10630576 -0.2993201 0.026090384
0.10420948 -0.2994512 0.026169658
0.10210888 -0.29956743 0.026262462
0.10001297 -0.29968339 0.026355147
0.097921818 -0.29979917 0.026447594
0.095835306 -0.29991463 0.026539803
0.093753435 -0.30002984 0.026631832
0.093670592 -0.30350932 0.023542225
0.093670547 -0.3071692 0.020284355
0.093670018 -0.31087059 0.01698947
0.09366902 -0.31461424 0.013657033
-0.094477043 -0.17397156 0.15644062
-0.095741488 -0.17418332 0.15637028
-0.097004205 -0.17439486 0.15629998
-0.098265268 -0.17460603 0.15622985
-0.099524684 -0.17481689 0.15615985
-0.10078242 -0.17502744 0.15609002
-0.10203847 -0.17523775 0.15602028
-0.10329288 -0.17544766 0.15595061
-0.10454558 -0.17565739 0.15588102
-0.10579664 -0.17586684 0.15581149
-0.10704602 -0.17607598 0.15574211
-0.10829373 -0.17628488 0.15567279
-0.1095398 -0.1764935 0.15560359
-0.11078424 -0.17670178 0.15553451
-0.11202702 -0.17690986 0.15546542
-0.11326811 -0.17711762 0.15539646
-0.11450762 -0.17732514 0.15532759
-0.11574547 -0.17753237 0.1552588
-0.11698168 -0.17773932 0.15519017
-0.11821627 -0.17794594 0.15512168
-0.11944921 -0.17815235 0.15505311
-0.12068052 -0.17835851 0.15498477
-0.12191026 -0.17856437 0.15491644
-0.12313831 -0.17876998 0.15484822
-0.12436479 -0.17897531 0.15478
-0.12558962 -0.17918031 0.15471202
-0.12681289 -0.17938508 0.15464407
-0.12803455 -0.1795896 0.15457624
-0.12925455 -0.17979386 0.15450844
-0.13047296 -0.17999783 0.15444079
-0.13168108 -0.18024436 0.15433425
-0.13288435 -0.18050799 0.15421206
-0.13408642 -0.18077137 0.15408993
-0.13435975 -0.18579878 0.1496402
-0.13436006 -0.19240348 0.14376089
-0.13436045 -0.19921507 0.1376974
-0.13436085 -0.20624347 0.13144094
-0.13436121 -0.21349922 0.124982
-0.13436159 -0.22099346 0.11831087
-0.134362 -0.22873828 0.11141658
-0.13436133 -0.23675275 0.10428226
-0.13436146 -0.24503978 0.096905321
-0.13436157 -0.25361851 0.089268774
-0.13436455 -0.26248702 0.081374496
-0.13436538 -0.27169254 0.073180079
-0.12965918 -0.31122476 0.037549436
-0.13127095 -0.31126866 0.037661016
-0.13287927 -0.31131244 0.037772357
-0.1343644 -0.31216705 0.037150443
-0.13436523 -0.32329383 0.0272457
0.13339947 -0.13255225 0.17019135
0.13181838 -0.13281927 0.17010278
0.13023959 -0.13308586 0.17001441
0.1286632 -0.13335209 0.16992611
0.12708922 -0.13361795 0.16983792
0.12551744 -0.13388334 0.16974998
0.12394831 -0.13414861 0.16966182
0.12238148 -0.13441347 0.16957384
0.12081698 -0.13467795 0.16948599
0.11925481 -0.13494204 0.16939825
0.11769494 -0.13520575 0.16931066
0.1161374 -0.13546909 0.16922322
0.11458217 -0.13573201 0.16913584
0.11302918 -0.13599451 0.16904867
0.11147854 -0.13625669 0.16896158
0.10993016 -0.13651845 0.16887465
0.10838408 -0.13677983 0.16878778
0.10684028 -0.13704084 0.16870105
0.10529872 -0.13730143 0.16861454
0.10375942 -0.13756165 0.16852802
0.10222242 -0.1378215 0.16844174
0.10068769 -0.13808097 0.16835552
0.09915518 -0.13834004 0.16826949
0.09762498 -0.13859878 0.16818345
0.09609694 -0.13885711 0.16809765
0.094571173 -0.13911504 0.16801196
0.093674548 -0.14009482 0.16722128
0.093674429 -0.14211868 0.16541201
0.093674339 -0.14415996 0.16358718
0.093674228 -0.14621887 0.16174659
0.093674146 -0.14829569 0.15989006
0.093674064 -0.15039055 0.15801731
0.093673982 -0.15250376 0.1561282
0.093673885 -0.15463552 0.15422246
0.093673743 -0.15678608 0.1523
0.093673676 -0.15895575 0.15036038
0.093673557 -0.1611447 0.14840361
0.093673468 -0.16335326 0.14642915
0.093673363 -0.16558167 0.14443713
0.093673244 -0.16783017 0.14242706
0.093673185 -0.17009909 0.14039871
0.093673043 -0.17238861 0.13835201
0.093672968 -0.17469917 0.1362865
0.093672834 -0.17703089 0.134202
0.09367273 -0.17938417 0.13209829
0.093672574 -0.18175924 0.12997508
0.09367241 -0.1841564 0.12783211
0.093672216 -0.18657601 0.12566906
0.093672045 -0.1890184 0.12348574
0.093671925 -0.19148394 0.12128168
0.093671784 -0.19397286 0.1190567
0.09367165 -0.19648553 0.11681038
0.093671523 -0.19902235 0.11454266
0.093671389 -0.20158358 0.11225301
0.093671262 -0.20416959 0.10994118
0.093671098 -0.20678076 0.10760695
0.093670957 -0.20941745 0.10524988
0.09367083 -0.21208008 0.10286957
0.093670644 -0.21476895 0.10046589
0.093670517 -0.21748452 0.098038256
0.093670331 -0.22022712 0.095586479
0.093670204 -0.22299729 0.093110085
0.093670063 -0.2257953 0.090608776
0.093669899 -0.22862163 0.088082194
0.093670011 -0.23147714 0.085529447
0.093670398 -0.23436224 0.082950234
0.093670808 -0.23727702 0.080344439
0.093670599 -0.24022101 0.077712715
0.093669832 -0.24319471 0.075054407
0.093669251 -0.24619979 0.072368026
0.093669593 -0.24923778 0.0696522
0.093669921 -0.2523078 0.066907644
0.093670249 -0.25541034 0.064134061
0.093670607 -0.25854608 0.061330795
0.093670994 -0.26171541 0.058497488
0.11379991 -0.29633358 0.02563864
0.11172358 -0.29652199 0.02566731
0.1096514 -0.29671013 0.02569592
0.10758332 -0.29689789 0.02572453
0.10551932 -0.29708529 0.025753021
0.10345943 -0.29727224 0.025781512
0.10140362 -0.29745889 0.025809884
0.099351838 -0.29764515 0.025838256
0.097304203 -0.29783109 0.025866508
0.095260516 -0.29801661 0.025894701
0.093670584 -0.29895371 0.025207937
0.093670473 -0.30257159 0.021973729
0.093670435 -0.30623129 0.01870209
0.093670122 -0.30993295 0.015393019
0.093669154 -0.3136766 0.012046397
-0.094011553 -0.17098165 0.1574342
-0.095271707 -0.17119473 0.15736338
-0.096530214 -0.17140743 0.15729272
-0.097787023 -0.17161992 0.15722212
-0.099042192 -0.17183207 0.15715167
-0.10029569 -0.17204389 0.1570814
-0.10154756 -0.17225538 0.15701121
-0.10279773 -0.17246662 0.15694115
-0.10404629 -0.17267756 0.15687111
-0.10529315 -0.17288823 0.15680128
-0.10653843 -0.17309862 0.15673137
-0.10778201 -0.17330867 0.15666169
-0.10902397 -0.17351854 0.15659207
-0.11026429 -0.17372805 0.15652248
-0.11150292 -0.17393734 0.15645304
-0.11273999 -0.17414632 0.15638375
-0.11397538 -0.17435506 0.1563144
-0.11520918 -0.17456342 0.15624535
-0.11644133 -0.17477161 0.15617627
-0.11767185 -0.17497952 0.15610731
-0.11890078 -0.17518717 0.1560384
-0.12012809 -0.17539451 0.15596956
-0.12135375 -0.17560159 0.15590087
-0.12257785 -0.17580836 0.1558322
-0.12380033 -0.17601489 0.15576372
-0.12502119 -0.17622116 0.15569526
-0.12624049 -0.17642714 0.15562686
-0.12745817 -0.17663287 0.15555868
-0.12867422 -0.17683832 0.15549046
-0.12988874 -0.17704348 0.15542239
-0.13110165 -0.17724839 0.15535441
-0.13231298 -0.17745306 0.15528652
-0.13352272 -0.17765746 0.15521866
-0.13435957 -0.17973988 0.15343654
-0.13435988 -0.18617639 0.14768258
-0.13436028 -0.19281228 0.14175034
-0.13436063 -0.19965693 0.13563156
-0.13436101 -0.20672022 0.12931725
-0.13436139 -0.21401295 0.12279794
-0.13436177 -0.22154644 0.11606336
-0.13436197 -0.22933413 0.10910141
-0.1343614 -0.23739198 0.10189798
-0.13436152 -0.24572589 0.094447762
-0.13436165 -0.25435439 0.086734265
-0.13436499 -0.26327351 0.07876125
-0.13436556 -0.2725372 0.0704799
-0.1299043 -0.3106212 0.036010563
-0.13151842 -0.31066585 0.036123991
-0.13312913 -0.31071031 0.03623718
-0.13436443 -0.31327787 0.034059227
-0.13436539 -0.32448199 0.024043262
0.13300048 -0.12938325 0.17124474
0.1314261 -0.12965156 0.17115575
0.12985396 -0.12991947 0.17106694
0.1282842 -0.13018696 0.17097819
0.12671693 -0.13045423 0.17088947
0.12515207 -0.1307212 0.17080075
0.12358949 -0.13098775 0.17071223
0.12202922 -0.13125391 0.17062378
0.12047124 -0.13151965 0.1705355
0.11891557 -0.13178504 0.17044738
0.1173622 -0.13205001 0.17035934
0.11581114 -0.13231462 0.17027146
0.11426233 -0.13257879 0.17018369
0.11271581 -0.1328426 0.17009601
0.11117154 -0.13310604 0.17000845
0.10962957 -0.13336907 0.16992113
0.10808987 -0.13363175 0.16983387
0.1065524 -0.133894 0.16974682
0.10501717 -0.13415585 0.16965976
0.10348425 -0.13441734 0.16957292
0.10195355 -0.13467847 0.16948617
0.10042503 -0.13493919 0.16939953
0.098898798 -0.13519953 0.1693131
0.097374842 -0.13545956 0.16922665
0.095853046 -0.13571915 0.1691404
0.094333477 -0.13597834 0.16905436
0.093674533 -0.13721798 0.16800505
0.093674421 -0.13922307 0.16620484
0.093674354 -0.14124539 0.16438934
0.093674242 -0.1432851 0.16255817
0.093674131 -0.14534242 0.1607112
0.093674041 -0.14741765 0.15884811
0.093673959 -0.14951096 0.15696883
0.09367387 -0.15162261 0.15507305
0.093673773 -0.15375282 0.15316063
0.093673646 -0.15590185 0.15123135
0.093673564 -0.15806998 0.14928487
0.093673505 -0.16025746 0.14732105
0.093673378 -0.16246448 0.14533967
0.093673289 -0.16469136 0.14334044
0.093673177 -0.16693835 0.14132315
0.093673036 -0.16920574 0.13928756
0.093672939 -0.17149381 0.13723344
0.093672849 -0.17380288 0.13516048
0.093672737 -0.17613319 0.13306841
0.093672626 -0.17848501 0.13095701
0.093672477 -0.18085861 0.12882605
0.093672335 -0.18325438 0.12667525
0.093672156 -0.1856726 0.12450433
0.093671978 -0.18811359 0.12231284
0.093671799 -0.19057766 0.12010074
0.093671687 -0.19306527 0.11786747
0.093671545 -0.19557659 0.11561292
0.093671426 -0.19811204 0.11333668
0.09367127 -0.20067193 0.11103845
0.093671121 -0.20325661 0.10871804
0.093670979 -0.20586652 0.10637498
0.093670838 -0.20850195 0.10400897
0.093670696 -0.2111633 0.10161978
0.093670525 -0.21385095 0.099206865
0.093670383 -0.21656527 0.096770048
0.093670271 -0.21930677 0.094308853
0.093670085 -0.22207573 0.091823041
0.093669914 -0.22487256 0.089312017
0.093669787 -0.22769783 0.08677572
0.093669757 -0.23055202 0.084213316
0.093670167 -0.23343608 0.081623971
0.093670569 -0.23634982 0.079008102
0.093670994 -0.23929374 0.076365173
0.093669966 -0.2422661 0.073696792
0.093669251 -0.24526998 0.07100004
0.093669564 -0.248307 0.068273425
0.093669921 -0.25137618 0.065518022
0.093670294 -0.25447795 0.062733293
0.093670622 -0.25761279 0.05991894
0.093670964 -0.26078132 0.057074249
0.11300284 -0.29409558 0.02530086
0.11092965 -0.2942861 0.025329769
0.10886057 -0.29447627 0.025358617
0.10679551 -0.29466599 0.025387585
0.10473462 -0.29485536 0.025416374
0.10267777 -0.29504439 0.025445163
0.10062502 -0.29523295 0.025473893
0.098576263 -0.29542118 0.025502503
0.096531622 -0.29560912 0.025531054
0.09449096 -0.29579663 0.025559604
0.093670562 -0.29801369 0.023648262
0.093670376 -0.30163127 0.020400643
0.093670301 -0.3052907 0.017115295
0.093670219 -0.30899262 0.013791859
0.093669236 -0.31273615 0.010431051
-0.094805285 -0.1682276 0.15834942
-0.096059598 -0.1684415 0.15827835
-0.097312219 -0.1686552 0.15820733
-0.098563172 -0.16886857 0.15813646
-0.09981247 -0.16908167 0.15806574
-0.10106015 -0.16929449 0.15799496
-0.10230619 -0.16950689 0.15792456
-0.10355058 -0.16971906 0.15785414
-0.10479335 -0.16993086 0.1577839
-0.10603446 -0.17014246 0.15771365
-0.10727396 -0.17035377 0.15764353
-0.10851181 -0.1705648 0.15757352
-0.10974803 -0.17077552 0.15750358
-0.1109826 -0.170986 0.15743372
-0.11221559 -0.17119615 0.15736401
-0.11344695 -0.17140609 0.15729436
-0.11467669 -0.1716157 0.15722477
-0.11590479 -0.17182507 0.15715528
-0.11713134 -0.17203417 0.1570859
-0.11835624 -0.17224297 0.15701658
-0.11957953 -0.1724515 0.15694746
-0.12080124 -0.17265974 0.15687832
-0.12202133 -0.17286776 0.15680933
-0.12323984 -0.17307548 0.1567404
-0.12445676 -0.17328295 0.15667152
-0.12567212 -0.17349011 0.15660274
-0.12688586 -0.17369704 0.15653411
-0.12809801 -0.17390366 0.15646559
-0.1293086 -0.17411003 0.15639707
-0.13051762 -0.17431612 0.15632871
-0.13172507 -0.17452195 0.1562604
-0.13293093 -0.17472754 0.15619215
-0.13413523 -0.17493282 0.15612406
-0.13435972 -0.18009046 0.15151536
-0.13436006 -0.18655688 0.14571008
-0.13436039 -0.1932243 0.13972431
-0.13436079 -0.20010221 0.1335496
-0.13436116 -0.20720083 0.12717676
-0.13436158 -0.2145309 0.12059611
-0.13436197 -0.22210394 0.11379728
-0.13436188 -0.22993492 0.10676688
-0.13436148 -0.23803668 0.099493384
-0.13436159 -0.24641788 0.091969013
-0.13436431 -0.25508112 0.08419171
-0.13436534 -0.2640678 0.076123863
-0.12855057 -0.30984262 0.034467757
-0.13016291 -0.30993435 0.034540951
-0.13177212 -0.31002593 0.034613967
-0.13337977 -0.31010634 0.034696996
-0.13436463 -0.31439888 0.030938268
-0.1343656 -0.32568172 0.020808995
0.134175 -0.12596983 0.17237911
0.13260481 -0.12623976 0.17228958
0.13103697 -0.12650931 0.17220023
0.12947161 -0.12677862 0.17211083
0.12790863 -0.1270476 0.17202148
0.12634794 -0.12731618 0.17193225
0.12478961 -0.12758438 0.17184317
0.12323356 -0.1278522 0.17175418
0.12167975 -0.12811954 0.17166537
0.12012827 -0.12838657 0.17157665
0.11857903 -0.12865318 0.17148808
0.1170321 -0.12891939 0.17139968
0.11548744 -0.12918526 0.17131135
0.11394504 -0.12945068 0.17122316
0.11240487 -0.12971573 0.1711351
0.11086699 -0.12998039 0.17104721
0.10933134 -0.13024467 0.17095941
0.10779794 -0.13050857 0.1708717
0.10626681 -0.13077207 0.17078418
0.10473789 -0.13103521 0.17069679
0.1032112 -0.13129793 0.17060947
0.10168673 -0.13156028 0.17052236
0.1001645 -0.13182226 0.17043534
0.098644465 -0.13208383 0.17034844
0.09712673 -0.13234511 0.17026159
0.095611103 -0.13260594 0.17017496
0.094097674 -0.13286638 0.17008841
0.093674488 -0.13435942 0.16878375
0.093674436 -0.136346 0.16699269
0.093674332 -0.1383495 0.16518638
0.09367428 -0.14037025 0.16336447
0.093674153 -0.14240834 0.16152701
0.093674056 -0.14446408 0.15967351
0.093673967 -0.14653775 0.15780398
0.09367384 -0.14862946 0.15591806
0.093673766 -0.15073952 0.15401563
0.093673669 -0.1528682 0.15209648
0.093673579 -0.15501569 0.15016025
0.093673468 -0.15718225 0.14820695
0.093673378 -0.15936816 0.14623612
0.093673289 -0.16157368 0.14424768
0.093673162 -0.16379902 0.1422413
0.093673073 -0.16604453 0.14021683
0.093672946 -0.16831045 0.13817388
0.093672879 -0.17059705 0.13611227
0.09367276 -0.17290458 0.13403192
0.093672603 -0.17523335 0.13193229
0.093672536 -0.17758377 0.12981316
0.09367241 -0.17995597 0.1276744
0.093672246 -0.18235029 0.12551576
0.093672067 -0.18476707 0.12333679
0.093671925 -0.18720667 0.12113726
0.093671717 -0.18966933 0.11891699
0.093671568 -0.19215548 0.1166755
0.093671419 -0.19466543 0.11441261
0.093671292 -0.19719949 0.11212784
0.093671143 -0.19975811 0.10982108
0.093671016 -0.2023415 0.10749185
0.093670845 -0.20495005 0.10513997
0.093670696 -0.20758419 0.10276508
0.093670554 -0.21024427 0.10036689
0.093670398 -0.21293068 0.097944796
0.093670256 -0.21564381 0.095498681
0.0936701 -0.21838407 0.093028069
0.093669944 -0.22115183 0.09053272
0.093669824 -0.22394758 0.088012099
0.093669653 -0.22677165 0.085465908
0.093669556 -0.22962463 0.082893729
0.093669944 -0.23250757 0.08029443
0.093670353 -0.23542024 0.077668309
0.093670771 -0.23836313 0.075015008
0.09367007 -0.24133499 0.07233572
0.093669333 -0.24433787 0.069628298
0.093669601 -0.24737389 0.066891134
0.093669944 -0.25044212 0.064124703
0.093670301 -0.25354299 0.061328948
0.093670614 -0.256677 0.05850333
0.093671001 -0.25984478 0.055647314
0.11220758 -0.29186258 0.024963796
0.11013745 -0.29205507 0.024993062
0.10807145 -0.29224724 0.025022209
0.10600948 -0.29243901 0.025051415
0.10395164 -0.29263037 0.025080502
0.10189788 -0.29282138 0.025109589
0.099848129 -0.29301199 0.025138557
0.097802423 -0.29320222 0.025167525
0.095760785 -0.29339209 0.025196373
0.093723126 -0.29358152 0.025225341
0.093670532 -0.29707104 0.022084296
0.093670376 -0.30068836 0.018822968
0.093670189 -0.3043474 0.01552403
0.093670145 -0.30804923 0.012186468
-0.094342239 -0.16528171 0.15932834
-0.095592372 -0.16549683 0.15925691
-0.096840799 -0.16571166 0.1591855
-0.098087624 -0.1659262 0.1591143
-0.099332765 -0.16614048 0.15904307
-0.10057628 -0.16635446 0.15897208
-0.10181818 -0.1665682 0.15890104
-0.10305841 -0.1667816 0.15883017
-0.10429709 -0.16699465 0.1587595
-0.1055341 -0.1672074 0.15868887
-0.10676951 -0.16741987 0.15861839
-0.10800327 -0.16763206 0.15854797
-0.10923545 -0.16784395 0.1584776
-0.11046601 -0.16805559 0.15840745
-0.11169493 -0.16826697 0.15833732
-0.11292226 -0.16847804 0.1582672
-0.11414798 -0.16868886 0.15819722
-0.11537211 -0.1688994 0.15812743
-0.11659461 -0.16910966 0.15805766
-0.11781555 -0.1693196 0.15798798
-0.11903489 -0.16952932 0.15791836
-0.12025261 -0.16973875 0.15784892
-0.12146877 -0.16994795 0.15777946
-0.12268331 -0.17015682 0.15771013
-0.12389636 -0.17036545 0.1576409
-0.12510775 -0.17057377 0.15757176
-0.12631758 -0.17078184 0.1575028
-0.12752587 -0.17098966 0.15743384
-0.12873256 -0.17119719 0.15736493
-0.12993771 -0.17140447 0.15729615
-0.13114126 -0.17161146 0.15722746
-0.13234329 -0.17181817 0.15715891
-0.13354373 -0.17202462 0.15709037
-0.13435967 -0.17414023 0.15526286
-0.13435987 -0.18044375 0.14957973
-0.13436024 -0.18694021 0.14372259
-0.1343606 -0.19363946 0.13768256
-0.13436095 -0.20055102 0.13145122
-0.13436134 -0.20768525 0.1250191
-0.13436171 -0.21505301 0.1183764
-0.13436215 -0.22266607 0.11151254
-0.13436185 -0.23054081 0.10441267
-0.13436158 -0.23868689 0.097068191
-0.13436167 -0.24711592 0.089468628
-0.13436472 -0.2558277 0.081614465
-0.13436545 -0.26487041 0.073461682
-0.12889373 -0.30861342 0.033487022
-0.13050646 -0.30870637 0.033561289
-0.13211608 -0.30879915 0.033635378
-0.13372248 -0.30889165 0.033709288
-0.1343648 -0.31553084 0.027786434
0.13377583 -0.12285022 0.17341608
0.13221237 -0.12312152 0.17332599
0.13065131 -0.1233925 0.17323601
0.12909259 -0.1236631 0.17314613
0.12753612 -0.1239333 0.17305636
0.12598191 -0.12420309 0.17296675
0.12443002 -0.12447249 0.17287719
0.12288041 -0.12474152 0.17278787
0.1213331 -0.12501016 0.17269856
0.11978798 -0.12527834 0.17260954
0.11824518 -0.1255462 0.17252052
0.11670462 -0.12581362 0.17243168
0.11516631 -0.12608066 0.17234302
0.11363026 -0.12634735 0.17225441
0.11209641 -0.12661359 0.17216599
0.11056484 -0.12687947 0.17207763
0.10903549 -0.12714499 0.17198944
0.10750835 -0.12741004 0.1719014
0.10598348 -0.12767479 0.17181343
0.1044608 -0.12793916 0.17172557
0.10294033 -0.12820311 0.17163798
0.10142206 -0.12846665 0.17155039
0.09990599 -0.12872984 0.17146295
0.098392136 -0.12899262 0.17137563
0.096880496 -0.1292551 0.17128843
0.095371038 -0.12951717 0.17120135
0.093863741 -0.12977882 0.17111444
0.093674511 -0.13151906 0.1695576
0.093674399 -0.13348721 0.16777557
0.09367431 -0.13547215 0.16597825
0.09367422 -0.13747405 0.16416571
0.093674131 -0.13949317 0.16233748
0.093674056 -0.14152971 0.16049355
0.093673959 -0.14358386 0.15863359
0.09367384 -0.14565589 0.15675756
0.093673751 -0.14774603 0.154865
0.093673654 -0.14985453 0.15295586
0.093673594 -0.15198167 0.15102991
0.093673453 -0.15412754 0.14908701
0.093673393 -0.15629259 0.14712662
0.093673252 -0.15847692 0.14514887
0.093673147 -0.16068088 0.14315331
0.093673073 -0.16290472 0.14113975
0.093672983 -0.16514871 0.13910797
0.093672849 -0.16741307 0.13705772
0.09367276 -0.16969818 0.1349887
0.093672633 -0.17200422 0.13290071
0.093672544 -0.17433155 0.13079345
0.093672432 -0.17668045 0.1286667
0.093672343 -0.17905124 0.12652004
0.093672149 -0.18144406 0.12435353
0.093672 -0.18385944 0.12216651
0.093671821 -0.18629758 0.11995894
0.093671635 -0.18875884 0.11773044
0.093671456 -0.19124356 0.11548066
0.093671307 -0.19375214 0.11320931
0.09367118 -0.19628485 0.11091608
0.093671009 -0.19884202 0.10860074
0.093670875 -0.20142414 0.1062628
0.093670718 -0.20403136 0.10390204
0.093670592 -0.20666422 0.10151821
0.093670465 -0.20932306 0.099110782
0.093670309 -0.21200819 0.096679568
0.093670137 -0.21472009 0.094224155
0.093669981 -0.2174591 0.091744125
0.093669839 -0.22022568 0.08923918
0.093669683 -0.22302021 0.086708844
0.093669534 -0.22584316 0.084152877
0.093669362 -0.22869493 0.081570745
0.093669713 -0.23157671 0.078961432
0.09367013 -0.23448837 0.076325059
0.093670532 -0.23743014 0.073661447
0.093670182 -0.24040149 0.070971072
0.093669422 -0.24340339 0.06825304
0.093669616 -0.24643831 0.065505087
0.093669958 -0.24950562 0.062727809
0.093670286 -0.25260556 0.059920907
0.093670659 -0.25573879 0.057083905
0.093671031 -0.25890574 0.054216444
0.093670614 -0.26210573 0.051319003
0.10934696 -0.28982896 0.024657249
0.10728405 -0.29002318 0.024686575
0.10522521 -0.29021695 0.02471602
0.10317039 -0.29041028 0.024745464
0.10111965 -0.29060328 0.02477479
0.099072941 -0.29079586 0.024804115
0.097030275 -0.29098806 0.024833322
0.094991602 -0.2911799 0.024862528
0.093669057 -0.29254711 0.023756146
0.09367051 -0.29612574 0.0205158
0.093670316 -0.2997427 0.017240882
0.093670115 -0.30340153 0.013927937
0.093670011 -0.3071031 0.010576487
-0.093882494 -0.16235687 0.16030031
-0.095128432 -0.16257314 0.1602284
-0.096372753 -0.16278915 0.16015673
-0.097615413 -0.16300486 0.16008508
-0.098856457 -0.1632203 0.16001353
-0.10009588 -0.16343538 0.15994209
-0.10133366 -0.1636503 0.15987068
-0.1025698 -0.16386484 0.15979952
-0.10380436 -0.16407916 0.15972826
-0.10503729 -0.16429316 0.15965718
-0.10626863 -0.16450676 0.15958625
-0.10749836 -0.1647201 0.1595155
-0.10872649 -0.16493317 0.15944487
-0.10995305 -0.16514598 0.15937421
-0.11117795 -0.16535848 0.15930364
-0.11240129 -0.16557072 0.15923324
-0.11362301 -0.16578269 0.15916291
-0.11484316 -0.16599433 0.15909269
-0.11606172 -0.16620573 0.15902251
-0.11727866 -0.16641688 0.15895247
-0.11849403 -0.16662773 0.1588825
-0.11970787 -0.1668383 0.15881261
-0.12092011 -0.16704865 0.15874279
-0.12213075 -0.16725864 0.15867317
-0.12333985 -0.16746841 0.15860355
-0.12454737 -0.16767792 0.15853405
-0.12575333 -0.16788712 0.15846455
-0.1269577 -0.16809611 0.15839523
-0.12816057 -0.16830477 0.158326
-0.12936181 -0.16851313 0.15825683
-0.13056159 -0.1687213 0.15818778
-0.13175975 -0.16892916 0.15811881
-0.13295637 -0.16913675 0.15804988
-0.1341515 -0.1693441 0.1579811
-0.13435979 -0.17446761 0.15336278
-0.13436005 -0.18079971 0.14762941
-0.13436039 -0.18732657 0.14171976
-0.13436073 -0.19405784 0.13562503
-0.1343611 -0.20100337 0.12933633
-0.13436152 -0.20817357 0.12284407
-0.13436191 -0.21557947 0.11613849
-0.13436234 -0.22323282 0.10920885
-0.13436182 -0.23115177 0.10203865
-0.13436162 -0.23934267 0.094622165
-0.13436176 -0.24782005 0.086946458
-0.13436522 -0.25658098 0.079014212
-0.13436565 -0.26568019 0.070775449
-0.12923725 -0.30738297 0.032505512
-0.1308504 -0.30747715 0.032580793
-0.13246034 -0.3075712 0.032655835
-0.13406713 -0.30766499 0.032730818
-0.13436501 -0.31667408 0.024603248
0.13356432 -0.11993263 0.17426503
0.13194717 -0.12014793 0.17423269
0.13033293 -0.12036278 0.17420045
0.12872159 -0.12057728 0.1741682
0.12716654 -0.12084372 0.17408305
0.12561879 -0.12111475 0.17399299
0.12407331 -0.12138532 0.17390311
0.12253008 -0.1216555 0.17381337
0.12098914 -0.12192534 0.17372376
0.11945041 -0.12219473 0.17363423
0.11791394 -0.12246375 0.17354485
0.11637972 -0.1227324 0.1734556
0.11484773 -0.12300062 0.17336655
0.11331794 -0.12326846 0.17327753
0.11179042 -0.12353593 0.17318863
0.11026509 -0.12380301 0.17309999
0.10874195 -0.12406966 0.17301136
0.10722107 -0.12433599 0.17292288
0.10570237 -0.12460189 0.1728346
0.10418587 -0.12486739 0.17274639
0.10267158 -0.12513255 0.17265826
0.10115948 -0.12539731 0.17257035
0.099649519 -0.12566166 0.17248252
0.098141775 -0.12592566 0.17239481
0.096636236 -0.12618932 0.17230716
0.095132872 -0.12645254 0.17221972
0.093674615 -0.12676305 0.17208475
0.093674511 -0.12869665 0.1703265
0.093674414 -0.13064665 0.16855341
0.093674324 -0.13261318 0.16676518
0.093674257 -0.1345965 0.16496167
0.093674138 -0.13659678 0.1631428
0.093674004 -0.13861422 0.16130835
0.093673937 -0.14064914 0.15945798
0.093673877 -0.14270176 0.15759155
0.093673751 -0.14477216 0.15570885
0.093673676 -0.14686072 0.1538097
0.093673572 -0.14896762 0.15189385
0.093673483 -0.15109313 0.14996114
0.093673378 -0.15323749 0.14801118
0.093673289 -0.15540092 0.14604402
0.093673177 -0.15758373 0.14405912
0.093673088 -0.15978613 0.14205647
0.093672968 -0.1620084 0.14003575
0.093672849 -0.16425082 0.13799667
0.093672737 -0.16651368 0.135939
0.093672656 -0.16879727 0.13386253
0.093672536 -0.17110179 0.13176703
0.09367241 -0.17342763 0.12965214
0.093672305 -0.17577504 0.12751755
0.093672216 -0.17814434 0.12536317
0.093672074 -0.18053576 0.12318856
0.093671903 -0.18294966 0.12099355
0.093671702 -0.18538633 0.11877793
0.093671545 -0.18784618 0.11654115
0.093671359 -0.19032949 0.11428308
0.093671173 -0.19283666 0.11200321
0.093671031 -0.19536799 0.10970151
0.093670882 -0.19792379 0.10737747
0.093670756 -0.20050451 0.10503078
0.093670614 -0.20311047 0.10266113
0.093670473 -0.20574199 0.1002683
0.093670346 -0.20839955 0.097851753
0.093670167 -0.2110834 0.095411301
0.093670011 -0.21379401 0.092946529
0.093669862 -0.21653181 0.090456963
0.09366969 -0.21929719 0.087942362
0.093669564 -0.22209056 0.085402369
0.093669422 -0.22491233 0.082836449
0.093669258 -0.22776298 0.080244303
0.093669534 -0.23064351 0.077624977
0.093669921 -0.23355402 0.074978352
0.093670331 -0.23649475 0.072304249
0.093670331 -0.23946561 0.069602847
0.093669541 -0.24246645 0.066874206
0.093669638 -0.2455003 0.064115465
0.093669951 -0.24856664 0.061327159
0.093670323 -0.25166571 0.058509052
0.093670681 -0.25479802 0.055660725
0.093670659 -0.25796354 0.052782297
0.093670078 -0.26116246 0.049873471
0.10855803 -0.28760752 0.024322212
0.10649825 -0.28780374 0.024351895
0.10444251 -0.2879996 0.024381578
0.10239086 -0.28819507 0.024411082
0.10034317 -0.28839007 0.024440706
0.098299474 -0.28858465 0.024470329
0.096259795 -0.28877878 0.024499893
0.09422414 -0.28897259 0.024529338
0.093669057 -0.29159948 0.02219671
0.093670525 -0.2951777 0.018942833
0.093670323 -0.29879442 0.015654147
0.0936701 -0.30245298 0.012327373
-0.094667837 -0.15967023 0.16119319
-0.095908053 -0.15988733 0.16112107
-0.097146578 -0.16010422 0.16104907
-0.098383546 -0.16032076 0.1609771
-0.099618837 -0.16053705 0.16090527
-0.10085256 -0.16075306 0.16083348
-0.10208465 -0.16096872 0.16076186
-0.10331513 -0.16118418 0.16069028
-0.10454404 -0.16139933 0.16061884
-0.10577131 -0.16161422 0.16054738
-0.10699703 -0.16182871 0.16047624
-0.10822114 -0.16204295 0.16040513
-0.10944365 -0.16225685 0.16033414
-0.11066462 -0.1624705 0.16026324
-0.11188398 -0.16268383 0.16019246
-0.11310174 -0.16289693 0.16012177
-0.11431792 -0.16310976 0.16005114
-0.11553251 -0.16332228 0.15998062
-0.11674555 -0.16353454 0.15991014
-0.11795701 -0.16374654 0.15983984
-0.11916691 -0.16395821 0.15976956
-0.12037524 -0.16416965 0.15969941
-0.12158202 -0.1643808 0.15962937
-0.12278724 -0.16459168 0.15955943
-0.12399088 -0.1648023 0.15948942
-0.12519298 -0.16501269 0.15941969
-0.12639353 -0.1652227 0.15935001
-0.12759253 -0.16543253 0.15928033
-0.12878999 -0.16564208 0.1592108
-0.1299859 -0.16585132 0.15914136
-0.13118029 -0.16606033 0.15907198
-0.13237312 -0.16626906 0.15900275
-0.13356443 -0.16647749 0.15893358
-0.13435978 -0.16862404 0.15706205
-0.13435994 -0.17479739 0.15144855
-0.13436019 -0.18115833 0.14566448
-0.13436054 -0.18771583 0.13970163
-0.13436094 -0.19447953 0.13355133
-0.13436131 -0.20145932 0.12720457
-0.1343617 -0.20866579 0.1206516
-0.13436212 -0.21611015 0.11388239
-0.1343625 -0.22380428 0.106886
-0.13436176 -0.23176795 0.099644452
-0.13436171 -0.24000406 0.092155218
-0.13436185 -0.2485304 0.084402055
-0.13436544 -0.25734249 0.076389432
-0.1343658 -0.26649737 0.068064749
-0.12958106 -0.30615148 0.031523168
-0.13119458 -0.30624691 0.031599402
-0.1328049 -0.30634215 0.031675518
-0.13436425 -0.30675778 0.031455219
-0.13436531 -0.31782821 0.021388769
0.13384537 -0.117503 0.17463043
0.13223122 -0.11772007 0.1745978
0.13061996 -0.11793668 0.17456535
0.12901166 -0.11815295 0.17453283
0.12740621 -0.11836878 0.17450047
0.12580368 -0.11858429 0.17446801
0.12420405 -0.11879937 0.17443568
0.12260728 -0.11901405 0.17440343
0.12101337 -0.11922836 0.17437127
0.11942235 -0.11944227 0.17433915
0.11783416 -0.11965581 0.17430711
0.11624885 -0.11986897 0.17427507
0.11466635 -0.12008175 0.17424312
0.11308673 -0.12029418 0.17421114
0.11150988 -0.12050618 0.17417929
0.10996766 -0.12075067 0.17411426
0.10845076 -0.12101851 0.1740253
0.10693603 -0.12128598 0.17393646
0.10542347 -0.12155303 0.17384768
0.10391311 -0.1218197 0.1737591
0.10240494 -0.12208603 0.17367062
0.10089889 -0.12235193 0.17358232
0.099395074 -0.12261746 0.1734941
0.097893372 -0.12288259 0.173406
0.096393891 -0.12314742 0.17331803
0.094896518 -0.1234118 0.1732302
0.093674578 -0.12397622 0.17284015
0.093674511 -0.12589207 0.17109054
0.093674406 -0.12782407 0.16932622
0.093674317 -0.12977238 0.16754702
0.093674242 -0.13173734 0.16575268
0.093674161 -0.133719 0.16394296
0.093674056 -0.13571763 0.16211781
0.093673959 -0.13773349 0.16027689
0.093673863 -0.13976675 0.15842006
0.093673751 -0.14181769 0.15654719
0.093673646 -0.14388649 0.1546579
0.093673564 -0.14597346 0.1527521
0.09367346 -0.14807877 0.15082952
0.093673348 -0.15020265 0.1488899
0.093673289 -0.15234545 0.14693317
0.093673162 -0.15450728 0.14495891
0.093673103 -0.15668854 0.14296699
0.093672976 -0.15888935 0.14095718
0.093672842 -0.16111007 0.13892928
0.093672752 -0.16335094 0.13688281
0.093672648 -0.16561227 0.13481775
0.093672536 -0.16789429 0.13273382
0.093672425 -0.17019732 0.13063067
0.093672305 -0.17252164 0.12850806
0.093672216 -0.17486753 0.12636581
0.093672097 -0.17723534 0.1242035
0.093671978 -0.17962533 0.12202096
0.093671843 -0.1820378 0.11981785
0.093671635 -0.18447302 0.117594
0.093671478 -0.18693143 0.11534894
0.09367127 -0.18941329 0.11308247
0.093671098 -0.19191901 0.11079431
0.09367092 -0.19444892 0.10848391
0.093670778 -0.19700338 0.10615122
0.093670636 -0.19958274 0.10379577
0.093670473 -0.20218731 0.10141718
0.093670346 -0.20481753 0.099015296
0.093670204 -0.20747374 0.096589565
0.093670048 -0.21015631 0.094139874
0.093669906 -0.2128657 0.091665626
0.09366975 -0.21560225 0.089166582
0.093669593 -0.21836637 0.086642325
0.093669452 -0.22115853 0.084092498
0.093669258 -0.22397913 0.081516802
0.093669131 -0.22682863 0.078914523
0.093669266 -0.22970784 0.076285243
0.09366966 -0.23261724 0.073628247
0.093670078 -0.23555692 0.070943713
0.093670487 -0.23852736 0.068230987
0.093669683 -0.24152716 0.065491676
0.093669638 -0.24455978 0.062722206
0.093669981 -0.2476252 0.059922874
0.093670323 -0.25072336 0.057093441
0.093670636 -0.25385472 0.054233849
0.093670115 -0.2570186 0.051344633
0.093669519 -0.26021668 0.048424125
0.09366896 -0.26344973 0.045471728
0.10559588 -0.28540394 0.024199367
0.10365993 -0.2857846 0.024050295
0.10161282 -0.2859844 0.024077833
0.09956824 -0.28618151 0.024107635
0.097527653 -0.2863782 0.024137318
0.095491067 -0.28657442 0.024167061
0.093667507 -0.28711173 0.023863435
0.09366902 -0.29064912 0.020632923
0.093670517 -0.294227 0.017365396
0.093670309 -0.2978434 0.014062881
0.093670137 -0.30150172 0.010722101
-0.09421052 -0.15678789 0.16215098
-0.095446594 -0.15700611 0.16207856
-0.096681073 -0.1572241 0.16200611
-0.097913951 -0.15744177 0.16193381
-0.099145196 -0.15765916 0.16186157
-0.10037488 -0.15787622 0.16178945
-0.10160291 -0.15809308 0.16171744
-0.10282939 -0.15830958 0.16164553
-0.10405426 -0.15852585 0.16157368
-0.10527754 -0.15874188 0.16150197
-0.10649925 -0.15895756 0.16143033
-0.10771934 -0.159173 0.16135877
-0.1089379 -0.15938802 0.16128737
-0.11015489 -0.15960279 0.16121608
-0.11137029 -0.15981726 0.16114497
-0.11258411 -0.16003144 0.16107383
-0.11379638 -0.16024539 0.16100287
-0.11500706 -0.16045901 0.16093194
-0.11621621 -0.16067234 0.16086122
-0.11742375 -0.16088545 0.16079047
-0.11862978 -0.16109824 0.16071984
-0.11983421 -0.16131079 0.16064927
-0.12103714 -0.1615231 0.16057888
-0.12223849 -0.1617351 0.16050848
-0.12343831 -0.16194676 0.16043827
-0.12463654 -0.16215824 0.16036808
-0.12583329 -0.16236942 0.16029799
-0.12702845 -0.16258031 0.16022807
-0.12822212 -0.16279097 0.16015816
-0.12941423 -0.1630013 0.16008833
-0.13060483 -0.16321141 0.16001865
-0.13179392 -0.1634212 0.15994903
-0.13298146 -0.16363077 0.15987948
-0.13416748 -0.16384004 0.15981004
-0.13435991 -0.16892868 0.15518281
-0.13436006 -0.17512973 0.14951992
-0.13436036 -0.18151969 0.14368454
-0.1343607 -0.1881081 0.13766798
-0.13436107 -0.19490448 0.13146147
-0.13436148 -0.20191891 0.12505588
-0.13436185 -0.20916206 0.11844131
-0.13436227 -0.21664521 0.11160767
-0.13436267 -0.22438091 0.10454336
-0.13436168 -0.23238938 0.097229838
-0.13436177 -0.24067126 0.089666724
-0.13436192 -0.24924695 0.08183533
-0.13436557 -0.25811115 0.07374078
-0.12830807 -0.30482191 0.030462563
-0.12992518 -0.3049188 0.03053987
-0.13153911 -0.3050155 0.030617118
-0.1331498 -0.30511203 0.030694246
-0.1343644 -0.30784631 0.028321862
-0.13436569 -0.31899309 0.018142641
0.13412529 -0.11508317 0.17499447
0.13251415 -0.11530197 0.17496157
0.1309059 -0.11552038 0.17492872
0.12930052 -0.11573835 0.174896
0.12769808 -0.11595596 0.17486331
0.12609848 -0.11617318 0.1748307
0.12450179 -0.11639 0.1747981
0.12290794 -0.11660641 0.17476565
0.12131698 -0.11682246 0.17473316
0.11972886 -0.11703812 0.17470074
0.11814358 -0.11725335 0.17466843
0.11656117 -0.11746828 0.17463616
0.11498154 -0.11768275 0.17460397
0.11340477 -0.11789687 0.17457172
0.11183076 -0.11811057 0.17453966
0.11025961 -0.11832393 0.17450765
0.10869127 -0.11853691 0.17447564
0.10712571 -0.11874953 0.17444366
0.1055629 -0.11896171 0.17441183
0.10400288 -0.11917352 0.17437997
0.10244566 -0.11938499 0.17434826
0.10089118 -0.11959606 0.17431653
0.099339478 -0.11980678 0.17428491
0.097790509 -0.12001713 0.17425328
0.096244305 -0.12022713 0.17422172
0.094700813 -0.12043671 0.17419019
0.093674608 -0.12120687 0.17359069
0.093674518 -0.12310512 0.17184979
0.093674392 -0.12501927 0.17009437
0.093674332 -0.12694964 0.16832387
0.09367422 -0.12889631 0.16653863
0.093674138 -0.13085957 0.16473806
0.093674034 -0.13283958 0.16292211
0.093673959 -0.1348366 0.16109058
0.093673855 -0.13685077 0.15924326
0.093673751 -0.13888246 0.15738001
0.093673661 -0.14093177 0.15550053
0.093673602 -0.14299899 0.15360466
0.093673475 -0.14508429 0.15169209
0.093673363 -0.14718796 0.14976284
0.093673252 -0.14931025 0.14781639
0.09367317 -0.15145142 0.14585263
