ply
format ascii 1.0
comment PCL generated
element vertex 1351
property float x
property float y
property float z
element face 0
element camera 0
property float view_px
property float view_py
property float view_pz
property float x_axisx
property float x_axisy
property float x_axisz
property float y_axisx
property float y_axisy
property float y_axisz
property float z_axisx
property float z_axisy
property float z_axisz
property float focal
property float scalex
property float scaley
property float centerx
property float centery
property int viewportx
property int viewporty
property float k1
property float k2
end_header
-0.14157987 0.042158283 0.17648405
-0.14288205 0.042154342 0.17637718
-0.14418587 0.042150367 0.17627013
-0.14549124 0.042146392 0.17616299
-0.14679818 0.042142417 0.17605564
-0.14810672 0.042138431 0.17594823
0.10923783 0.034835268 0.18504021
0.10817295 0.034919228 0.18506354
0.10710765 0.035003174 0.18508679
0.10604193 0.035087164 0.18511006
0.1049758 0.0351712 0.18513334
0.10390924 0.035255235 0.18515661
0.10284228 0.035339344 0.18517992
0.10177489 0.035423469 0.18520328
0.10070708 0.035507608 0.18522662
0.099638887 0.035591792 0.18524992
0.098570235 0.035676036 0.18527329
0.097501196 0.03576028 0.18529662
0.096431717 0.035844568 0.18532002
0.095361821 0.035928871 0.18534333
0.094291516 0.036013249 0.18536678
0.093220785 0.036097627 0.18539011
0.092149645 0.03618205 0.18541351
0.091078095 0.036266491 0.18543693
0.090006106 0.036350984 0.18546036
0.088933699 0.036435515 0.18548378
0.087860875 0.036520068 0.18550721
0.086787619 0.036604643 0.18553063
0.085713968 0.036689255 0.18555409
0.08463987 0.036773887 0.1855776
0.083565377 0.036858596 0.18560109
0.082490452 0.036943328 0.18562451
0.081415102 0.037028067 0.18564805
0.080339327 0.037112843 0.18567148
0.079263136 0.037197687 0.18569505
0.078186527 0.037282538 0.1857186
0.077109493 0.037367426 0.18574208
0.076032035 0.037452336 0.18576568
0.074954137 0.03753728 0.18578923
0.073875844 0.037622258 0.18581277
0.07279712 0.037707273 0.18583629
0.07171797 0.037792325 0.18585989
0.070638388 0.037877414 0.18588346
0.069558389 0.037962537 0.1859071
0.068477973 0.038047675 0.18593067
0.067397118 0.038132887 0.18595427
0.066315852 0.0382181 0.18597794
0.06523414 0.038303342 0.18600154
0.064152025 0.038388632 0.18602514
0.063069478 0.038473945 0.18604884
0.061986491 0.038559321 0.1860725
0.060903091 0.038644698 0.18609619
0.059819262 0.038730104 0.18611982
0.058735006 0.038815554 0.18614346
0.057650324 0.03890105 0.18616721
0.056565221 0.03898659 0.18619093
0.055479683 0.03907213 0.18621466
0.05439372 0.0391577 0.18623829
0.053307328 0.039243344 0.18626204
0.052220505 0.039328989 0.18628579
0.051133264 0.039414689 0.18630958
0.050045591 0.039500427 0.18633336
0.048957475 0.039586142 0.18635708
0.047868945 0.039671935 0.18638086
0.046779986 0.039757777 0.18640462
0.045690585 0.039843611 0.18642846
0.044600759 0.039929528 0.1864523
0.043510512 0.040015452 0.18647611
0.042419821 0.040101409 0.18649992
0.041328706 0.040187411 0.1865238
0.040237159 0.040273443 0.18654761
0.039145179 0.040359471 0.18657139
0.038052775 0.040445626 0.18659538
0.036959942 0.040531732 0.18661919
0.035866667 0.040617894 0.18664309
0.034772959 0.040704094 0.18666697
0.033678822 0.040790316 0.18669093
0.032584254 0.040876571 0.18671474
0.031489253 0.040962901 0.18673873
0.030393813 0.041049201 0.18676266
0.02929794 0.041135587 0.18678662
0.02820164 0.041221995 0.18681052
0.027104897 0.041308414 0.18683448
0.026007732 0.041394904 0.18685845
0.02491013 0.041481417 0.18688244
0.023812085 0.041567951 0.18690646
0.022713605 0.04165452 0.18693045
0.021614697 0.041741133 0.18695444
0.020515352 0.041827761 0.18697843
0.019415557 0.04191443 0.18700245
0.018315347 0.04200118 0.18702653
0.017214691 0.042087894 0.18705055
0.016113603 0.042174671 0.1870746
0.015012074 0.042261496 0.18709871
0.013910105 0.042348329 0.18712276
0.012807695 0.042435225 0.18714678
0.011704869 0.042522177 0.18717089
0.010601584 0.042609107 0.18719503
0.0094978707 0.042696089 0.18721911
0.0083937105 0.042783104 0.18724328
0.0072891149 0.042870164 0.18726733
0.0061840862 0.042957269 0.18729153
0.0050786184 0.043044403 0.1873157
0.0039727041 0.043131553 0.18733984
0.0028663569 0.043218747 0.18736407
0.001759563 0.043305982 0.18738818
0.0006523183 0.043393236 0.18741235
-0.00046735295 0.043442849 0.18738738
-0.0016048261 0.043439891 0.18729359
-0.0027435955 0.043436922 0.18719965
-0.003883654 0.043433905 0.18710569
-0.0050250012 0.043430917 0.18701163
-0.0061676414 0.043427944 0.18691745
-0.0073115737 0.043424957 0.18682313
-0.0084568178 0.043421954 0.18672872
-0.0096033541 0.043418936 0.18663421
-0.010751192 0.043415934 0.18653956
-0.011900335 0.04341295 0.18644485
-0.01305079 0.043409947 0.18635002
-0.014202557 0.0434069 0.18625504
-0.015355632 0.043403897 0.18616
-0.016510017 0.04340088 0.18606484
-0.017665721 0.043397862 0.18596956
-0.018822744 0.04339483 0.18587419
-0.019981101 0.043391783 0.18577865
-0.02114076 0.043388765 0.18568307
-0.022301754 0.043385733 0.18558735
-0.023464071 0.043382671 0.1854915
-0.024627721 0.043379653 0.18539563
-0.025792716 0.043376561 0.18529958
-0.026959034 0.043373529 0.18520337
-0.028126685 0.043370482 0.18510714
-0.029295677 0.043367419 0.18501082
-0.030466011 0.043364357 0.18491429
-0.031637691 0.043361276 0.18481773
-0.032810722 0.043358199 0.18472102
-0.033985093 0.043355137 0.1846242
-0.035160817 0.04335206 0.18452725
-0.03633789 0.043348998 0.18443021
-0.037516326 0.043345906 0.18433309
-0.038696125 0.043342814 0.18423578
-0.039877266 0.043339722 0.18413845
-0.041059781 0.04333663 0.18404096
-0.042243671 0.043333523 0.18394333
-0.043428909 0.043330431 0.1838457
-0.044615518 0.04332732 0.18374786
-0.04580351 0.043324199 0.1836499
-0.046992864 0.043321092 0.18355182
-0.048183613 0.04331797 0.18345365
-0.049375731 0.043314848 0.18335533
-0.050569229 0.043311711 0.18325698
-0.051764097 0.043308616 0.18315849
-0.052960366 0.043305479 0.18305993
-0.054158028 0.043302342 0.18296117
-0.055357069 0.043299221 0.18286231
-0.056557521 0.043296069 0.18276331
-0.057759341 0.043292928 0.18266425
-0.05896258 0.043289762 0.18256503
-0.060167234 0.043286625 0.18246573
-0.061373271 0.043283459 0.18236634
-0.062580712 0.043280307 0.18226677
-0.063789569 0.043277137 0.18216711
-0.064999826 0.043273985 0.18206733
-0.066211514 0.043270804 0.18196747
-0.067424595 0.043267637 0.18186745
-0.068639107 0.043264452 0.18176731
-0.069855027 0.043261271 0.18166709
-0.0710724 0.043258075 0.18156675
-0.072291188 0.04325489 0.18146625
-0.073511384 0.043251693 0.18136564
-0.074733026 0.043248497 0.181265
-0.075956106 0.043245297 0.18116415
-0.077180624 0.043242104 0.18106315
-0.07840655 0.043238878 0.18096212
-0.079633936 0.043235678 0.18086094
-0.080862768 0.043232467 0.18075964
-0.08209303 0.043229286 0.18065822
-0.083324768 0.043226011 0.18055665
-0.08455795 0.043222785 0.180455
-0.085792571 0.043219589 0.18035322
-0.087028645 0.043216344 0.18025136
-0.088266194 0.043213103 0.18014935
-0.089505203 0.043209843 0.18004715
-0.090745687 0.043206587 0.17994487
-0.09198761 0.043203332 0.17984253
-0.093231 0.043200117 0.17974007
-0.094475888 0.043196861 0.17963743
-0.095722251 0.043193556 0.17953461
-0.096970074 0.043190315 0.17943174
-0.098219372 0.043187026 0.17932877
-0.099470161 0.043183755 0.17922562
-0.10072245 0.043180466 0.17912236
-0.1019762 0.04317721 0.17901909
-0.10323144 0.043173935 0.17891553
-0.10448818 0.04317065 0.178812
-0.10574641 0.04316736 0.17870823
-0.10700614 0.043164074 0.17860436
-0.1082674 0.043160755 0.17850044
-0.10953014 0.04315744 0.17839628
-0.11079437 0.04315412 0.1782921
-0.11206013 0.04315082 0.17818776
-0.11332742 0.043147486 0.17808324
-0.11459617 0.043144185 0.17797863
-0.11586647 0.043140851 0.177874
-0.11713827 0.04313755 0.17776912
-0.11841165 0.043134172 0.17766407
-0.1196865 0.043130852 0.17755908
-0.12096289 0.043127522 0.17745382
-0.12224083 0.043124158 0.17734838
-0.12352028 0.043120813 0.17724296
-0.12480127 0.043117464 0.17713732
-0.12608379 0.043114115 0.17703167
-0.12736788 0.043110739 0.17692575
-0.12865351 0.043107346 0.17681977
-0.12994066 0.043104026 0.17671368
-0.13122937 0.043100622 0.17660746
-0.13251965 0.043097243 0.17650101
-0.13381147 0.043093864 0.17639452
-0.13510484 0.043090504 0.17628795
-0.13639982 0.043087095 0.17618114
-0.1376963 0.043083716 0.17607427
-0.13899437 0.043080326 0.17596725
-0.140294 0.043076918 0.17586014
-0.14159524 0.043073494 0.17575282
-0.14289804 0.04307007 0.17564544
-0.14420241 0.043066666 0.17553791
-0.14550836 0.043063242 0.17543027
-0.14681591 0.043059818 0.17532238
-0.14812504 0.04305638 0.17521453
0.11145373 0.035499278 0.18432295
0.11038925 0.035583343 0.18434602
0.10932436 0.035667423 0.18436921
0.10825905 0.035751574 0.18439236
0.10719331 0.035835717 0.18441546
0.1061272 0.035919897 0.18443868
0.10506064 0.03600413 0.18446186
0.10399365 0.036088359 0.18448499
0.10292627 0.036172647 0.18450817
0.10185844 0.036256995 0.18453142
0.10079022 0.036341343 0.18455461
0.099721581 0.036425751 0.18457785
0.098652504 0.036510129 0.18460104
0.097583033 0.036594596 0.18462425
0.096513152 0.036679078 0.18464753
0.095442824 0.03676359 0.18467078
0.094372086 0.03684818 0.18469399
0.093300939 0.036932748 0.1847173
0.092229366 0.037017353 0.18474054
0.091157362 0.03710201 0.18476388
0.090084948 0.037186705 0.18478715
0.089012131 0.037271421 0.18481049
0.087938875 0.037356157 0.18483377
0.086865202 0.037440956 0.1848571
0.085791104 0.037525777 0.18488041
0.084716581 0.03761062 0.18490374
0.083641656 0.037695501 0.18492711
0.082566291 0.037780434 0.18495044
0.081490509 0.037865374 0.18497384
0.08041431 0.037950367 0.18499723
0.079337686 0.038035382 0.1850206
0.07826063 0.03812043 0.18504402
0.077183172 0.038205512 0.18506742
0.076105282 0.038290646 0.18509081
0.075026959 0.038375787 0.18511432
0.073948234 0.038460981 0.18513769
0.072869062 0.038546197 0.18516117
0.071789473 0.03863145 0.18518454
0.070709467 0.038716707 0.18520805
0.069629028 0.038802054 0.18523151
0.068548173 0.038887415 0.18525499
0.067466877 0.03897278 0.18527853
0.066385172 0.039058182 0.18530193
0.065303043 0.039143648 0.1853255
0.064220481 0.039229129 0.18534899
0.063137494 0.039314654 0.18537256
0.062054075 0.039400224 0.18539611
0.060970236 0.039485794 0.18541959
0.059885964 0.039571423 0.18544322
0.058801271 0.039657053 0.18546671
0.057716161 0.039742727 0.18549025
0.056630615 0.03982849 0.18551391
0.055544633 0.039914224 0.18553749
0.054458227 0.040000029 0.18556109
0.053371388 0.040085856 0.18558463
0.05228414 0.040171705 0.1856083
0.051196441 0.040257592 0.1856319
0.050108328 0.040343519 0.18565559
0.049019776 0.040429503 0.1856792
0.047930811 0.040515479 0.18570289
0.04684139 0.040601492 0.18572652
0.045751564 0.040687568 0.18575022
0.044661283 0.04077363 0.18577388
0.043570593 0.040859796 0.1857976
0.042479463 0.040945947 0.18582129
0.041387904 0.041032143 0.18584505
0.040295918 0.041118369 0.18586868
0.039203487 0.041204639 0.18589243
0.038110636 0.041290939 0.18591622
0.037017349 0.04137728 0.18593991
0.03592363 0.041463643 0.18596369
0.034829479 0.041550044 0.18598747
0.033734895 0.041636478 0.18601122
0.032639872 0.041722942 0.18603504
0.031544421 0.041809436 0.18605882
0.030448548 0.041895986 0.18608263
0.029352224 0.041982587 0.18610644
0.028255468 0.042069171 0.18613032
0.027158288 0.042155795 0.18615416
0.026060656 0.042242486 0.18617797
0.0249626 0.042329185 0.18620178
0.023864122 0.042415947 0.18622565
0.022765189 0.042502724 0.18624952
0.021665834 0.042589545 0.18627349
0.020566031 0.042676378 0.18629736
0.019465787 0.042763248 0.18632117
0.018365124 0.042850159 0.18634513
0.017264016 0.042937141 0.18636906
0.016162474 0.043024145 0.18639296
0.015060494 0.043111127 0.18641689
0.013958069 0.043198187 0.18644083
0.012855212 0.043285273 0.18646482
0.011751916 0.043372396 0.18648878
0.010648189 0.043459572 0.1865128
0.009544014 0.043546751 0.18653673
0.008439403 0.04363399 0.18656078
0.0073343557 0.043721244 0.18658474
0.0062288581 0.043808527 0.18660876
0.0051229321 0.043895852 0.18663278
0.0040165707 0.043983243 0.1866568
0.0029097579 0.044070642 0.18668088
0.0018025133 0.04415809 0.18670496
0.00069482153 0.044245537 0.18672898
-0.0004242165 0.044298906 0.18670824
-0.0015621367 0.044296425 0.18661407
-0.0027013384 0.044293929 0.18651968
-0.003841836 0.044291433 0.18642533
-0.0049836305 0.044288937 0.1863308
-0.0061267177 0.044286426 0.1862362
-0.0072710933 0.044283915 0.18614146
-0.0084167765 0.044281423 0.18604663
-0.0095637636 0.044278882 0.18595171
-0.010712055 0.044276386 0.18585664
-0.01186165 0.044273831 0.18576142
-0.013012549 0.044271335 0.18566614
-0.014164763 0.044268824 0.18557084
-0.015318288 0.044266313 0.18547538
-0.016473129 0.044263773 0.18537977
-0.01762929 0.044261202 0.18528399
-0.018786771 0.044258676 0.1851882
-0.019945571 0.044256151 0.1850923
-0.021105694 0.044253625 0.18499628
-0.022267153 0.04425104 0.1849001
-0.023429928 0.044248499 0.18480387
-0.024594033 0.044245958 0.18470746
-0.025759483 0.044243403 0.18461105
-0.026926262 0.044240847 0.18451446
-0.028094387 0.044238277 0.18441772
-0.029263841 0.044235721 0.18432093
-0.030434646 0.044233151 0.18422404
-0.03160679 0.044230595 0.18412697
-0.032780282 0.044228025 0.18402988
-0.033955134 0.044225425 0.18393257
-0.035131324 0.04422285 0.18383521
-0.036308877 0.04422028 0.18373773
-0.037487768 0.044217709 0.18364018
-0.03866804 0.044215109 0.18354246
-0.039849665 0.044212528 0.18344462
-0.041032657 0.044209927 0.18334672
-0.042217009 0.044207327 0.18324867
-0.043402728 0.044204742 0.18315053
-0.044589821 0.044202171 0.18305227
-0.045778293 0.044199537 0.18295389
-0.046968136 0.044196922 0.18285534
-0.04815935 0.044194307 0.18275672
-0.049351957 0.044191707 0.18265808
-0.050545946 0.044189077 0.18255919
-0.051741309 0.044186462 0.18246028
-0.052938052 0.044183843 0.18236116
-0.054136198 0.044181213 0.18226203
-0.055335734 0.044178598 0.18216273
-0.056536678 0.044175953 0.18206331
-0.057739008 0.044173323 0.1819638
-0.05894272 0.044170689 0.18186414
-0.060147863 0.044168044 0.18176439
-0.061354388 0.044165414 0.18166453
-0.062562332 0.044162769 0.18156451
-0.063771687 0.044160105 0.18146443
-0.064982451 0.04415746 0.18136418
-0.066194631 0.044154786 0.18126383
-0.067408219 0.044152156 0.1811634
-0.068623245 0.044149462 0.18106279
-0.069839671 0.044146817 0.18096215
-0.071057528 0.044144128 0.18086126
-0.072276808 0.044141464 0.18076035
-0.073497526 0.044138804 0.18065932
-0.074719682 0.0441361 0.18055812
-0.075943261 0.04413344 0.18045688
-0.077168293 0.044130746 0.18035546
-0.078394733 0.044128042 0.18025389
-0.079622619 0.044125382 0.1801523
-0.08085198 0.044122674 0.18005049
-0.082082778 0.044119984 0.17994869
-0.083315007 0.044117291 0.17984664
-0.084548697 0.044114601 0.17974451
-0.085783854 0.044111867 0.17964226
-0.087020464 0.044109143 0.17953992
-0.088258527 0.044106454 0.17943743
-0.089498051 0.04410373 0.17933479
-0.090739042 0.044101041 0.17923212
-0.0919815 0.044098277 0.17912921
-0.093225442 0.044095568 0.17902625
-0.094470844 0.044092849 0.17892319
-0.095717721 0.044090111 0.17881992
-0.096966065 0.044087362 0.17871666
-0.098215923 0.044084609 0.17861313
-0.099467225 0.044081889 0.17850959
-0.10072005 0.044079121 0.17840588
-0.10197433 0.044076402 0.17830205
-0.1032301 0.044073652 0.17819804
-0.10448739 0.044070899 0.17809406
-0.10574619 0.044068102 0.17798978
-0.10700645 0.044065353 0.1778855
-0.10826822 0.044062614 0.17778108
-0.10953152 0.044059806 0.17767644
-0.11079632 0.044057038 0.17757171
-0.1120626 0.044054288 0.1774669
-0.11333041 0.044051491 0.17736205
-0.11459976 0.044048682 0.17725688
-0.1158706 0.044045929 0.17715171
-0.11714297 0.044043135 0.17704642
-0.11841686 0.044040367 0.17694098
-0.11969229 0.044037554 0.17683536
-0.12096922 0.04403476 0.17672962
-0.1222477 0.044031948 0.17662379
-0.12352771 0.044029169 0.17651784
-0.12480927 0.044026311 0.17641181
-0.12609236 0.044023499 0.17630559
-0.12737699 0.044020735 0.17619923
-0.12866321 0.044017863 0.17609271
-0.12995093 0.044015054 0.17598617
-0.13124017 0.044012245 0.17587945
-0.13253103 0.044009417 0.17577252
-0.13382342 0.044006575 0.17566562
-0.13511735 0.044003736 0.17555845
-0.13641287 0.044000909 0.17545125
-0.13770995 0.043998066 0.17534384
-0.13900863 0.043995198 0.17523631
-0.14030884 0.043992326 0.1751287
-0.14161062 0.043989498 0.17502099
-0.14291401 0.043986626 0.17491311
-0.14421897 0.043983787 0.17480507
-0.14552549 0.0439809 0.17469686
-0.14683358 0.043978043 0.17458859
-0.14814331 0.043975171 0.1744802
0.11366975 0.0361633 0.18360564
0.11260565 0.036247503 0.18362865
0.11154118 0.036331698 0.18365154
0.11047629 0.036415976 0.18367463
0.10941096 0.036500245 0.18369755
0.10834522 0.036584567 0.18372065
0.10727906 0.036668945 0.18374372
0.10621252 0.036753308 0.18376669
0.10514554 0.036837745 0.18378976
0.10407813 0.036922198 0.18381277
0.10301031 0.037006665 0.18383589
0.10194207 0.037091177 0.18385896
0.10087343 0.037175748 0.18388197
0.099804357 0.037260365 0.18390509
0.098734848 0.037344951 0.18392822
0.09766496 0.037429616 0.18395129
0.096594639 0.037514288 0.18397442
0.095523894 0.037599012 0.18399757
0.094452724 0.037683774 0.18402067
0.093381144 0.037768558 0.18404391
0.09230914 0.037853364 0.18406701
0.091236725 0.037938207 0.1840902
0.090163879 0.038023092 0.18411329
0.089090623 0.038108002 0.18413651
0.088016942 0.03819295 0.18415976
0.086942829 0.038277935 0.18418291
0.085868306 0.038362958 0.1842061
0.084793359 0.038448002 0.18422937
0.083717987 0.038533099 0.18425256
0.082642198 0.038618203 0.18427584
0.081565984 0.038703375 0.18429905
0.08048936 0.038788572 0.18432236
0.079412289 0.038873766 0.18434557
0.078334816 0.038959026 0.18436888
0.077256911 0.039044295 0.18439212
0.076178581 0.039129615 0.18441543
0.075099833 0.039214987 0.18443874
0.074020654 0.039300367 0.1844621
0.072941072 0.03938577 0.18448541
0.071861044 0.039471235 0.18450874
0.070780598 0.039556704 0.18453208
0.069699727 0.039642226 0.18455535
0.068618432 0.0397278 0.18457875
0.067536712 0.039813381 0.18460214
0.066454552 0.039898995 0.18462548
0.06537199 0.039984655 0.18464884
0.064288989 0.040070329 0.18467227
0.063205563 0.040156033 0.18469566
0.062121715 0.040241811 0.18471912
0.06103744 0.04032759 0.18474251
0.059952732 0.040413428 0.18476593
0.058867596 0.040499281 0.18478939
0.057782039 0.040585164 0.18481284
0.056696046 0.040671077 0.18483621
0.05560964 0.040757045 0.18485981
0.05452279 0.040843051 0.18488324
0.053435519 0.040929049 0.18490672
0.052347813 0.041015144 0.18493021
0.051259689 0.041101206 0.18495369
0.050171122 0.041187353 0.18497723
0.049082126 0.041273508 0.18500078
0.047992714 0.041359715 0.18502426
0.046902865 0.041445926 0.18504784
0.045812573 0.041532181 0.18507138
0.044721868 0.041618481 0.18509495
0.04363073 0.041704852 0.1851185
0.04253915 0.041791216 0.1851421
0.041447151 0.041877605 0.18516567
0.040354706 0.041964024 0.18518922
0.039261844 0.042050503 0.18521285
0.038168542 0.042136993 0.18523645
0.037074815 0.04222355 0.18526012
0.035980642 0.0423101 0.18528378
0.034886051 0.042396713 0.18530741
0.033791013 0.042483356 0.18533102
0.032695543 0.042569999 0.18535471
0.031599652 0.042656731 0.18537834
0.03050332 0.042743478 0.18540213
0.029406553 0.042830255 0.18542579
0.028309343 0.042917043 0.18544942
0.027211713 0.043003898 0.18547317
0.026113639 0.043090761 0.18549687
0.025015136 0.043177687 0.18552056
0.023916192 0.043264657 0.18554437
0.022816818 0.043351643 0.18556806
0.021717003 0.043438658 0.18559185
0.020616746 0.043525688 0.1856156
0.019516064 0.043612778 0.18563938
0.018414937 0.043699894 0.18566319
0.01731338 0.043787088 0.18568695
0.016211381 0.043874267 0.18571076
0.015108953 0.043961462 0.18573463
0.014006074 0.044048727 0.18575844
0.012902771 0.044136029 0.18578219
0.011799017 0.044223368 0.1858061
0.010694834 0.044310756 0.18582997
0.0095902011 0.044398148 0.18585378
0.0084851282 0.044485576 0.18587765
0.0073796231 0.044573039 0.18590155
0.0062736827 0.044660542 0.18592542
0.005167298 0.044748068 0.18594933
0.0040604742 0.044835661 0.18597323
0.0029532036 0.044923257 0.18599713
0.0018454971 0.045010898 0.18602112
0.00073734712 0.045098554 0.18604502
-0.00038105028 0.045155693 0.18602851
-0.0015194062 0.045153689 0.18593398
-0.0026590549 0.04515167 0.18583921
-0.0037999924 0.045149636 0.1857444
-0.0049422341 0.045147616 0.18564942
-0.006085753 0.045145616 0.18555439
-0.0072305831 0.045143597 0.18545923
-0.0083767138 0.045141548 0.18536395
-0.009524148 0.045139529 0.18526861
-0.010672882 0.045137495 0.18517312
-0.011822929 0.045135491 0.18507755
-0.012974274 0.045133471 0.18498188
-0.014126942 0.045131408 0.18488598
-0.015280926 0.045129374 0.1847901
-0.016436212 0.04512734 0.18469408
-0.017592821 0.045125321 0.18459794
-0.018750757 0.045123257 0.18450168
-0.019910023 0.045121193 0.1844053
-0.0210706 0.045119159 0.18430889
-0.022232506 0.04511711 0.18421233
-0.023395751 0.045115061 0.18411562
-0.024560325 0.045112997 0.18401879
-0.025726233 0.045110933 0.18392184
-0.026893474 0.04510887 0.18382484
-0.028062053 0.045106821 0.1837278
-0.02923198 0.045104757 0.1836305
-0.030403245 0.045102693 0.18353316
-0.031575862 0.0451006 0.18343568
-0.032749824 0.045098536 0.18333811
-0.033925135 0.045096457 0.18324047
-0.035101794 0.045094393 0.18314266
-0.036279831 0.0450923 0.18304467
-0.037459206 0.045090217 0.18294662
-0.03863994 0.045088138 0.18284851
-0.039822031 0.04508606 0.18275028
-0.0410055 0.045083981 0.18265194
-0.042190336 0.045081858 0.18255344
-0.043376543 0.045079779 0.18245485
-0.044564109 0.045077685 0.18235612
-0.045753062 0.045075607 0.18225735
-0.046943385 0.045073479 0.18215835
-0.048135094 0.045071356 0.18205932
-0.04932816 0.045069277 0.18196014
-0.05052264 0.045067169 0.18186086
-0.051718488 0.04506506 0.18176144
-0.05291573 0.045062937 0.18166193
-0.054114364 0.045060825 0.1815623
-0.055314399 0.045058686 0.18146253
-0.056515828 0.045056578 0.18136269
-0.057718635 0.045054469 0.18126273
-0.058922853 0.045052342 0.18116266
-0.06012848 0.045050189 0.1810624
-0.061335508 0.04504808 0.18096206
-0.062543944 0.045045942 0.18086165
-0.063753776 0.045043819 0.18076113
-0.064965054 0.045041662 0.1806604
-0.066177748 0.045039508 0.18055958
-0.067391835 0.04503737 0.18045872
-0.068607353 0.045035258 0.18035766
-0.069824286 0.045033105 0.18025652
-0.071042657 0.045030907 0.18015522
-0.072262444 0.045028783 0.18005383
-0.073483676 0.045026626 0.17995238
-0.074706323 0.045024473 0.17985076
-0.075930417 0.045022335 0.17974898
-0.077155955 0.045020148 0.17964715
-0.078382917 0.045017995 0.17954513
-0.079611316 0.045015827 0.17944303
-0.080841191 0.045013655 0.17934087
-0.082072482 0.045011487 0.17923853
-0.083305262 0.04500927 0.17913601
-0.084539458 0.045007117 0.1790334
-0.085775137 0.045004934 0.1789307
-0.087012239 0.045002762 0.17882788
-0.088250831 0.045000594 0.17872497
-0.089490898 0.044998381 0.17862183
-0.090732411 0.044996195 0.17851871
-0.091975391 0.044993967 0.17841539
-0.093219846 0.044991795 0.17831197
-0.0944658 0.044989567 0.17820835
-0.095713191 0.044987366 0.17810467
-0.096962057 0.044985216 0.1780009
-0.098212436 0.04498297 0.17789701
-0.099464305 0.044980772 0.17779297
-0.10071764 0.044978555 0.17768875
-0.10197248 0.044976313 0.17758441
-0.1032288 0.04497413 0.17748001
-0.10448661 0.044971913 0.1773755
-0.10574593 0.044969697 0.1772708
-0.10700675 0.044967439 0.17716599
-0.10826907 0.044965222 0.17706105
-0.1095329 0.04496298 0.17695597
-0.11079822 0.044960763 0.17685083
-0.11206508 0.044958521 0.17674553
-0.11333346 0.044956289 0.17664006
-0.11460331 0.044954062 0.17653459
-0.11587474 0.044951785 0.17642885
-0.11714765 0.044949513 0.17632309
-0.11842208 0.044947311 0.17621711
-0.11969806 0.04494505 0.17611107
-0.12097558 0.044942748 0.17600489
-0.1222546 0.044940501 0.17589858
-0.12353518 0.044938244 0.1757921
-0.12481727 0.044935998 0.17568555
-0.12610096 0.044933707 0.17557886
-0.12738612 0.044931449 0.17547205
-0.12867287 0.044929188 0.17536512
-0.12996116 0.044926926 0.17525801
-0.13125101 0.044924624 0.17515078
-0.13254242 0.044922348 0.17504343
-0.13383538 0.044920072 0.17493603
-0.13512991 0.04491777 0.17482838
-0.136426 0.044915508 0.17472064
-0.13772362 0.044913203 0.17461282
-0.13902287 0.0449109 0.17450482
-0.14032367 0.044908609 0.17439669
-0.14162605 0.044906273 0.17428839
-0.14292997 0.044903997 0.17418003
-0.14423552 0.044901695 0.17407155
-0.14554264 0.044899359 0.17396283
-0.14685132 0.044897038 0.17385411
-0.14816161 0.044894762 0.17374519
0.11588585 0.036827344 0.18288824
0.11482218 0.036911674 0.1829111
0.11375809 0.036996011 0.18293399
0.1126936 0.037080415 0.18295681
0.1116287 0.037164856 0.18297967
0.11056338 0.037249293 0.18300256
0.10949764 0.03733376 0.18302542
0.10843147 0.037418287 0.18304834
0.10736489 0.037502859 0.18307132
0.10629791 0.037587445 0.18309423
0.10523049 0.037672061 0.18311712
0.10416269 0.037756693 0.18314001
0.10309444 0.037841368 0.18316296
0.10202578 0.037926104 0.18318591
0.10095669 0.038010873 0.18320888
0.099887192 0.038095649 0.18323195
0.098817259 0.038180448 0.18325484
0.097746938 0.038265314 0.18327785
0.096676186 0.038350187 0.18330085
0.095605016 0.038435098 0.18332386
0.094533429 0.03852006 0.18334687
0.093461409 0.038605046 0.18336987
0.09238898 0.038690049 0.18339291
0.091316126 0.038775101 0.18341601
0.090242863 0.038860191 0.18343899
0.089169167 0.038945287 0.18346208
0.088095061 0.039030466 0.18348518
0.087020531 0.039115652 0.18350828
0.085945569 0.039200861 0.18353131
0.084870175 0.039286107 0.18355441
0.083794378 0.039371394 0.18357748
0.082718164 0.039456692 0.18360063
0.081641518 0.039542072 0.18362379
0.080564462 0.039627429 0.18364689
0.079486966 0.039712869 0.18366998
0.078409061 0.039798301 0.18369314
0.077330723 0.0398838 0.18371633
0.076251969 0.039969292 0.18373948
0.075172774 0.04005488 0.18376267
0.074093156 0.040140465 0.18378586
0.073013134 0.040226076 0.18380913
0.071932681 0.040311724 0.18383232
0.070851795 0.040397409 0.18385547
0.069770493 0.040483117 0.18387872
0.068688765 0.040568907 0.18390194
0.067606598 0.040654685 0.18392527
0.066524006 0.040740479 0.18394846
0.065441005 0.040826347 0.18397167
0.064357564 0.040912233 0.18399498
0.063273698 0.040998172 0.18401825
0.062189419 0.041084129 0.18404159
0.061104693 0.041170102 0.18406487
0.060019553 0.041256133 0.18408817
0.058933973 0.04134218 0.18411145
0.057847973 0.041428272 0.18413484
0.056761548 0.041514389 0.18415812
0.055674691 0.041600589 0.18418145
0.054587405 0.041686755 0.18420482
0.053499687 0.041772991 0.18422815
0.052411545 0.041859251 0.18425155
0.051322971 0.041945532 0.18427494
0.050233964 0.042031851 0.18429831
0.049144533 0.042118236 0.18432173
0.048054673 0.042204641 0.18434516
0.04696437 0.042291075 0.18436855
0.045873657 0.042377524 0.18439198
0.044782504 0.042464033 0.1844154
0.043690909 0.042550571 0.18443882
0.042598903 0.042637154 0.18446234
0.041506447 0.042723767 0.18448579
0.040413562 0.04281038 0.18450925
0.039320242 0.042897049 0.1845327
0.038226496 0.04298377 0.18455625
0.037132312 0.043070484 0.18457967
0.036037713 0.043157291 0.18460321
0.034942668 0.043244086 0.18462679
0.033847183 0.043330934 0.18465027
0.03275127 0.0434178 0.18467379
0.031654917 0.043504696 0.18469733
0.030558137 0.043591652 0.18472084
0.029460922 0.043678634 0.18474451
0.028363274 0.043765653 0.18476802
0.027265185 0.043852709 0.18479165
0.026166663 0.043939784 0.18481523
0.025067706 0.044026904 0.1848388
0.023968313 0.044114068 0.18486241
0.022868486 0.044201247 0.18488607
0.021768225 0.044288501 0.18490973
0.020667521 0.04437574 0.1849333
0.019566372 0.04446302 0.18495697
0.018464798 0.044550333 0.1849806
0.017362792 0.044637721 0.18500429
0.016260341 0.044725124 0.18502802
0.015157451 0.044812553 0.18505168
0.014054124 0.044900019 0.1850754
0.012950359 0.044987511 0.18509907
0.01184615 0.045075044 0.18512276
0.010741509 0.0451626 0.18514651
0.0096364263 0.045250237 0.18517032
0.0085309027 0.045337863 0.18519402
0.007424939 0.045425516 0.18521771
0.0063185361 0.04551325 0.18524149
0.00521169 0.045600992 0.1852653
0.0041044042 0.045688752 0.18528906
0.0029966866 0.045776583 0.18531287
0.0018885181 0.045864437 0.18533668
0.00077991741 0.045952316 0.18536043
-0.00033784678 0.046013132 0.1853483
-0.0014766386 0.046011604 0.18525326
-0.0026167345 0.046010092 0.18515807
-0.003758115 0.046008568 0.18506286
-0.004900781 0.046007041 0.18496752
-0.0060447659 0.046005499 0.184872
-0.0071900398 0.046003956 0.18477646
-0.0083366064 0.046002429 0.18468076
-0.0094844876 0.046000887 0.18458492
-0.010633673 0.045999359 0.18448904
-0.011784173 0.045997817 0.18439305
-0.012935974 0.04599629 0.18429694
-0.014089085 0.045994733 0.18420064
-0.015243519 0.045993175 0.18410435
-0.016399268 0.045991633 0.18400782
-0.017556336 0.045990091 0.18391129
-0.01871473 0.045988519 0.18381462
-0.019874442 0.045986991 0.18371785
-0.021035478 0.045985434 0.1836209
-0.022197854 0.045983862 0.18352386
-0.023361556 0.045982305 0.1834268
-0.024526579 0.045980748 0.18332952
-0.025692953 0.045979191 0.18323222
-0.026860652 0.045977633 0.18313473
-0.028029704 0.045976061 0.18303722
-0.029200094 0.045974489 0.18293947
-0.030371832 0.045972917 0.18284172
-0.031544913 0.045971345 0.18274385
-0.032719336 0.045969788 0.18264583
-0.033895127 0.045968201 0.18254769
-0.035072263 0.045966629 0.18244946
-0.036250755 0.045965072 0.18235105
-0.037430607 0.04596347 0.18225265
-0.038611803 0.045961909 0.18215406
-0.039794393 0.045960292 0.18205532
-0.040978327 0.04595872 0.1819565
-0.042163644 0.045957118 0.18185762
-0.043350324 0.045955546 0.18175855
-0.044538364 0.045953963 0.18165937
-0.045727804 0.045952361 0.1815601
-0.046918616 0.045950774 0.18146068
-0.048110791 0.045949169 0.18136126
-0.049304359 0.045947582 0.18126166
-0.050499309 0.045945995 0.18116194
-0.051695656 0.045944378 0.18106207
-0.052893385 0.045942776 0.18096212
-0.054092493 0.04594117 0.18086201
-0.055293027 0.045939583 0.18076181
-0.05649494 0.045937937 0.18066147
-0.057698257 0.04593632 0.18056104
-0.058902971 0.045934718 0.18046057
-0.060109083 0.045933127 0.1803599
-0.061316609 0.045931526 0.18025908
-0.062525548 0.045929879 0.18015823
-0.063735887 0.045928247 0.1800572
-0.064947642 0.045926642 0.17995608
-0.066160835 0.04592501 0.17985484
-0.067375429 0.045923408 0.17975345
-0.068591461 0.045921747 0.17965192
-0.069808908 0.045920111 0.17955035
-0.071027763 0.045918494 0.17944863
-0.072248071 0.045916848 0.17934674
-0.07346978 0.045915227 0.17924488
-0.074692965 0.045913581 0.17914268
-0.075917564 0.045911934 0.17904055
-0.077143602 0.045910299 0.17893827
-0.078371078 0.045908667 0.17883578
-0.079600021 0.045907021 0.17873317
-0.08083038 0.04590534 0.17863056
-0.082062207 0.045903739 0.17852768
-0.083295479 0.045902092 0.17842478
-0.084530219 0.045900427 0.17832178
-0.085766412 0.04589875 0.17821851
-0.087004051 0.0458971 0.17811528
-0.088243164 0.045895424 0.17801186
-0.089483723 0.045893792 0.1779083
-0.090725772 0.045892112 0.17780468
-0.091969296 0.045890421 0.17770091
-0.093214259 0.045888785 0.17759699
-0.094460733 0.045887109 0.17749292
-0.095708683 0.045885459 0.17738882
-0.096958071 0.045883782 0.17728451
-0.098208979 0.045882102 0.17718014
-0.099461384 0.045880411 0.17707559
-0.10071526 0.045878731 0.17697093
-0.10197061 0.045877069 0.1768662
-0.10322747 0.045875408 0.1767613
-0.10448585 0.045873683 0.17665628
-0.10574569 0.045872021 0.17655116
-0.10700705 0.045870326 0.17644581
-0.10826992 0.045868617 0.17634043
-0.10953428 0.045866925 0.17623493
-0.11080018 0.04586523 0.17612928
-0.11206755 0.045863569 0.17602354
-0.1133365 0.045861814 0.17591754
-0.11460692 0.045860123 0.17581156
-0.11587886 0.045858428 0.1757054
-0.11715232 0.045856737 0.17559916
-0.11842734 0.045854997 0.17549264
-0.11970385 0.045853302 0.17538616
-0.12098188 0.045851581 0.1752795
-0.1222615 0.045849856 0.17517266
-0.12354264 0.04584815 0.17506576
-0.12482529 0.04584644 0.17495874
-0.12610951 0.04584473 0.1748516
-0.12739527 0.045842994 0.17474425
-0.12868257 0.045841269 0.17463681
-0.12997144 0.045839515 0.17452925
-0.13126184 0.045837823 0.17442158
-0.13255383 0.045836069 0.17431375
-0.13384736 0.045834329 0.17420581
-0.13514243 0.045832623 0.17409769
-0.1364391 0.045830853 0.17398942
-0.13773733 0.045829128 0.17388105
-0.13903712 0.045827404 0.1737726
-0.14033851 0.045825668 0.17366406
-0.14164147 0.045823868 0.17355523
-0.14294598 0.045822144 0.17344639
-0.14425208 0.045820404 0.17333737
-0.14555977 0.045818668 0.17322826
-0.14686908 0.045816869 0.17311898
-0.14817995 0.045815129 0.1730096
0.11810203 0.037491426 0.18217087
0.11703879 0.037575897 0.18219358
0.1159751 0.03766036 0.18221626
0.11491104 0.037744891 0.182239
0.11384653 0.037829448 0.18226171
0.11278161 0.037914034 0.1822845
0.11171626 0.037998665 0.18230724
0.11065052 0.038083311 0.18233004
0.10958438 0.038167987 0.18235281
0.10851779 0.038252708 0.18237552
0.10745078 0.038337428 0.18239835
0.10638337 0.038422268 0.18242118
0.10531552 0.038507078 0.18244395
0.10424729 0.038591921 0.18246675
0.10317861 0.038676787 0.18248957
0.10210954 0.038761705 0.1825124
0.10104003 0.038846646 0.18253523
0.099970102 0.038931653 0.18255812
0.098899744 0.039016653 0.18258092
0.097828984 0.03910172 0.18260381
0.096757807 0.039186779 0.18262666
0.095686227 0.039271876 0.18264952
0.094614193 0.039357044 0.18267247
0.093541756 0.039442237 0.18269533
0.092468895 0.039527453 0.18271825
0.091395609 0.039612707 0.18274122
0.090321913 0.039697982 0.18276414
0.089247793 0.039783295 0.18278706
0.088173255 0.03986863 0.18280998
0.087098278 0.039954036 0.18283299
0.086022906 0.040039457 0.18285593
0.084947079 0.040124908 0.18287891
0.083870858 0.040210355 0.18290192
0.082794204 0.040295884 0.18292493
0.081717126 0.04038142 0.18294787
0.080639631 0.040467039 0.18297088
0.079561688 0.04055265 0.18299392
0.078483351 0.040638298 0.1830169
0.077404588 0.040723987 0.18303999
0.076325394 0.040809702 0.183063
0.075245768 0.040895455 0.18308604
0.074165732 0.040981259 0.18310919
0.073085256 0.041067071 0.18313223
0.07200437 0.041152935 0.18315524
0.070923045 0.041238807 0.18317842
0.069841303 0.041324701 0.1832014
0.068759136 0.041410673 0.18322459
0.067676544 0.041496679 0.18324772
0.066593528 0.041582692 0.18327081
0.065510064 0.041668758 0.183294
0.064426199 0.041754831 0.1833171
0.063341893 0.041840967 0.18334025
0.06225716 0.041927103 0.18336344
0.061172005 0.042013329 0.18338662
0.060086422 0.042099554 0.18340975
0.059000406 0.042185795 0.18343297
0.057913978 0.042272095 0.18345618
0.056827098 0.042358425 0.1834794
0.055739801 0.042444784 0.18350264
0.054652072 0.04253117 0.18352586
0.053563919 0.042617623 0.18354908
0.052475322 0.042704068 0.18357232
0.051386315 0.042790581 0.18359557
0.050296869 0.042877115 0.18361884
0.049206994 0.042963669 0.18364209
0.048116684 0.043050285 0.18366545
0.047025945 0.04313691 0.18368873
0.045934778 0.043223567 0.18371198
0.044843171 0.04331027 0.18373528
0.043751147 0.043397017 0.18375865
0.042658683 0.04348382 0.18378198
0.041565783 0.04357063 0.18380532
0.040472455 0.043657448 0.18382865
0.039378699 0.043744318 0.18385199
0.038284503 0.043831225 0.18387535
0.037189871 0.043918166 0.18389869
0.036094822 0.044005185 0.18392214
0.034999326 0.044092182 0.18394554
0.033903405 0.044179227 0.1839689
0.032807034 0.044266302 0.18399236
0.031710241 0.044353407 0.18401581
0.030613007 0.044440567 0.18403921
0.02951535 0.04452778 0.18406263
0.028417243 0.044614986 0.18408608
0.027318701 0.044702224 0.18410951
0.026219737 0.044789527 0.18413299
0.025120322 0.044876821 0.18415651
0.024020473 0.044964179 0.18417996
0.022920201 0.045051593 0.18420348
0.021819485 0.04513903 0.18422702
0.020718331 0.045226488 0.18425047
0.019616732 0.04531398 0.18427402
0.018514704 0.045401517 0.18429753
0.017412238 0.045489084 0.18432105
0.016309332 0.045576707 0.18434471
0.015205996 0.045664351 0.18436822
0.014102207 0.045752022 0.1843918
0.01299798 0.04583969 0.18441534
0.011893325 0.04592745 0.18443894
0.010788227 0.04601521 0.18446249
0.0096826954 0.046103045 0.18448618
0.0085767098 0.046190906 0.18450975
0.0074702883 0.04627876 0.18453342
0.006363431 0.04636668 0.18455705
0.0052561266 0.04645462 0.18458071
0.0041483901 0.046542615 0.18460435
0.0030402069 0.046630662 0.18462804
0.00193158 0.046718705 0.18465173
0.00082251371 0.04680679 0.1846754
-0.00029460236 0.046871305 0.18466756
-0.0014338412 0.046870273 0.1845721
-0.0025743803 0.046869207 0.18447644
-0.0037162045 0.046868172 0.1843808
-0.0048593213 0.046867136 0.18428501
-0.0060037309 0.046866085 0.18418911
-0.0071494514 0.046865065 0.18409312
-0.0082964916 0.046863984 0.18399695
-0.0094448049 0.046862949 0.18390074
-0.010594441 0.046861898 0.18380445
-0.01174538 0.046860848 0.18370792
-0.012897624 0.046859812 0.18361139
-0.014051202 0.046858747 0.18351474
-0.015206086 0.046857681 0.18341795
-0.016362289 0.046856645 0.18332106
-0.017519811 0.04685558 0.18322411
-0.018678656 0.046854544 0.18312696
-0.019838838 0.046853449 0.18302971
-0.021000328 0.046852414 0.18293238
-0.022163155 0.046851363 0.18283495
-0.023327312 0.046850298 0.18273744
-0.024492806 0.046849232 0.18263978
-0.025659641 0.046848167 0.18254197
-0.026827818 0.046847071 0.18244407
-0.027997332 0.046846036 0.18234608
-0.029168183 0.046844956 0.18224791
-0.030340388 0.046843875 0.18214968
-0.031513937 0.04684281 0.18205139
-0.032688834 0.046841744 0.18195286
-0.033865079 0.046840679 0.18185437
-0.035042685 0.046839613 0.18175569
-0.036221653 0.046838518 0.1816569
-0.037401985 0.046837438 0.18155795
-0.03858367 0.046836372 0.18145898
-0.039766718 0.046835288 0.1813598
-0.040951129 0.046834223 0.18126056
-0.042136926 0.046833113 0.18116117
-0.043324087 0.046832033 0.18106169
-0.044512622 0.046830952 0.18096209
-0.045702524 0.046829872 0.18086237
-0.046893809 0.046828806 0.18076259
-0.048086476 0.046827707 0.1806626
-0.049280532 0.046826627 0.18056256
-0.050475962 0.046825517 0.18046239
-0.051672798 0.046824452 0.18036211
-0.052871011 0.046823356 0.1802617
-0.054070629 0.046822261 0.18016115
-0.055271648 0.046821117 0.18006045
-0.056474049 0.046820067 0.17995974
-0.057677854 0.046818942 0.1798588
-0.058883071 0.046817832 0.17975786
-0.060089681 0.046816748 0.17965677
-0.0612977 0.046815652 0.17955554
-0.06250713 0.046814542 0.17945421
-0.063717976 0.046813462 0.17935273
-0.064930238 0.046812333 0.17925113
-0.06614393 0.046811238 0.17914942
-0.067359023 0.046810128 0.17904761
-0.068575539 0.046809003 0.17894563
-0.069793478 0.046807904 0.17884362
-0.071012869 0.046806794 0.17874137
-0.072233677 0.046805669 0.17863911
-0.073455907 0.046804555 0.17853668
-0.074679583 0.046803445 0.17843416
-0.075904705 0.046802349 0.17833149
-0.077131256 0.046801221 0.17822874
-0.078359239 0.046800066 0.1781258
-0.079588681 0.046798971 0.17802271
-0.080819562 0.046797842 0.1779196
-0.08205191 0.046796717 0.17781636
-0.083285704 0.046795592 0.17771295
-0.084520958 0.046794478 0.17760941
-0.08575765 0.046793338 0.17750576
-0.086995825 0.046792209 0.17740211
-0.08823546 0.046791069 0.17729819
-0.08947657 0.046789944 0.17719418
-0.090719111 0.04678886 0.17709005
-0.09196315 0.04678769 0.1769858
-0.093208671 0.046786547 0.17688149
-0.094455659 0.046785422 0.17677692
-0.095704146 0.046784248 0.17667225
-0.096954092 0.046783123 0.17656752
-0.098205514 0.046781965 0.17646265
-0.099458441 0.046780854 0.17635772
-0.10071286 0.046779715 0.17625257
-0.10196877 0.046778541 0.17614734
-0.10322616 0.046777401 0.17604199
-0.10448503 0.046776272 0.17593649
-0.10574546 0.046775103 0.17583081
-0.10700735 0.046773944 0.17572504
-0.10827076 0.046772815 0.17561921
-0.10953569 0.046771616 0.17551318
-0.11080211 0.046770472 0.17540705
-0.11207003 0.046769332 0.1753009
-0.1133395 0.046768174 0.17519444
-0.11461049 0.046767019 0.1750879
-0.11588299 0.04676583 0.17498133
-0.11715701 0.046764676 0.17487451
-0.11843255 0.046763532 0.17476767
-0.11970967 0.046762314 0.17466062
-0.12098825 0.046761174 0.17455342
-0.12226839 0.046760015 0.17444625
-0.12355009 0.046758842 0.17433879
-0.12483334 0.046757642 0.17423129
-0.12611811 0.046756499 0.17412356
-0.12740442 0.046755329 0.17401579
-0.1286923 0.04675414 0.17390788
-0.12998173 0.046752967 0.17379978
-0.13127269 0.046751782 0.17369166
-0.13256522 0.046750639 0.17358339
-0.13385934 0.04674942 0.17347488
-0.13515501 0.046748251 0.17336634
-0.13645223 0.046747062 0.17325759
-0.13775103 0.046745889 0.17314881
-0.13905141 0.046744671 0.17303979
-0.14035335 0.046743501 0.17293072
-0.14165688 0.046742283 0.17282143
-0.14296199 0.046741094 0.17271203
-0.14426869 0.046739906 0.17260256
-0.14557695 0.046738736 0.17249292
-0.14688681 0.046737533 0.17238319
-0.14819829 0.0467363 0.17227322
0.12031834 0.038155559 0.18145347
0.11925549 0.038240157 0.181476
0.11819224 0.038324762 0.18149859
0.11712855 0.038409423 0.18152121
0.11606447 0.038494099 0.18154377
0.11499996 0.038578805 0.18156642
0.11393503 0.038663555 0.18158898
0.11286969 0.038748365 0.18161163
0.11180393 0.03883319 0.18163425
0.11073776 0.038918015 0.18165687
0.10967118 0.039002899 0.18167949
0.10860417 0.039087813 0.18170223
0.10753674 0.039172761 0.18172482
0.1064689 0.039257746 0.18174753
0.10540064 0.039342768 0.18177018
0.10433196 0.039427813 0.18179286
0.10326287 0.03951288 0.18181556
0.10219336 0.039597984 0.18183833
0.10112344 0.039683141 0.18186098
0.10005307 0.039768334 0.18188372
0.098982304 0.03985355 0.18190646
0.097911105 0.039938807 0.18192923
0.096839517 0.040024076 0.18195194
0.095767491 0.040109381 0.18197474
0.094695024 0.040194709 0.18199748
0.093622148 0.040280119 0.18202028
0.092548884 0.040365536 0.18204311
0.091475151 0.040450975 0.18206587
0.090401031 0.040536471 0.18208864
0.089326471 0.040621966 0.18211141
0.088251501 0.040707521 0.18213433
0.087176114 0.040793121 0.18215713
0.08610028 0.040878735 0.18217996
0.085024044 0.040964406 0.18220285
0.083947383 0.041050069 0.18222573
0.08287029 0.041135769 0.18224853
0.081792779 0.041221522 0.18227142
0.080714852 0.041307345 0.18229434
0.079636499 0.041393153 0.1823172
0.078557715 0.041479006 0.18234012
0.077478521 0.041564886 0.18236303
0.076398887 0.041650772 0.18238595
0.075318821 0.041736741 0.1824089
0.074238345 0.041822746 0.18243182
0.073157452 0.04190876 0.18245479
0.072076112 0.041994825 0.18247774
0.070994362 0.042080902 0.18250066
0.06991218 0.042167004 0.18252364
0.068829574 0.042253189 0.18254665
0.06774655 0.042339381 0.18256968
0.066663086 0.04242561 0.18259269
0.065579198 0.042511847 0.18261573
0.064494871 0.042598132 0.1826387
0.063410141 0.042684462 0.18266177
0.062324967 0.042770822 0.18268478
0.061239384 0.042857226 0.18270785
0.060153347 0.04294366 0.18273094
0.059066903 0.043030124 0.18275398
0.057980012 0.043116633 0.18277699
0.056892708 0.043203156 0.18280011
0.055804964 0.043289706 0.18282318
0.054716799 0.043376338 0.18284634
0.053628203 0.043462947 0.1828694
0.052539166 0.043549608 0.18289253
0.051449709 0.043636307 0.18291569
0.050359827 0.043723054 0.18293884
0.049269501 0.043809805 0.18296197
0.048178747 0.043896638 0.18298516
0.047087569 0.043983474 0.18300825
0.045995958 0.044070356 0.18303147
0.044903915 0.044157237 0.18305469
0.04381144 0.044244174 0.18307781
0.042718519 0.044331133 0.18310106
0.041625179 0.044418205 0.18312424
0.040531408 0.044505235 0.18314749
0.039437201 0.044592313 0.18317074
0.038342562 0.0446794 0.18319398
0.037247483 0.044766583 0.1832172
0.036151975 0.044853728 0.18324044
0.03505604 0.044940952 0.18326375
0.033959661 0.045028236 0.18328702
0.032862846 0.04511549 0.18331027
0.031765603 0.045202829 0.18333361
0.030667922 0.045290172 0.18335688
0.02956981 0.045377575 0.18338022
0.028471261 0.045465022 0.18340352
0.027372263 0.045552455 0.18342686
0.026272837 0.045639962 0.18345019
0.025172988 0.045727499 0.18347362
0.02407269 0.045815047 0.18349692
0.022971956 0.045902632 0.18352023
0.021870786 0.045990299 0.18354365
0.020769177 0.046077956 0.18356708
0.019667134 0.046165641 0.18359047
0.018564649 0.046253402 0.18361387
0.017461726 0.046341162 0.18363729
0.016358366 0.046428982 0.18366072
0.015254567 0.046516832 0.18368417
0.014150336 0.046604723 0.18370765
0.013045662 0.046692617 0.18373102
0.011940533 0.046780556 0.18375456
0.01083498 0.04686854 0.18377793
0.0097289868 0.046956565 0.18380147
0.0086225579 0.047044642 0.18382502
0.0075156782 0.047132712 0.1838485
0.0064083594 0.04722083 0.18387192
0.0053005968 0.047308978 0.1838955
0.0041924021 0.047397185 0.18391901
0.0030837529 0.047485393 0.18394256
0.0019746793 0.047573686 0.18396616
0.000865151 0.047661982 0.1839897
-0.00025133556 0.047730133 0.18398616
-0.001391014 0.047729589 0.18389022
-0.0025319816 0.047729045 0.18379432
-0.0036742527 0.047728501 0.18369812
-0.0048178164 0.047727928 0.18360192
-0.0059626768 0.047727384 0.18350565
-0.0071088481 0.047726825 0.18340918
-0.0082563087 0.047726281 0.18331259
-0.0094050774 0.047725722 0.18321598
-0.010555179 0.047725134 0.18311918
-0.011706562 0.047724579 0.18302235
-0.012859267 0.047724035 0.18292537
-0.01401328 0.047723476 0.18282825
-0.015168623 0.047722947 0.182731
-0.016325288 0.047722358 0.18263364
-0.017483264 0.047721785 0.1825363
-0.01864256 0.047721241 0.1824387
-0.019803189 0.047720667 0.18234113
-0.020965144 0.047720108 0.18224332
-0.02212844 0.047719534 0.18214539
-0.023293056 0.047718991 0.18204743
-0.024459016 0.047718432 0.18194935
-0.025626302 0.047717858 0.18185115
-0.026794937 0.047717299 0.18175283
-0.027964924 0.047716692 0.18165436
-0.029136244 0.047716133 0.18155581
-0.03030891 0.047715575 0.18145713
-0.031482931 0.047715001 0.18135837
-0.032658286 0.047714457 0.18125945
-0.03383502 0.047713868 0.18116045
-0.035013102 0.047713295 0.18106133
-0.036192536 0.047712721 0.18096206
-0.037373327 0.047712162 0.18086272
-0.038555488 0.047711588 0.1807633
-0.039739028 0.047711 0.18066368
-0.040923927 0.047710411 0.18056399
-0.042110186 0.047709849 0.18046421
-0.04329782 0.047709275 0.18036425
-0.044486839 0.047708686 0.1802642
-0.045677233 0.047708113 0.18016401
-0.046868995 0.047707554 0.18006384
-0.048062146 0.04770698 0.17996347
-0.049256686 0.047706403 0.17986289
-0.050452627 0.047705784 0.17976224
-0.051649932 0.047705211 0.17966151
-0.052848645 0.047704652 0.17956069
-0.054048739 0.047704048 0.17945966
-0.055250235 0.047703486 0.1793586
-0.056453146 0.047702897 0.17925736
-0.057657439 0.047702294 0.17915604
-0.058863141 0.04770172 0.17905462
-0.06007025 0.047701161 0.17895305
-0.061278757 0.047700554 0.17885134
-0.062488705 0.047699951 0.17874953
-0.063700028 0.047699377 0.17864761
-0.064912803 0.047698788 0.17854556
-0.066126987 0.047698211 0.17844343
-0.067342587 0.047697622 0.17834115
-0.068559624 0.047697004 0.17823866
-0.069778062 0.047696441 0.17813623
-0.070997953 0.047695838 0.17803359
-0.07221926 0.047695249 0.17793083
-0.07344202 0.047694631 0.17782792
-0.074666195 0.047694072 0.17772496
-0.075891815 0.047693469 0.17762178
-0.077118874 0.047692876 0.17751861
-0.078347392 0.047692288 0.17741516
-0.079577342 0.047691669 0.17731175
-0.080808759 0.047691077 0.17720807
-0.082041599 0.047690488 0.17710432
-0.083275914 0.0476899 0.17700052
-0.084511675 0.047689307 0.1768966
-0.085748918 0.047688674 0.17679241
-0.086987615 0.047688067 0.17668825
-0.088227764 0.047687493 0.17658383
-0.089469381 0.04768689 0.1764794
-0.090712473 0.047686297 0.17637482
-0.09195704 0.047685679 0.1762701
-0.093203083 0.047685072 0.17616522
-0.094450586 0.047684453 0.17606029
-0.095699593 0.047683876 0.17595521
-0.096950084 0.047683258 0.17584997
-0.098202057 0.047682635 0.17574465
-0.099455506 0.047682032 0.17563915
-0.10071044 0.047681428 0.17553362
-0.10196692 0.047680806 0.17542785
-0.10322484 0.047680173 0.17532197
-0.10448428 0.047679581 0.17521608
-0.10574521 0.047678992 0.17510998
-0.10700767 0.04767837 0.17500371
-0.10827161 0.047677748 0.17489737
-0.10953707 0.047677144 0.17479086
-0.11080404 0.047676522 0.17468429
-0.11207253 0.047675904 0.17457756
-0.11334252 0.047675267 0.17447069
-0.11461406 0.047674678 0.17436373
-0.11588712 0.047674026 0.17425659
-0.1171617 0.047673423 0.17414933
-0.1184378 0.047672816 0.17404193
