ply
format ascii 1.0
comment PCL generated
element vertex 1340
property float x
property float y
property float z
element face 0
element camera 0
property float view_px
property float view_py
property float view_pz
property float x_axisx
property float x_axisy
property float x_axisz
property float y_axisx
property float y_axisy
property float y_axisz
property float z_axisx
property float z_axisy
property float z_axisz
property float focal
property float scalex
property float scaley
property float centerx
property float centery
property int viewportx
property int viewporty
property float k1
property float k2
end_header
-0.053352796 -0.1003189 0.13163406
-0.0519825 -0.10049024 0.13110453
-0.050606452 -0.1006623 0.13057283
-0.049224582 -0.10083514 0.13003883
-0.047836851 -0.10100868 0.12950262
-0.046443235 -0.10118295 0.1289641
-0.045043688 -0.10135797 0.12842327
-0.043638181 -0.10153373 0.12788022
-0.042226657 -0.10171025 0.12733477
-0.04080908 -0.10188751 0.12678701
-0.039385449 -0.10206552 0.12623692
-0.037955672 -0.10224433 0.12568441
-0.036519766 -0.1024239 0.12512961
-0.035077635 -0.10260426 0.12457234
-0.033629272 -0.1027854 0.12401274
-0.03217461 -0.10296728 0.12345058
-0.030713642 -0.10315 0.12288609
-0.029246282 -0.1033335 0.12231907
-0.027772529 -0.10351779 0.12174961
-0.026292369 -0.1037029 0.12117767
-0.024805669 -0.10388881 0.1206032
-0.023312455 -0.10407554 0.12002623
-0.021812642 -0.1042631 0.11944667
-0.020306226 -0.10445148 0.11886457
-0.018793151 -0.10464071 0.1182799
-0.017273353 -0.10483074 0.11769268
-0.015746808 -0.10502164 0.11710283
-0.014213466 -0.1052134 0.1165103
-0.012673286 -0.10540601 0.11591518
-0.011126191 -0.10559943 0.11531737
-0.0095721828 -0.10579379 0.11471686
-0.0080111856 -0.105989 0.11411369
-0.0064431857 -0.10618509 0.11350781
-0.0048680925 -0.10638206 0.11289921
-0.0032858469 -0.10657992 0.11228782
-0.0016964491 -0.1067787 0.11167365
-9.9824254e-05 -0.10697836 0.11105672
0.0017888753 -0.10703866 0.10990262
0.0037098951 -0.10709039 0.10870552
0.0056452346 -0.10714246 0.10749942
0.0075951321 -0.10719494 0.10628423
0.0095596472 -0.10724778 0.10506001
0.011538974 -0.10730106 0.10382655
0.013533336 -0.10735475 0.10258368
0.015542853 -0.10740879 0.10133141
0.017567715 -0.10746326 0.10006952
0.019608077 -0.1075182 0.098797977
0.021664143 -0.10757352 0.097516686
0.02373611 -0.10762925 0.0962255
0.025824137 -0.10768547 0.094924212
0.027928377 -0.10774206 0.093612939
0.030049128 -0.10779915 0.092291296
0.032186437 -0.10785663 0.09095937
0.093678549 -0.10279796 0.03644225
0.093678311 -0.10381629 0.038899124
0.093678057 -0.10482553 0.041334182
0.093677819 -0.10582594 0.043747813
0.093677603 -0.10681747 0.046140134
0.093677379 -0.10780042 0.048511654
0.093677133 -0.10877477 0.050862432
0.09367694 -0.10974067 0.053192824
0.093676716 -0.11069821 0.05550313
0.0936765 -0.11164756 0.057793587
0.093676254 -0.11258877 0.060064495
0.093676083 -0.11352193 0.062315911
0.093675889 -0.11444721 0.064548254
0.093675748 -0.11536464 0.066761643
0.093676195 -0.11627413 0.068955541
0.093676098 -0.11717621 0.071131885
0.093675964 -0.11807076 0.073290139
0.093675844 -0.11895787 0.075430423
0.093675703 -0.11983763 0.077552974
0.093675584 -0.12071013 0.079657972
0.093675464 -0.12157553 0.081745863
0.09367536 -0.12243381 0.083816499
0.093675233 -0.12328508 0.085870415
0.09367507 -0.1241295 0.087907672
0.093674995 -0.12496705 0.089928418
0.093674876 -0.1257979 0.091932923
0.093674742 -0.1266221 0.093921363
0.093674622 -0.12743968 0.095893949
0.093674578 -0.12825078 0.09785074
0.093674488 -0.12905546 0.099792182
0.093674451 -0.12985379 0.10171816
0.093674347 -0.13064586 0.10362917
0.093674257 -0.13143171 0.10552511
0.093674183 -0.13221148 0.10740635
0.093674138 -0.13298516 0.10927293
0.093674064 -0.13375287 0.11112505
0.093673974 -0.13451467 0.11296308
0.093673915 -0.13527061 0.11478689
0.093673848 -0.13602082 0.1165967
0.093673773 -0.13676526 0.1183928
0.093673714 -0.13750409 0.12017524
0.093673609 -0.13823734 0.12194431
0.093673535 -0.13896503 0.12369996
0.093673505 -0.13968728 0.12544245
0.093673445 -0.14040415 0.12717199
0.093673371 -0.14111568 0.12888858
0.093673304 -0.14182192 0.13059253
0.093673229 -0.14252295 0.13228381
0.09367314 -0.14321883 0.13396269
0.093673095 -0.14390957 0.13562918
0.093672976 -0.14459528 0.13728359
0.093672954 -0.14527601 0.13892582
0.093672849 -0.14595182 0.14055637
0.09367279 -0.14662269 0.1421749
0.0936727 -0.14728877 0.14378184
0.093672633 -0.14795005 0.14537725
0.093672559 -0.14860661 0.14696136
0.093672514 -0.14925851 0.14853403
0.093672417 -0.14990574 0.15009561
0.093672387 -0.1505484 0.15164611
0.093672283 -0.15118656 0.15318573
0.093672231 -0.15182023 0.15471449
0.093672127 -0.15244943 0.15623257
0.093672097 -0.15307426 0.15774
0.093672 -0.15369473 0.15923703
0.09367197 -0.15431094 0.1607236
0.093671873 -0.15492289 0.16219997
0.094692662 -0.15534155 0.16250762
0.09608838 -0.1556914 0.16239125
0.097487174 -0.15604201 0.16227463
0.098889112 -0.15639344 0.16215777
0.10029423 -0.15674564 0.16204062
0.10170246 -0.15709864 0.1619232
0.10311384 -0.15745243 0.16180557
0.10452837 -0.15780698 0.16168761
0.10594615 -0.15816237 0.16156936
0.10736709 -0.15851852 0.16145095
0.10879122 -0.15887551 0.16133216
0.11021854 -0.15923327 0.16121316
0.1116491 -0.15959187 0.16109395
0.11308289 -0.15995128 0.16097441
0.11451989 -0.16031148 0.16085464
0.1159602 -0.1606725 0.16073456
0.11740377 -0.16103439 0.16061416
0.1188506 -0.16139705 0.16049355
0.1203007 -0.16176052 0.1603727
0.12175414 -0.16212487 0.16025153
0.12321089 -0.16248998 0.16013011
0.12467095 -0.16285601 0.16000834
0.12613435 -0.1632228 0.15988633
0.12760109 -0.16359051 0.15976405
0.12907115 -0.163959 0.15964153
0.13054468 -0.16432834 0.15951866
0.1320215 -0.16469853 0.15939561
0.13350178 -0.16506958 0.15927216
-0.14911011 -0.02635028 0.015332729
-0.14911191 -0.030520588 0.025469184
-0.1484814 -0.032727778 0.03039515
-0.14735973 -0.03349172 0.031472057
-0.14624164 -0.034253191 0.032545626
-0.14512707 -0.035012264 0.033615679
-0.14401606 -0.035768893 0.034682363
-0.14290854 -0.036523134 0.035745621
-0.14188361 -0.037473563 0.037343055
-0.14091086 -0.038533483 0.039242864
-0.13994458 -0.039586291 0.041129917
-0.13898481 -0.040632069 0.043004394
-0.13803141 -0.041670874 0.044866323
-0.13708431 -0.04270279 0.046715915
-0.13614351 -0.043727867 0.048553318
-0.1352089 -0.044746213 0.050378561
-0.080449514 -0.097256757 0.13993487
-0.079185642 -0.09741547 0.13944206
-0.077916615 -0.097574838 0.13894731
-0.076642431 -0.097734831 0.13845053
-0.07536304 -0.097895488 0.13795167
-0.074078456 -0.098056823 0.13745087
-0.072788596 -0.098218799 0.13694799
-0.071493439 -0.098381408 0.13644299
-0.070192978 -0.098544732 0.13593599
-0.068887137 -0.098708712 0.13542685
-0.067575917 -0.098873347 0.13491562
-0.066259287 -0.099038713 0.1344023
-0.064937174 -0.099204734 0.13388678
-0.063609593 -0.099371441 0.13336918
-0.062276497 -0.099538848 0.13284943
-0.060937822 -0.099706955 0.13232753
-0.059593543 -0.099875748 0.13180339
-0.058243662 -0.10004527 0.13127708
-0.056888103 -0.10021549 0.13074857
-0.055526853 -0.10038644 0.13021785
-0.054159865 -0.10055807 0.12968484
-0.052787095 -0.10073049 0.12914965
-0.051408511 -0.10090362 0.12861216
-0.050024118 -0.10107745 0.12807241
-0.048633799 -0.10125205 0.12753034
-0.047237575 -0.10142736 0.12698594
-0.045835391 -0.10160344 0.12643924
-0.044427216 -0.1017803 0.12589025
-0.043013025 -0.10195789 0.12533888
-0.041592721 -0.10213622 0.12478513
-0.040166322 -0.10231538 0.12422898
-0.038733758 -0.10249525 0.12367043
-0.037295021 -0.10267592 0.12310949
-0.035850059 -0.10285739 0.12254614
-0.034398805 -0.10303963 0.12198031
-0.032941233 -0.10322265 0.12141204
-0.031477299 -0.10340649 0.12084126
-0.030006977 -0.10359111 0.12026802
-0.028530229 -0.10377657 0.11969227
-0.027046999 -0.10396286 0.11911398
-0.025557214 -0.1041499 0.11853313
-0.02406087 -0.10433783 0.11794972
-0.022557942 -0.10452656 0.11736378
-0.021048337 -0.10471613 0.11677518
-0.019532014 -0.10490655 0.116184
-0.018008985 -0.10509779 0.11559018
-0.016479146 -0.10528993 0.11499372
-0.014942482 -0.10548286 0.11439461
-0.013398919 -0.10567668 0.11379278
-0.011848427 -0.10587142 0.11318833
-0.010290977 -0.10606699 0.11258104
-0.0087264935 -0.10626343 0.11197108
-0.007154976 -0.1064608 0.1113584
-0.0055763219 -0.10665905 0.11074293
-0.0039904849 -0.10685819 0.11012462
-0.0023974513 -0.10705825 0.10950354
-0.00079711608 -0.10725919 0.10887957
0.00096361351 -0.10738563 0.10796303
0.0028867342 -0.10743875 0.10675538
0.0048242938 -0.10749228 0.10553876
0.0067763524 -0.10754621 0.10431296
0.0087431772 -0.10760055 0.10307789
0.010724888 -0.10765529 0.10183352
0.012721619 -0.10771044 0.10057968
0.014733623 -0.10776605 0.099316269
0.016760977 -0.10782203 0.098043203
0.018803975 -0.10787848 0.096760333
0.020862706 -0.10793535 0.095467538
0.022937341 -0.10799265 0.094164789
0.025028154 -0.10805044 0.092851967
0.027135303 -0.1081086 0.091528744
0.09367837 -0.10499196 0.037701547
0.09367808 -0.1059971 0.040144593
0.093677886 -0.10699336 0.042566001
0.09367767 -0.10798084 0.044966131
0.093677416 -0.10895972 0.047345281
0.093677208 -0.10993004 0.049703628
0.093676955 -0.11089193 0.05204156
0.093676746 -0.11184555 0.054359198
0.09367653 -0.11279092 0.056656957
0.093676321 -0.11372821 0.058935046
0.09367615 -0.11465749 0.061193615
0.093675904 -0.11557887 0.063433081
0.093676038 -0.11649235 0.065653026
0.093676217 -0.11739814 0.067854285
0.093676075 -0.11829643 0.070037484
0.093675971 -0.11918718 0.072202444
0.093675852 -0.12007055 0.074349374
0.09367571 -0.12094658 0.076478601
0.093675591 -0.12181539 0.078590214
0.093675487 -0.12267707 0.080684394
0.093675353 -0.12353174 0.082761556
0.093675219 -0.12437937 0.084821761
0.093675092 -0.12522015 0.086865246
0.093674973 -0.12605415 0.088892162
0.093674868 -0.12688141 0.090902835
0.093674749 -0.12770204 0.092897266
0.09367466 -0.12851612 0.094875813
0.093674645 -0.12932372 0.096838623
0.093674526 -0.13012493 0.098785877
0.093674466 -0.13091983 0.10071775
0.093674377 -0.13170841 0.1026344
0.093674317 -0.13249089 0.10453606
0.093674257 -0.13326725 0.10642293
0.093674168 -0.13403755 0.10829511
0.093674093 -0.13480194 0.11015287
0.093674019 -0.13556039 0.11199617
0.093673974 -0.13631302 0.11382541
0.0936739 -0.13705991 0.11564058
0.09367384 -0.1378011 0.11744198
0.093673721 -0.13853668 0.11922976
0.093673691 -0.13926664 0.12100399
0.093673602 -0.13999113 0.12276474
0.093673542 -0.14071022 0.12451234
0.09367349 -0.1414239 0.1262469
0.093673401 -0.14213228 0.12796849
0.093673341 -0.14283538 0.12967741
0.093673252 -0.14353332 0.13137355
0.093673192 -0.14422606 0.13305727
0.09367311 -0.14491375 0.13472861
0.093673036 -0.1455964 0.1363878
0.093672931 -0.14627407 0.13803479
0.093672886 -0.1469468 0.13966984
0.093672819 -0.1476147 0.14129308
0.093672745 -0.14827777 0.14290464
0.093672641 -0.14893612 0.14450464
0.093672596 -0.14958969 0.14609316
0.093672529 -0.15023862 0.14767033
0.093672439 -0.15088294 0.14923626
0.093672395 -0.15152273 0.15079114
0.093672328 -0.15215798 0.15233508
0.093672238 -0.15278874 0.15386817
0.093672201 -0.1534151 0.15539044
0.093672112 -0.15403709 0.15690216
0.093672052 -0.15465474 0.15840331
0.093671985 -0.15526812 0.15989411
0.09367191 -0.15587726 0.16137451
0.094270095 -0.15637326 0.16216421
0.095664591 -0.15672411 0.16204754
0.097062133 -0.15707564 0.16193062
0.098462857 -0.15742806 0.16181344
0.099866688 -0.15778123 0.16169593
0.10127363 -0.15813518 0.16157821
0.10268379 -0.15848991 0.16146019
0.10409709 -0.15884545 0.16134194
0.10551356 -0.15920179 0.16122344
0.10693321 -0.15955894 0.16110465
0.10835607 -0.15991689 0.16098553
0.10978216 -0.16027565 0.16086623
0.11121142 -0.16063522 0.16074663
0.1126439 -0.1609956 0.1606268
0.11407964 -0.16135681 0.1605067
0.11551864 -0.16171879 0.16038626
0.11696089 -0.16208164 0.16026559
0.11840641 -0.16244528 0.16014466
0.11985519 -0.16280976 0.16002348
0.12130729 -0.16317512 0.15990201
0.12276269 -0.16354124 0.1597802
0.12422145 -0.16390824 0.15965819
0.12568352 -0.16427605 0.15953583
0.12714893 -0.16464467 0.15941319
0.12861766 -0.16501419 0.15929031
0.13008977 -0.1653845 0.15916711
0.13156527 -0.16575573 0.1590437
0.13304415 -0.16612777 0.15891999
-0.14911136 -0.030823864 0.022498876
-0.14884461 -0.034081485 0.030287445
-0.14772354 -0.03484245 0.031363428
-0.14660607 -0.035600968 0.032435894
-0.14549214 -0.03635709 0.033504993
-0.14438172 -0.037110813 0.034570783
-0.14335988 -0.038079642 0.036225289
-0.14238176 -0.039137922 0.038129628
-0.14141016 -0.040189151 0.040021181
-0.14044508 -0.04123332 0.041900098
-0.13948646 -0.042270545 0.043766499
-0.13853414 -0.043300897 0.045620501
-0.13758817 -0.044324398 0.047462165
-0.13664843 -0.045341179 0.04929179
-0.13571486 -0.046351235 0.051109284
-0.08004003 -0.097637601 0.13758546
-0.078769006 -0.097797878 0.13708541
-0.077492781 -0.097958826 0.13658336
-0.076211371 -0.098120399 0.13607922
-0.074924678 -0.098282665 0.13557309
-0.073632717 -0.098445579 0.13506484
-0.072335437 -0.098609164 0.13455451
-0.071032815 -0.098773412 0.13404202
-0.069724828 -0.098938376 0.13352749
-0.068411388 -0.09910398 0.1330108
-0.067092523 -0.099270329 0.13249198
-0.06576819 -0.099437304 0.13197094
-0.064438328 -0.099605024 0.13144782
-0.063102908 -0.099773444 0.13092247
-0.061761908 -0.099942505 0.13039491
-0.060415287 -0.10011236 0.12986517
-0.059063006 -0.10028286 0.1293332
-0.057705048 -0.1004541 0.12879896
-0.056341354 -0.10062607 0.12826252
-0.054971877 -0.10079877 0.12772375
-0.053596634 -0.10097221 0.12718278
-0.05221552 -0.10114636 0.1266394
-0.05082855 -0.10132126 0.1260938
-0.049435668 -0.10149691 0.12554583
-0.048036817 -0.10167333 0.12499556
-0.04663201 -0.10185047 0.12444288
-0.045221169 -0.10202836 0.1238879
-0.043804251 -0.10220704 0.1233305
-0.042381234 -0.10238651 0.12277067
-0.040952064 -0.10256671 0.12220842
-0.039516743 -0.10274774 0.12164384
-0.038075175 -0.1029295 0.12107676
-0.036627337 -0.10311209 0.12050718
-0.035173178 -0.10329548 0.11993513
-0.033712704 -0.10347964 0.11936057
-0.032245819 -0.10366463 0.1187835
-0.030772498 -0.10385041 0.11820391
-0.02929274 -0.10403702 0.11762184
-0.027806442 -0.10422445 0.11703712
-0.026313571 -0.10441272 0.11644983
-0.024814116 -0.1046018 0.11585996
-0.023307998 -0.10479169 0.11526743
-0.021795191 -0.10498249 0.1146723
-0.020275662 -0.10517409 0.11407453
-0.018749384 -0.10536659 0.11347413
-0.017216222 -0.10555992 0.11287102
-0.015676206 -0.10575414 0.11226517
-0.014129275 -0.10594919 0.11165661
-0.012575386 -0.10614516 0.11104533
-0.011014463 -0.106342 0.11043125
-0.0094465083 -0.1065397 0.10981444
-0.0078714304 -0.10673833 0.10919482
-0.0062891995 -0.10693787 0.10857239
-0.0046997722 -0.10713831 0.10794717
-0.0031030877 -0.10733964 0.107319
-0.0014990718 -0.10754192 0.10668802
0.0001338516 -0.10773446 0.10601294
0.002059133 -0.10778905 0.10479468
0.0039988384 -0.10784403 0.10356739
0.0059531615 -0.10789941 0.10233077
0.0079222508 -0.10795527 0.10108492
0.0099062864 -0.10801151 0.099829555
0.011905417 -0.10806815 0.098564565
0.013919909 -0.10812522 0.09728992
0.015949795 -0.10818278 0.096005559
0.017995341 -0.10824081 0.094711244
0.020056713 -0.1082992 0.093406945
0.022134131 -0.10835811 0.092092454
0.024227718 -0.10841744 0.090767801
0.093678124 -0.10717113 0.03895247
0.093677893 -0.10816329 0.041381717
0.093677647 -0.10914671 0.043789655
0.093677446 -0.1101215 0.046176404
0.09367723 -0.11108776 0.04854238
0.093676984 -0.11204566 0.050887764
0.093676761 -0.11299525 0.053212941
0.093676537 -0.11393666 0.055518031
0.093676344 -0.11486999 0.057803333
0.093676142 -0.11579538 0.060069084
0.093675956 -0.11671287 0.062315524
0.093676314 -0.11762242 0.064542204
0.093676239 -0.11852445 0.066750795
0.093676127 -0.11941887 0.068940818
0.093675993 -0.12030586 0.071112543
0.093675844 -0.12118546 0.073266208
0.093675755 -0.12205777 0.075401992
0.093675584 -0.1229229 0.077520192
0.093675494 -0.12378083 0.079620868
0.09367536 -0.12463182 0.081704468
0.093675226 -0.12547581 0.08377102
0.093675122 -0.12631297 0.085820764
0.09367498 -0.12714335 0.087853909
0.093674846 -0.12796706 0.089870691
0.093674801 -0.12878412 0.091871232
0.093674712 -0.12959467 0.093855739
0.093674622 -0.13039874 0.09582451
0.093674578 -0.13119645 0.097777605
0.093674503 -0.13198785 0.099715322
0.093674429 -0.13277303 0.10163775
0.093674354 -0.13355204 0.10354513
0.09367431 -0.134325 0.10543761
0.093674175 -0.13509193 0.10731545
0.093674131 -0.1358529 0.10917869
0.093674056 -0.13660802 0.11102748
0.093673997 -0.13735735 0.11286217
0.093673952 -0.13810092 0.11468276
0.093673848 -0.13883884 0.11648947
0.093673788 -0.13957115 0.11828244
0.093673699 -0.1402979 0.12006187
0.093673646 -0.14101914 0.12182784
0.093673602 -0.14173502 0.12358052
0.093673497 -0.1424455 0.12532014
0.093673453 -0.14315067 0.12704673
0.093673348 -0.14385065 0.12876061
0.093673289 -0.14454542 0.13046175
0.093673177 -0.14523509 0.13215032
0.093673132 -0.14591968 0.13382646
0.093673058 -0.14659923 0.13549039
0.093672998 -0.14727385 0.13714215
0.093672901 -0.14794359 0.13878188
0.093672857 -0.14860843 0.14040974
0.093672767 -0.14926849 0.14202592
0.093672715 -0.14992385 0.14363036
0.093672596 -0.15057446 0.14522347
0.093672566 -0.15122046 0.14680508
0.093672484 -0.15186185 0.14837548
0.093672425 -0.15249866 0.14993474
0.093672335 -0.15313102 0.15148303
0.093672298 -0.15375891 0.15302035
0.093672194 -0.15438242 0.15454695
0.093672134 -0.15500154 0.15606287
0.093672067 -0.15561636 0.15756828
0.093672007 -0.1562269 0.15906313
0.093671955 -0.15683323 0.16054767
0.09384799 -0.15740389 0.16182122
0.095241234 -0.15775563 0.16170421
0.096637569 -0.15810817 0.16158691
0.098037034 -0.15846153 0.1614694
0.099439614 -0.15881564 0.16135159
0.10084537 -0.15917055 0.16123357
0.10225421 -0.15952627 0.16111523
0.10366625 -0.15988278 0.16099668
0.10508144 -0.16024011 0.16087785
0.10649985 -0.16059825 0.16075873
0.10792141 -0.16095713 0.16063935
0.1093462 -0.16131686 0.16051972
0.11077417 -0.16167739 0.16039976
0.11220538 -0.16203879 0.1602796
0.11363983 -0.16240093 0.16015914
0.11507753 -0.16276392 0.16003841
0.11651848 -0.16312772 0.15991744
0.11796273 -0.16349237 0.15979615
0.11941019 -0.16385782 0.15967464
0.12086098 -0.16422413 0.15955278
0.12231506 -0.16459127 0.15943068
0.12377244 -0.16495925 0.15930837
0.12523317 -0.16532806 0.15918568
0.12669726 -0.16569771 0.15906271
0.12816465 -0.16606821 0.15893951
0.12963541 -0.16643955 0.15881604
0.13110954 -0.16681172 0.15869221
0.13258708 -0.16718477 0.15856817
0.13406803 -0.16755871 0.15844375
-0.14911078 -0.031130092 0.019499779
-0.14911243 -0.035163861 0.029450685
-0.14808664 -0.036190331 0.031254977
-0.14696971 -0.036945898 0.03232646
-0.1458564 -0.037699085 0.033394635
-0.14483735 -0.038686182 0.035106629
-0.14385383 -0.039742872 0.037015468
-0.14287694 -0.040792476 0.038911492
-0.14190657 -0.041835066 0.040794939
-0.14094265 -0.042870678 0.04266569
-0.13998517 -0.043899454 0.044524133
-0.13903397 -0.044921357 0.046370208
-0.13808911 -0.045936558 0.048204064
-0.13715045 -0.046945095 0.05002597
-0.13621791 -0.047946975 0.051835835
-0.078348175 -0.098184124 0.13470513
-0.0770647 -0.098346643 0.13419569
-0.075775944 -0.098509856 0.13368413
-0.074481882 -0.098673739 0.13317046
-0.073182464 -0.0988383 0.13265467
-0.071877688 -0.099003538 0.13213679
-0.070567518 -0.099169433 0.13161674
-0.069251895 -0.099336028 0.13109452
-0.067930795 -0.099503331 0.13057017
-0.066604197 -0.099671304 0.13004357
-0.065272056 -0.099839993 0.12951481
-0.063934334 -0.10000945 0.12898383
-0.062591009 -0.10017955 0.1284506
-0.061242025 -0.10035037 0.12791514
-0.059887361 -0.10052191 0.12737742
-0.058526985 -0.1006942 0.12683746
-0.057160847 -0.10086719 0.12629521
-0.055788897 -0.10104092 0.12575066
-0.054411151 -0.10121536 0.12520373
-0.053027503 -0.10139061 0.12465453
-0.05163797 -0.10156659 0.12410295
-0.050242506 -0.10174329 0.12354907
-0.04884107 -0.10192078 0.12299281
-0.047433596 -0.10209899 0.12243414
-0.046020072 -0.102278 0.12187305
-0.044600457 -0.10245781 0.12130958
-0.043174695 -0.10263834 0.1207436
-0.041742753 -0.10281965 0.12017527
-0.040304631 -0.10300179 0.11960447
-0.038860217 -0.10318471 0.1190311
-0.037409533 -0.10336843 0.11845526
-0.035952482 -0.1035529 0.11787695
-0.034489058 -0.10373824 0.11729607
-0.033019237 -0.10392438 0.11671263
-0.031542923 -0.10411132 0.11612666
-0.030060096 -0.10429913 0.11553812
-0.028570758 -0.10448773 0.11494693
-0.027074773 -0.10467717 0.11435312
-0.025572203 -0.10486742 0.11375669
-0.024062926 -0.10505859 0.1131576
-0.022546915 -0.10525055 0.11255586
-0.02102414 -0.1054434 0.11195144
-0.019494554 -0.10563711 0.11134431
-0.017958112 -0.10583168 0.11073446
-0.016414728 -0.10602714 0.11012185
-0.014864386 -0.10622346 0.10950646
-0.013307084 -0.10642067 0.10888833
-0.01174269 -0.10661879 0.10826737
-0.010171248 -0.10681777 0.10764366
-0.0085926373 -0.10701769 0.10701704
-0.0070068161 -0.10721851 0.10638756
-0.0054137376 -0.10742024 0.10575521
-0.0038133878 -0.10762289 0.10512003
-0.0022056769 -0.10782651 0.10448185
-0.00059056008 -0.10803103 0.10384071
0.0012270167 -0.10814121 0.10282338
0.0031688826 -0.10819767 0.10158527
0.0051254109 -0.10825454 0.10033783
0.0070967805 -0.10831188 0.09908092
0.0090831853 -0.10836961 0.097814441
0.01108473 -0.10842784 0.096538305
0.013101621 -0.10848647 0.095252395
0.015134069 -0.10854558 0.09395656
0.017182207 -0.10860511 0.092650622
0.019246232 -0.10866515 0.091334671
0.093678162 -0.10834774 0.037757754
0.093677931 -0.10933571 0.040194929
0.093677714 -0.110315 0.042610586
0.093677454 -0.11128575 0.045005143
0.09367723 -0.11224796 0.047378749
0.093677022 -0.11320177 0.049731642
0.093676813 -0.11414739 0.05206421
0.093676575 -0.11508482 0.054376662
0.093676403 -0.11601418 0.056669146
0.093676157 -0.11693561 0.058942199
0.093675949 -0.11784919 0.061195791
0.093676351 -0.11875487 0.063429445
0.093676202 -0.11965305 0.065645069
0.093676113 -0.12054367 0.067841887
0.093675971 -0.12142685 0.070020497
0.093675822 -0.12230265 0.072180897
0.093675703 -0.1231712 0.074323356
0.093675606 -0.12403253 0.076448053
0.093675472 -0.1248868 0.078555286
0.093675338 -0.12573412 0.080645263
0.093675233 -0.12657443 0.082718134
0.093675084 -0.12740794 0.084774226
0.09367501 -0.12823471 0.086813599
0.093674935 -0.12905478 0.088836491
0.093674839 -0.12986828 0.090843111
0.093674764 -0.13067527 0.092833698
0.09367469 -0.13147582 0.0948084
0.093674615 -0.13227004 0.096767426
0.093674541 -0.13305795 0.098710984
0.093674466 -0.13383964 0.10063922
0.093674377 -0.13461523 0.10255241
0.093674317 -0.13538474 0.10445052
0.093674242 -0.13614829 0.10633391
0.093674183 -0.13690586 0.1082027
0.093674108 -0.13765766 0.11005706
0.093674049 -0.13840362 0.11189717
0.093673959 -0.13914388 0.1137231
0.093673877 -0.1398785 0.11553517
0.093673818 -0.14060751 0.11733341
0.093673758 -0.141331 0.11911803
0.093673714 -0.14204903 0.12088919
0.093673609 -0.14276169 0.12264708
0.09367355 -0.14346896 0.12439173
0.093673445 -0.14417098 0.12612343
0.093673408 -0.14486778 0.12784216
0.093673289 -0.14555942 0.12954828
0.093673229 -0.14624594 0.13124171
0.093673185 -0.1469274 0.13292265
0.093673103 -0.14760387 0.1345914
0.093673043 -0.14827543 0.13624784
0.093672954 -0.14894208 0.13789231
0.093672879 -0.14960393 0.13952488
0.093672812 -0.15026098 0.14114562
0.093672737 -0.15091331 0.14275464
0.093672663 -0.15156095 0.1443522
0.093672611 -0.15220395 0.14593834
0.093672536 -0.1528424 0.14751315
0.093672447 -0.15347631 0.14907685
0.09367238 -0.15410574 0.15062946
0.09367232 -0.15473075 0.15217113
0.093672253 -0.15535137 0.15370202
0.093672194 -0.15596759 0.15522215
0.093672104 -0.15657961 0.15673169
0.093672052 -0.1571873 0.15823078
0.093671992 -0.15779081 0.1597195
0.09367194 -0.15839016 0.16119787
0.094818406 -0.1587861 0.16136122
0.096213475 -0.15913954 0.16124368
0.097611681 -0.15949385 0.16112578
0.099013038 -0.15984893 0.1610077
0.10041752 -0.16020483 0.16088933
0.10182512 -0.1605615 0.16077068
0.10323586 -0.16091897 0.1606518
0.10464986 -0.16127726 0.16053256
0.10606696 -0.16163632 0.16041318
0.10748728 -0.16199622 0.16029349
0.10891075 -0.16235691 0.16017354
0.11033746 -0.16271843 0.16005325
0.11176737 -0.16308075 0.15993282
0.11320051 -0.16344391 0.15981203
0.11463692 -0.1638079 0.15969101
0.11607654 -0.16417269 0.15956965
0.11751948 -0.16453828 0.15944803
0.11896568 -0.16490474 0.15932617
0.12041514 -0.16527204 0.15920404
0.1218679 -0.16564013 0.15908158
0.12332396 -0.1660091 0.15895888
0.12478338 -0.1663789 0.15883589
0.12624612 -0.16674954 0.1587126
0.12771219 -0.16712104 0.15858901
0.12918158 -0.16749336 0.15846524
0.13065435 -0.16786657 0.15834114
0.13213053 -0.16824062 0.15821674
0.13361008 -0.16861553 0.15809205
-0.1491102 -0.03143933 0.016471416
-0.14911202 -0.035486661 0.026530743
-0.14844887 -0.037535306 0.031146675
-0.14733261 -0.038287956 0.032217264
-0.14631604 -0.039293218 0.033987015
-0.14532711 -0.040348276 0.035900414
-0.14434487 -0.04139629 0.037800997
-0.14336923 -0.042437285 0.039688826
-0.14240004 -0.043471333 0.041564107
-0.14143731 -0.04449847 0.043426901
-0.14048095 -0.045518856 0.045277387
-0.13953091 -0.046532493 0.047115594
-0.13858713 -0.047539435 0.048941702
-0.13764954 -0.04853981 0.050755918
-0.13671806 -0.049533609 0.052558213
-0.077923134 -0.098574236 0.13230082
-0.076632284 -0.098738395 0.13178381
-0.075336106 -0.098903216 0.13126472
-0.074034579 -0.099068783 0.13074344
-0.072727636 -0.099234939 0.13022003
-0.071415275 -0.099401847 0.1296944
-0.070097476 -0.09956947 0.12916666
-0.068774149 -0.099737734 0.12863666
-0.067445263 -0.099906728 0.12810448
-0.066110864 -0.10007647 0.12757003
-0.064770818 -0.10024685 0.12703338
-0.063425146 -0.10041799 0.12649441
-0.062073793 -0.10058984 0.1259532
-0.060716759 -0.10076243 0.12540969
-0.059353944 -0.10093573 0.12486389
-0.057985347 -0.10110978 0.12431577
-0.056610949 -0.10128455 0.12376532
-0.055230673 -0.10146009 0.12321249
-0.053844508 -0.10163638 0.12265733
-0.052452412 -0.1018134 0.12209976
-0.051054385 -0.10199121 0.12153992
-0.049650323 -0.1021698 0.12097758
-0.0482402 -0.1023491 0.12041283
-0.046823964 -0.1025292 0.11984563
-0.045401648 -0.10271008 0.11927599
-0.043973137 -0.10289173 0.11870387
-0.042538453 -0.10307422 0.11812928
-0.041097499 -0.1032575 0.11755222
-0.039650269 -0.10344153 0.1169726
-0.038196694 -0.10362639 0.11639041
-0.036736738 -0.10381203 0.11580569
-0.035270374 -0.10399851 0.11521843
-0.033797558 -0.10418583 0.11462855
-0.032318264 -0.10437393 0.11403614
-0.030832399 -0.10456289 0.11344102
-0.029339962 -0.1047527 0.11284333
-0.027840892 -0.10494334 0.11224294
-0.026335163 -0.10513481 0.11163992
-0.024822712 -0.10532716 0.11103413
-0.023303483 -0.10552036 0.11042568
-0.021777473 -0.10571446 0.10981458
-0.020244595 -0.10590938 0.10920063
-0.018704787 -0.10610521 0.10858393
-0.01715808 -0.10630193 0.10796446
-0.015604368 -0.1064995 0.10734224
-0.014043581 -0.10669799 0.10671714
-0.012475744 -0.10689737 0.1060892
-0.01090077 -0.10709771 0.10545847
-0.0093185836 -0.10729887 0.10482481
-0.0077291718 -0.10750102 0.10418826
-0.0061324723 -0.10770409 0.10354877
-0.0045284266 -0.10790808 0.10290632
-0.0029170054 -0.108113 0.10226098
-0.0012981487 -0.1083189 0.1016126
0.0003903406 -0.10849532 0.10084128
0.0023343673 -0.10855327 0.099592328
0.0042931004 -0.10861166 0.098333865
0.0062667951 -0.10867051 0.097065836
0.0082554938 -0.10872976 0.09578824
0.010259437 -0.10878955 0.09450081
0.012278832 -0.1088497 0.093203336
0.014313755 -0.10891038 0.091896027
0.016364472 -0.10897151 0.090578496
0.093677975 -0.11051069 0.039005488
0.093677722 -0.11148587 0.041429043
0.093677536 -0.11245241 0.043831259
0.093677297 -0.11341057 0.046212554
0.093677044 -0.11436036 0.048573077
0.09367685 -0.11530188 0.050913066
0.093676627 -0.11623533 0.053232849
0.093676448 -0.11716073 0.055532694
0.093676217 -0.11807824 0.057812929
0.093676008 -0.11898791 0.060073733
0.093676344 -0.11988966 0.062314481
0.093676254 -0.12078394 0.064536929
0.09367612 -0.12167074 0.066740811
0.093675964 -0.12255005 0.068926156
0.093675874 -0.12342209 0.071093321
0.09367571 -0.12428687 0.073242456
0.093675606 -0.12514444 0.075373739
0.093675479 -0.12599497 0.077487528
0.093675345 -0.12683856 0.079583973
0.093675211 -0.12767521 0.081663251
0.093675122 -0.1285051 0.083725601
0.093675047 -0.12932818 0.085771203
0.093674943 -0.13014466 0.087800264
0.093674883 -0.13095458 0.089812994
0.093674794 -0.131758 0.09180966
0.093674712 -0.13255499 0.093790382
0.093674682 -0.13334568 0.095755309
0.093674608 -0.13413008 0.097704709
0.093674488 -0.1349083 0.09963882
0.093674429 -0.13568044 0.10155767
0.093674354 -0.13644652 0.10346153
0.09367428 -0.13720663 0.10535052
0.093674228 -0.13796085 0.10722488
0.093674138 -0.13870922 0.10908476
0.093674079 -0.13945185 0.11093032
0.093674004 -0.1401888 0.11276174
0.093673944 -0.14092004 0.11457905
0.093673885 -0.14164577 0.11638263
0.093673795 -0.14236599 0.11817253
0.093673706 -0.14308077 0.11994892
0.093673661 -0.14379019 0.12171188
0.093673609 -0.14449425 0.12346157
0.093673475 -0.14519307 0.12519833
0.09367343 -0.1458867 0.12692207
0.093673341 -0.14657518 0.12863311
0.093673281 -0.14725856 0.13033143
0.093673185 -0.14793694 0.13201731
0.09367314 -0.14861032 0.13369077
0.093673036 -0.14927877 0.13535205
0.093672998 -0.14994235 0.13700119
0.093672894 -0.15060115 0.13863841
0.093672834 -0.15125516 0.14026374
0.09367276 -0.15190451 0.14187741
0.093672693 -0.15254915 0.14347947
0.093672618 -0.15318917 0.14507017
0.093672566 -0.15382464 0.14664939
0.093672462 -0.15445563 0.14821753
0.093672432 -0.15508212 0.14977449
0.093672335 -0.15570422 0.15132046
0.093672276 -0.15632193 0.1528556
0.093672201 -0.15693533 0.15438005
0.093672164 -0.15754443 0.15589383
0.093672074 -0.15814936 0.157397
0.093672037 -0.15875003 0.15888983
0.093671933 -0.15934658 0.16037241
0.094395973 -0.15981537 0.16101864
0.095789805 -0.16016982 0.16090071
0.097186834 -0.16052507 0.16078258
0.098586909 -0.16088112 0.16066414
0.099990122 -0.16123793 0.16054544
0.10139646 -0.16159558 0.16042656
0.10280602 -0.16195403 0.16030729
0.10421869 -0.16231324 0.16018781
0.10563458 -0.16267328 0.16006804
0.10705356 -0.16303414 0.15994796
0.1084758 -0.16339582 0.15982774
0.10990123 -0.16375829 0.15970716
0.11132985 -0.16412161 0.15958634
0.11276169 -0.16448575 0.15946528
0.11419678 -0.16485067 0.15934387
0.11563513 -0.16521645 0.15922225
0.11707675 -0.16558307 0.15910035
0.11852164 -0.16595049 0.1589781
0.11996977 -0.16631874 0.15885562
0.12142123 -0.16668785 0.15873286
0.12287596 -0.16705781 0.15860987
0.12433407 -0.16742858 0.15848652
0.12579542 -0.1678002 0.15836293
0.12726019 -0.1681727 0.15823901
0.12872827 -0.16854602 0.15811488
0.1301997 -0.16892023 0.15799043
0.13167453 -0.16929524 0.1578657
0.13315269 -0.16967115 0.15774071
-0.14911143 -0.03581214 0.023581624
-0.14881036 -0.03887745 0.031038672
-0.14779586 -0.039900757 0.032866567
-0.14680159 -0.040954221 0.034784496
-0.145814 -0.042000581 0.03668952
-0.14483304 -0.043039981 0.038581878
-0.14385858 -0.044072423 0.0404616
-0.14289062 -0.04509801 0.042328835
-0.14192909 -0.046116788 0.044183642
-0.14097387 -0.047128838 0.04602623
-0.14002496 -0.048134264 0.047856688
-0.13908227 -0.049133044 0.049675107
-0.13814579 -0.050125312 0.051481724
-0.13721533 -0.051111098 0.05327642
-0.077493772 -0.098968327 0.1298722
-0.076195501 -0.099134125 0.12934759
-0.074891813 -0.099300615 0.12882075
-0.073582716 -0.099467792 0.12829173
-0.072268173 -0.09963572 0.12776056
-0.070948161 -0.099804275 0.12722713
-0.069622576 -0.099973559 0.12669146
-0.068291478 -0.10014359 0.12615356
-0.066954747 -0.1003143 0.12561336
-0.065612391 -0.10048574 0.12507093
-0.064264402 -0.1006579 0.12452617
-0.062910691 -0.10083076 0.12397915
-0.061551228 -0.10100439 0.12342983
-0.060185999 -0.10117876 0.1228781
-0.058814958 -0.10135387 0.12232411
-0.057438076 -0.10152973 0.12176767
-0.056055292 -0.10170633 0.12120891
-0.054666623 -0.10188368 0.12064773
-0.053271949 -0.10206179 0.1200842
-0.0518713 -0.1022407 0.11951819
-0.0504646 -0.10242034 0.11894974
-0.049051825 -0.10260075 0.11837882
-0.047632936 -0.10278197 0.11780548
-0.046207879 -0.10296398 0.11722961
-0.044776626 -0.10314678 0.11665118
-0.043339141 -0.10333038 0.11607036
-0.041895382 -0.10351477 0.11548692
-0.040445279 -0.10369996 0.11490098
-0.038988858 -0.10388596 0.11431241
-0.037525982 -0.10407281 0.11372128
-0.036056671 -0.10426043 0.1131275
-0.034580875 -0.10444891 0.1125311
-0.033098571 -0.10463823 0.11193213
-0.031609681 -0.10482841 0.11133054
-0.030114157 -0.10501938 0.11072615
-0.028611986 -0.10521123 0.11011913
-0.027103068 -0.10540397 0.10950938
-0.02558743 -0.1055975 0.10889688
-0.02406498 -0.10579196 0.10828167
-0.022535725 -0.10598725 0.10766375
-0.020999538 -0.10618347 0.10704294
-0.019456407 -0.10638053 0.10641938
-0.017906317 -0.10657854 0.105793
-0.01634918 -0.10677738 0.10516375
-0.014784948 -0.10697715 0.10453165
-0.013213641 -0.10717785 0.10389671
-0.011635121 -0.10737946 0.10325882
-0.010049358 -0.10758197 0.10261804
-0.0084563242 -0.10778541 0.10197428
-0.0068559749 -0.10798978 0.10132757
-0.0052482486 -0.10819511 0.10067788
-0.0036331024 -0.10840143 0.10002524
-0.0020104756 -0.10860866 0.099369526
-0.00038030901 -0.10881686 0.098710775
0.0014953068 -0.10891082 0.09758836
0.0034562608 -0.10897075 0.096318901
0.005432175 -0.1090311 0.095039696
0.0074232141 -0.10909196 0.093750775
0.0094295712 -0.10915321 0.092451841
0.011451379 -0.10921498 0.091143012
0.093677796 -0.11265918 0.040244997
0.093677573 -0.11362162 0.042654991
0.093677349 -0.11457564 0.045043856
0.093677089 -0.11552135 0.047411948
0.093676858 -0.1164589 0.049759477
0.093676679 -0.11738829 0.052086771
0.093676485 -0.11830966 0.054393917
0.093676277 -0.11922316 0.056681335
0.093676046 -0.12012891 0.058949322
0.093676381 -0.12102676 0.061197132
0.093676232 -0.1219172 0.063426644
0.093676113 -0.12280007 0.065637439
0.093675971 -0.12367558 0.067829669
0.093675837 -0.12454379 0.070003539
0.093675733 -0.12540473 0.07215935
0.093675613 -0.1262586 0.074297309
0.093675494 -0.1271054 0.076417625
0.093675368 -0.1279452 0.078520536
0.093675233 -0.12877819 0.080606222
0.093675174 -0.12960438 0.082674891
0.093675055 -0.13042381 0.084726751
0.093674965 -0.13123669 0.0867621
0.09367492 -0.13204294 0.08878094
0.093674861 -0.13284278 0.090783596
0.093674786 -0.13363622 0.092770368
0.093674712 -0.13442336 0.094741225
0.093674593 -0.13520427 0.096696615
0.093674533 -0.135979 0.098636419
0.093674473 -0.13674764 0.10056105
0.093674429 -0.13751027 0.10247058
0.093674339 -0.13826698 0.10436529
0.09367425 -0.13901778 0.10624525
0.093674175 -0.1397628 0.10811064
0.093674116 -0.14050201 0.10996166
0.093674041 -0.14123563 0.11179847
0.093673997 -0.14196359 0.11362118
0.093673892 -0.14268599 0.11543012
0.093673848 -0.14340295 0.11722523
0.093673751 -0.14411443 0.11900684
0.093673691 -0.14482059 0.12077498
0.093673617 -0.14552146 0.12252983
0.093673557 -0.14621706 0.12427157
0.093673438 -0.14690749 0.12600037
0.093673401 -0.14759278 0.1277163
0.093673296 -0.14827305 0.12941965
0.093673252 -0.14894825 0.13111028
0.093673162 -0.14961855 0.13278863
0.09367308 -0.15028389 0.13445461
0.093673006 -0.15094441 0.13610852
0.093672931 -0.15160011 0.13775039
0.093672879 -0.15225111 0.1393804
0.093672805 -0.15289739 0.14099866
0.09367273 -0.15353906 0.1426053
0.093672678 -0.15417612 0.14420038
0.093672574 -0.15480861 0.14578417
0.093672499 -0.15543662 0.14735666
0.093672447 -0.15606022 0.14891803
0.093672387 -0.15667936 0.15046832
0.093672305 -0.15729421 0.15200779
0.093672231 -0.1579047 0.15353647
0.093672171 -0.15851091 0.15505451
0.093672134 -0.15911296 0.15656188
0.093672015 -0.15971082 0.15805888
0.093671978 -0.16030456 0.15954548
0.093974017 -0.16084354 0.16067642
0.095366679 -0.16119894 0.16055822
0.096762411 -0.16155514 0.1604397
0.098161235 -0.16191214 0.16032103
0.099563211 -0.16226994 0.160202
0.10096835 -0.16262852 0.16008273
0.1023766 -0.1629879 0.15996316
0.10378799 -0.16334809 0.15984344
0.10520261 -0.1637091 0.15972328
0.10662036 -0.16407096 0.15960294
0.10804132 -0.16443358 0.15948233
0.10946546 -0.16479702 0.15936145
0.11089283 -0.1651613 0.15924025
0.11232337 -0.16552638 0.15911886
0.11375717 -0.1658923 0.15899715
0.11519422 -0.16625905 0.15887523
0.11663453 -0.16662663 0.15875298
0.11807808 -0.16699506 0.15863046
0.11952492 -0.16736428 0.15850765
0.12097506 -0.16773435 0.15838453
0.12242849 -0.1681053 0.15826118
0.12388524 -0.16847707 0.15813756
0.12534532 -0.16884969 0.15801361
0.12680869 -0.16922316 0.1578894
0.12827544 -0.16959746 0.15776491
0.12974551 -0.16997266 0.15764013
0.13121898 -0.1703487 0.15751511
0.13269584 -0.17072557 0.15738973
0.13417606 -0.17110336 0.15726411
-0.14911088 -0.036140792 0.020604074
-0.1491126 -0.040055253 0.030480742
-0.14827728 -0.041560616 0.033667654
-0.14728433 -0.042605381 0.035577208
-0.14629801 -0.043643154 0.037474036
-0.14531831 -0.044674002 0.039358199
-0.1443451 -0.045698009 0.041229814
-0.14337835 -0.046715192 0.043089062
-0.142418 -0.047725681 0.044935942
-0.14146394 -0.048729528 0.046770781
-0.14051618 -0.049726758 0.048593462
-0.1395746 -0.050717477 0.050404251
-0.13863917 -0.051701728 0.052203268
-0.1377098 -0.052679598 0.053990573
-0.075754233 -0.099533893 0.12688646
-0.074442998 -0.09970209 0.1263518
-0.073126249 -0.099870972 0.12581494
-0.071804024 -0.10004055 0.12527585
-0.070476197 -0.10021088 0.1247344
-0.069142804 -0.1003819 0.12419075
-0.067803822 -0.10055362 0.12364477
-0.066459164 -0.1007261 0.12309659
-0.065108813 -0.1008993 0.12254599
-0.063752711 -0.10107324 0.12199304
-0.062390853 -0.10124787 0.12143773
-0.061023194 -0.10142328 0.12088013
-0.05964971 -0.10159945 0.12032011
-0.058270354 -0.10177639 0.11975774
-0.056885067 -0.10195407 0.1191929
-0.05549382 -0.10213249 0.11862561
-0.054096598 -0.10231172 0.11805597
-0.052693345 -0.10249171 0.11748379
-0.051284008 -0.10267246 0.11690921
-0.049868561 -0.10285399 0.11633205
-0.048446979 -0.10303637 0.11575246
-0.047019191 -0.10321948 0.1151703
-0.045585193 -0.10340338 0.11458561
-0.04414494 -0.10358813 0.11399838
-0.042698335 -0.10377367 0.11340854
-0.041245401 -0.10396002 0.11281615
-0.039786041 -0.10414721 0.11222115
-0.038320262 -0.10433517 0.11162347
-0.036848016 -0.10452404 0.11102316
-0.03536924 -0.10471371 0.11042026
-0.033883896 -0.10490421 0.10981461
-0.03239195 -0.10509558 0.10920632
-0.030893357 -0.10528779 0.10859528
-0.029388029 -0.10548086 0.10798153
-0.027875967 -0.10567478 0.10736504
-0.026357125 -0.10586961 0.10674575
-0.024831472 -0.10606532 0.10612375
-0.023298921 -0.10626189 0.10549882
-0.021759426 -0.10645933 0.10487115
-0.020212958 -0.10665765 0.10424057
-0.018659456 -0.10685691 0.10360718
-0.017098892 -0.10705706 0.1029709
-0.015531234 -0.10725815 0.10233173
-0.013956395 -0.10746016 0.10168967
-0.012374343 -0.10766308 0.1010446
-0.01078502 -0.10786691 0.10039657
-0.0091883652 -0.10807171 0.099745542
-0.0075843353 -0.10827743 0.09909153
-0.0059729135 -0.10848411 0.098434538
-0.0043539675 -0.10869177 0.097774416
-0.0027275709 -0.10890038 0.097111344
-0.0010935748 -0.10910996 0.096445113
0.00065159763 -0.10927038 0.095573455
0.0026147568 -0.10933179 0.09429279
0.0045929658 -0.10939366 0.09300229
0.0065863295 -0.10945608 0.091701925
0.093677819 -0.11383501 0.039058357
0.093677573 -0.11479332 0.04147616
0.093677357 -0.11574323 0.043872803
0.093677104 -0.11668482 0.046248525
0.09367688 -0.11761829 0.048603535
0.093676686 -0.11854364 0.050938219
0.09367647 -0.11946101 0.053252697
0.093676306 -0.12037054 0.055547386
0.093676068 -0.12127232 0.057822526
0.093676373 -0.12216622 0.060077518
0.093676239 -0.12305272 0.062314063
0.093676135 -0.12393174 0.064531773
0.093676016 -0.12480341 0.066730887
0.093675859 -0.12566774 0.068911552
0.09367574 -0.1265249 0.071074098
0.093675621 -0.12737496 0.073218703
0.093675487 -0.12821797 0.075345635
0.093675382 -0.12905408 0.077455014
0.093675286 -0.12988333 0.079547048
0.093675181 -0.13070582 0.081622154
0.093675107 -0.13152161 0.083680302
0.093675032 -0.13233081 0.085721791
0.093674943 -0.13313349 0.087746829
0.093674898 -0.1339297 0.089755595
0.093674839 -0.13471961 0.091748327
0.093674749 -0.13550317 0.093725234
0.093674645 -0.13628054 0.095686495
0.0936746 -0.13705176 0.09763217
0.093674526 -0.13781694 0.099562615
0.093674466 -0.13857608 0.10147786
0.093674347 -0.13932933 0.10337821
0.093674302 -0.14007673 0.10526377
0.093674228 -0.14081831 0.1071347
0.093674168 -0.14155415 0.10899121
0.093674093 -0.14228439 0.11083347
0.093673989 -0.14300901 0.11266166
0.093673922 -0.14372811 0.11447582
0.093673877 -0.14444174 0.1162762
0.093673803 -0.14514995 0.118063
0.093673699 -0.14585291 0.11983636
0.093673654 -0.14655049 0.12159631
0.093673572 -0.14724289 0.1233432
0.093673512 -0.14793012 0.12507698
0.093673408 -0.14861222 0.12679791
0.093673348 -0.14928928 0.12850603
0.093673244 -0.14996141 0.13020173
0.093673192 -0.15062851 0.13188481
0.093673117 -0.15129079 0.13355562
0.093673058 -0.15194824 0.13521421
0.093672976 -0.15260091 0.13686088
0.093672901 -0.1532488 0.13849545
0.093672827 -0.15389206 0.1401183
0.09367276 -0.15453069 0.1417295
0.09367267 -0.15516476 0.14332917
0.093672626 -0.15579429 0.14491737
0.093672529 -0.15641934 0.14649433
0.093672484 -0.15703994 0.14806008
0.093672387 -0.15765618 0.14961481
0.093672343 -0.15826809 0.15115857
0.093672253 -0.1588757 0.15269154
0.093672201 -0.15947907 0.15421373
0.093672112 -0.16007821 0.15572536
0.093672059 -0.16067323 0.1572265
0.093672 -0.16126414 0.15871727
0.093671948 -0.16185096 0.16019776
0.094943941 -0.16222693 0.16021606
0.096338458 -0.16258408 0.16009727
0.097736031 -0.16294202 0.15997821
0.099136814 -0.16330077 0.15985882
0.10054065 -0.16366033 0.15973929
0.10194764 -0.16402069 0.15961948
0.10335784 -0.16438185 0.15949929
0.10477114 -0.16474381 0.15937886
0.10618763 -0.16510661 0.15925822
0.10760729 -0.16547017 0.15913731
0.10903018 -0.16583461 0.1590161
0.11045624 -0.16619983 0.15889463
0.11188551 -0.16656591 0.15877292
0.11331804 -0.16693278 0.15865085
0.11475379 -0.16730049 0.15852857
0.11619281 -0.16766901 0.15840599
0.11763506 -0.16803844 0.15828311
0.11908061 -0.16840865 0.15816
0.12052942 -0.16877973 0.15803662
0.12198149 -0.1691516 0.15791294
0.12343689 -0.16952439 0.15778896
0.12489565 -0.16989797 0.15766472
0.12635772 -0.17027244 0.15754014
0.12782313 -0.17064777 0.15741533
0.12929189 -0.17102392 0.15729022
0.13076398 -0.17140098 0.15716487
0.13223945 -0.17177886 0.15703917
0.13371836 -0.17215762 0.15691316
-0.14911029 -0.036472633 0.017597646
-0.14911206 -0.040399343 0.027580708
-0.14875585 -0.04321067 0.034464031
-0.14776419 -0.044246834 0.03636533
-0.14677921 -0.045276072 0.038253933
-0.14580077 -0.0462985 0.04012996
-0.1448288 -0.047314104 0.041993558
-0.14386325 -0.048323032 0.043844879
-0.14290404 -0.04932528 0.04568395
-0.14195117 -0.050320931 0.047510922
-0.14100453 -0.0513101 0.049326032
-0.14006405 -0.052292801 0.051129222
-0.13912971 -0.053269126 0.052920729
-0.1382014 -0.054239146 0.054700613
-0.075308464 -0.099937759 0.12440011
-0.073989555 -0.10010765 0.1238575
-0.072665088 -0.10027827 0.12331265
-0.071335047 -0.10044956 0.12276545
-0.069999389 -0.10062163 0.12221596
-0.068658091 -0.10079441 0.12166417
-0.067311116 -0.10096791 0.12111005
-0.065958403 -0.10114216 0.12055352
-0.064599924 -0.10131714 0.11999464
-0.063235693 -0.10149286 0.1194334
-0.061865587 -0.10166935 0.11886975
-0.060489643 -0.10184661 0.11830372
-0.059107788 -0.10202459 0.11773524
-0.057719983 -0.10220336 0.11716425
-0.056326203 -0.10238289 0.11659092
-0.054926388 -0.10256321 0.11601502
-0.053520553 -0.10274432 0.11543667
-0.052108567 -0.10292619 0.1148558
-0.050690453 -0.10310886 0.11427242
-0.049266156 -0.10329232 0.11368641
-0.047835663 -0.10347661 0.11309794
-0.046398908 -0.10366166 0.1125069
-0.044955824 -0.10384756 0.1119132
-0.043506417 -0.10403428 0.11131695
-0.042050593 -0.10422176 0.11071798
-0.040588357 -0.10441009 0.11011642
-0.039119672 -0.10459932 0.10951224
-0.037644442 -0.10478933 0.10890535
-0.036162704 -0.10498022 0.1082958
-0.034674335 -0.10517193 0.10768345
-0.033179305 -0.10536453 0.10706842
-0.031677581 -0.10555794 0.10645059
-0.030169154 -0.10575225 0.10583004
-0.028653918 -0.10594743 0.1052067
-0.027131872 -0.10614349 0.10458052
-0.025602955 -0.10634043 0.10395157
-0.024067111 -0.10653827 0.10331976
-0.022524308 -0.106737 0.10268503
-0.020974472 -0.10693665 0.10204741
-0.019417603 -0.1071372 0.10140699
-0.017853595 -0.10733866 0.10076356
-0.016282439 -0.10754105 0.10011718
-0.014704111 -0.10774437 0.099467903
-0.013118499 -0.10794861 0.098815531
-0.011525569 -0.10815378 0.098160267
-0.0099252937 -0.10835995 0.097501904
-0.0083175823 -0.10856698 0.096840471
-0.0067024361 -0.10877506 0.096175998
-0.0050797649 -0.10898405 0.095508486
-0.0034495536 -0.10919411 0.094837874
-0.0018116983 -0.10940507 0.094164044
-0.00016616905 -0.10961705 0.093487114
0.0017686186 -0.10969485 0.092255384
0.0037490628 -0.10975832 0.090953529
0.09367758 -0.11596751 0.040294886
0.093677364 -0.11691326 0.042699188
0.093677171 -0.11785077 0.04508248
0.093676932 -0.11878011 0.047445118
0.093676731 -0.11970141 0.049787253
0.093676515 -0.12061477 0.052109122
0.093676329 -0.12152028 0.054411173
0.093676195 -0.12241802 0.056693316
0.093676366 -0.12330806 0.058955669
0.093676232 -0.12419064 0.061199248
0.093676127 -0.12506574 0.063423902
0.093676008 -0.12593347 0.06562987
0.093675867 -0.12679398 0.06781742
0.093675718 -0.12764736 0.069986731
0.093675643 -0.12849358 0.072137922
0.093675479 -0.12933281 0.074271441
0.093675405 -0.13016517 0.076387286
0.093675315 -0.13099067 0.078485876
0.093675233 -0.13180946 0.080567241
0.093675174 -0.13262153 0.082631707
0.09367507 -0.13342708 0.084679484
0.093675025 -0.13422613 0.086710691
0.093674906 -0.13501874 0.088725656
0.093674861 -0.13580503 0.090724379
0.093674786 -0.13658506 0.092707306
0.093674697 -0.13735887 0.094674379
0.093674652 -0.13812658 0.096625984
0.093674563 -0.13888824 0.098562181
0.093674459 -0.13964389 0.10048327
0.093674399 -0.14039372 0.10238925
0.093674354 -0.14113761 0.10428038
0.09367428 -0.14187582 0.10615692
0.093674205 -0.14260827 0.1080189
0.093674108 -0.1433351 0.10986665
0.093674064 -0.14405638 0.11170021
0.093673959 -0.14477216 0.11351979
0.09367393 -0.1454825 0.11532545
0.093673855 -0.14618741 0.11711746
0.093673766 -0.14688702 0.11889601
0.093673714 -0.14758138 0.12066111
0.093673594 -0.14827056 0.12241304
0.093673535 -0.14895459 0.12415189
0.09367346 -0.14963351 0.12587777
0.093673393 -0.15030739 0.12759092
0.093673289 -0.15097633 0.12929142
0.093673244 -0.15164034 0.13097942
0.093673155 -0.15229948 0.13265496
0.093673103 -0.15295379 0.13431835
0.093672998 -0.15360337 0.13596964
0.093672924 -0.15424825 0.137609
0.093672872 -0.15488845 0.13923645
0.093672797 -0.15552405 0.14085221
0.093672723 -0.15615508 0.14245641
0.09367267 -0.1567816 0.14404911
0.093672566 -0.15740371 0.14563054
0.093672514 -0.15802138 0.14720064
0.093672425 -0.15863466 0.14875972
0.093672372 -0.15924364 0.15030786
0.093672283 -0.15984833 0.1518451
0.093672223 -0.16044883 0.1533716
0.093672186 -0.16104512 0.15488735
0.093672097 -0.16163726 0.15639272
0.09367203 -0.16222534 0.15788761
0.09367197 -0.1628093 0.15937218
0.094521701 -0.16325383 0.15987426
0.095914938 -0.16361187 0.15975517
0.09731137 -0.16397078 0.15963578
0.09871085 -0.16433053 0.15951613
0.10011344 -0.16469099 0.15939626
0.10151921 -0.16505232 0.15927604
0.10292811 -0.16541441 0.15915564
0.10434018 -0.16577737 0.15903485
0.1057554 -0.16614109 0.15891391
0.10717378 -0.1665056 0.1587927
0.10859536 -0.16687101 0.15867114
0.11002016 -0.16723724 0.15854937
0.11144815 -0.16760425 0.1584273
0.11287938 -0.1679721 0.15830499
0.11431384 -0.16834079 0.15818232
0.11575153 -0.16871031 0.15805942
0.11719252 -0.16908067 0.1579363
0.11863675 -0.16945188 0.15781277
0.12008425 -0.16982391 0.15768906
0.12153505 -0.1701968 0.15756506
0.12298913 -0.17057052 0.15744072
0.12444653 -0.17094514 0.15731612
0.12590727 -0.17132056 0.15719128
0.1273713 -0.17169684 0.15706614
0.12883872 -0.17207401 0.15694076
0.13030948 -0.17245203 0.15681505
