ply
format ascii 1.0
comment PCL generated
element vertex 1342
property float x
property float y
property float z
element face 0
element camera 0
property float view_px
property float view_py
property float view_pz
property float x_axisx
property float x_axisy
property float x_axisz
property float y_axisx
property float y_axisy
property float y_axisz
property float z_axisx
property float z_axisy
property float z_axisz
property float focal
property float scalex
property float scaley
property float centerx
property float centery
property int viewportx
property int viewporty
property float k1
property float k2
end_header
-0.11285798 -0.069495708 0.18171859
-0.11278086 -0.067788966 0.18197605
-0.11270399 -0.066088155 0.18223262
-0.11262738 -0.064393207 0.18248835
-0.11255103 -0.062704101 0.18274319
-0.11247497 -0.061020851 0.18299711
-0.11239916 -0.059343398 0.18325019
-0.1123236 -0.057671696 0.18350238
-0.11224832 -0.056005731 0.1837537
-0.11217327 -0.054345459 0.18400419
-0.11209849 -0.052690849 0.18425384
-0.11202396 -0.051041916 0.18450254
-0.11194968 -0.049398586 0.18475044
-0.11187562 -0.047760829 0.18499756
-0.11150791 -0.045894787 0.18553913
-0.11079448 -0.043763533 0.18642688
-0.11008631 -0.041647926 0.18730804
-0.10938325 -0.039547682 0.18818289
-0.10868536 -0.037462726 0.1890513
-0.1079925 -0.035392836 0.18991348
-0.10730458 -0.033337831 0.1907694
-0.10662164 -0.031297594 0.19161931
-0.10594356 -0.029271975 0.19246298
-0.10527034 -0.02726078 0.19330072
-0.10460187 -0.025263846 0.19413251
-0.10393818 -0.023281097 0.19495839
-0.1032792 -0.021312356 0.19577837
-0.10262477 -0.019357383 0.19659266
-0.10273904 -0.017973199 0.19663924
-0.10310519 -0.016774684 0.19643444
-0.1034711 -0.015576765 0.1962297
-0.10383683 -0.014379546 0.1960251
-0.1042024 -0.013182998 0.19582063
-0.10456772 -0.011987105 0.19561622
-0.10493286 -0.010791883 0.19541195
-0.10529777 -0.0095973164 0.19520783
-0.10566249 -0.0084033906 0.19500378
-0.106027 -0.0072101504 0.19479984
-0.10639134 -0.0060175806 0.19459599
-0.10675545 -0.0048256516 0.19439235
-0.10711934 -0.0036343634 0.19418874
-0.10748307 -0.0024437606 0.19398531
-0.10784657 -0.0012537986 0.19378191
-0.10820985 -6.4492226e-05 0.19357875
-0.10857296 0.0011241287 0.19337559
-0.10893584 0.0023121536 0.19317263
-0.10929856 0.0034994632 0.19296965
-0.10966104 0.004686147 0.1927669
-0.11002335 0.0058721602 0.19256416
-0.11038544 0.0070575327 0.19236165
-0.11074734 0.0082422346 0.19215918
-0.11110903 0.0094262958 0.19195685
-0.11147054 0.010609716 0.19175464
-0.11183185 0.011792451 0.19155246
-0.11219294 0.012974575 0.19135049
-0.11255385 0.014155984 0.19114858
-0.11291455 0.015336812 0.19094679
-0.11327506 0.016516954 0.19074515
-0.11363536 0.017696455 0.19054359
-0.11399544 0.018875301 0.19034213
-0.11435536 0.020053506 0.19014078
-0.11471507 0.021231055 0.18993953
-0.1150746 0.022407964 0.18973848
-0.11543389 0.023584232 0.18953744
-0.11579303 0.024759829 0.18933651
-0.11615196 0.025934801 0.18913579
-0.1165107 0.027109101 0.18893507
-0.11686921 0.028282791 0.18873447
-0.11722752 0.029455826 0.18853402
-0.118067 0.030364051 0.18786317
-0.11900207 0.031223401 0.18709925
-0.11993987 0.032085314 0.18633306
-0.12088045 0.032949746 0.18556461
-0.12182384 0.033816725 0.18479383
-0.12276998 0.034686282 0.18402085
-0.12371892 0.035558417 0.18324554
-0.12467074 0.036433101 0.18246791
-0.12562537 0.037310392 0.18168804
-0.12658282 0.03819032 0.18090576
-0.12754317 0.039072827 0.18012115
-0.12850633 0.039957955 0.17933425
-0.12947245 0.040845767 0.17854494
-0.13044138 0.041736215 0.17775333
-0.13141324 0.042629331 0.17695934
-0.13238804 0.04352513 0.17616293
-0.13336574 0.044423625 0.17536411
-0.13434638 0.045324847 0.1745629
-0.13533001 0.046228737 0.17375931
-0.13631657 0.047135383 0.17295328
-0.13730612 0.048044786 0.17214477
-0.13829869 0.048956871 0.17133391
-0.13929425 0.049871817 0.17052048
-0.14029288 0.050789475 0.16970465
-0.14129449 0.05170995 0.16888627
-0.14229915 0.052633241 0.16806549
-0.14330691 0.053559318 0.16724217
-0.14431775 0.054488257 0.16641626
-0.14533164 0.055420056 0.16558799
-0.14634869 0.056354657 0.16475704
-0.14736883 0.057292163 0.16392356
-0.14839214 0.058232516 0.16308749
-0.13333181 -0.1952114 0.14718908
-0.13187663 -0.19141825 0.14895082
-0.1304384 -0.18766919 0.15069211
-0.12901744 -0.18396424 0.15241253
-0.12761319 -0.18030229 0.15411285
-0.12689348 -0.17744927 0.1550926
-0.12622431 -0.17466913 0.15601769
-0.12555993 -0.17190892 0.1569362
-0.1249003 -0.16916843 0.15784812
-0.12424539 -0.16644749 0.15875345
-0.12359507 -0.16374582 0.15965247
-0.12294938 -0.16106328 0.16054511
-0.12230827 -0.15839966 0.1614314
-0.12167159 -0.1557547 0.16231155
-0.12103944 -0.1531283 0.16318551
-0.12041168 -0.15052019 0.16405329
-0.11978827 -0.1479302 0.16491514
-0.11916919 -0.14535818 0.16577101
-0.11855422 -0.14280373 0.16662106
-0.11794318 -0.14026651 0.16746569
-0.11733634 -0.13774672 0.16830447
-0.11673367 -0.13524416 0.16913745
-0.11613509 -0.13275862 0.16996479
-0.11554053 -0.13028993 0.17078656
-0.11495001 -0.12783796 0.17160276
-0.11436351 -0.12540253 0.17241344
-0.11378092 -0.12298347 0.17321873
-0.11321129 -0.12058982 0.17400923
-0.11312955 -0.11870363 0.17429382
-0.11304809 -0.11682431 0.17457741
-0.11296698 -0.11495186 0.17485991
-0.11288609 -0.11308615 0.17514148
-0.11280558 -0.11122723 0.17542189
-0.11272529 -0.109375 0.17570141
-0.11264533 -0.10752948 0.17597988
-0.11256562 -0.10569059 0.17625734
-0.11248627 -0.10385837 0.17653376
-0.11240716 -0.10203268 0.17680925
-0.11232832 -0.1002135 0.17708385
-0.11224977 -0.098400854 0.17735732
-0.11217152 -0.096594661 0.17762986
-0.11209353 -0.094794936 0.17790136
-0.11201582 -0.093001597 0.17817199
-0.11193838 -0.091214575 0.17844161
-0.11186118 -0.089433953 0.17871031
-0.11178431 -0.087659605 0.17897803
-0.11170772 -0.085891545 0.17924479
-0.1116313 -0.084129646 0.17951065
-0.11155533 -0.082374059 0.17977557
-0.11147953 -0.080624603 0.1800395
-0.11140407 -0.078881353 0.18030247
-0.11132884 -0.077144146 0.18056458
-0.11125384 -0.075412981 0.18082577
-0.11117917 -0.073687941 0.18108597
-0.11110471 -0.071968839 0.18134531
-0.11103056 -0.070255771 0.18160373
-0.11095663 -0.068548605 0.18186128
-0.11088292 -0.066847324 0.18211797
-0.11080951 -0.065151975 0.18237373
-0.11073638 -0.063462496 0.18262857
-0.11066348 -0.061778814 0.18288258
-0.11059084 -0.06010092 0.18313569
-0.11051837 -0.058428742 0.18338802
-0.11044623 -0.056762353 0.18363938
-0.11037432 -0.05510167 0.1838899
-0.11030265 -0.053446651 0.18413961
-0.11023122 -0.051797256 0.1843884
-0.11015999 -0.050153464 0.18463644
-0.11008909 -0.04851532 0.18488356
-0.10981508 -0.046719566 0.18533528
-0.10910808 -0.044585854 0.18622357
-0.10840622 -0.042467713 0.18710524
-0.10770945 -0.040364966 0.18798062
-0.1070178 -0.038277537 0.18884957
-0.10633107 -0.036205158 0.18971235
-0.10564934 -0.034147739 0.19056877
-0.1049725 -0.032105088 0.19141912
-0.10430049 -0.03007701 0.19226339
-0.10363327 -0.028063416 0.19310164
-0.10297077 -0.026064128 0.19393396
-0.10231299 -0.02407898 0.19476029
-0.10165988 -0.02210784 0.19558084
-0.10101131 -0.020150542 0.19639558
-0.1007225 -0.018468171 0.19684845
-0.10108864 -0.01727131 0.19664389
-0.10145459 -0.016075104 0.19643942
-0.10182036 -0.014879584 0.19623506
-0.10218589 -0.013684705 0.19603074
-0.10255119 -0.012490451 0.19582668
-0.10291634 -0.011296898 0.19562268
-0.10328126 -0.010104001 0.19541875
-0.10364599 -0.0089117736 0.19521502
-0.10401052 -0.0077202022 0.19501129
-0.10437487 -0.0065292716 0.19480771
-0.10473896 -0.0053389966 0.19460431
-0.10510288 -0.0041493922 0.19440091
-0.10546659 -0.0029604286 0.19419774
-0.1058301 -0.0017721355 0.19399464
-0.10619339 -0.00058446825 0.19379163
-0.10655653 0.00060248375 0.19358876
-0.10691941 0.0017888397 0.19338605
-0.10728211 0.0029745251 0.19318336
-0.10764462 0.0041595399 0.19298077
-0.10800694 0.0053438991 0.19277838
-0.10836904 0.0065276474 0.19257608
-0.10873093 0.0077107102 0.19237384
-0.10909265 0.0088931322 0.19217175
-0.10945416 0.010074899 0.19196978
-0.10981548 0.011255994 0.19176787
-0.11017656 0.012436479 0.19156611
-0.1105375 0.013616279 0.1913645
-0.11089823 0.014795452 0.19116294
-0.11125876 0.015973955 0.19096148
-0.11161906 0.017151833 0.1907602
-0.11197916 0.018329084 0.190559
-0.1123391 0.01950562 0.19035789
-0.11269881 0.020681575 0.19015697
-0.11305836 0.021856859 0.18995604
-0.11341766 0.023031503 0.18975529
-0.1137768 0.024205491 0.18955454
-0.11413573 0.025378853 0.18935403
-0.11449446 0.02655156 0.18915364
-0.11485302 0.02772361 0.18895331
-0.11521134 0.028895065 0.1887531
-0.11574946 0.029966131 0.1883761
-0.11667888 0.030822843 0.1876148
-0.11761102 0.031682089 0.18685111
-0.11854587 0.032543853 0.18608534
-0.11948352 0.03340815 0.18531722
-0.12042393 0.03427498 0.18454695
-0.1213671 0.035144374 0.18377429
-0.12231308 0.036016345 0.18299934
-0.1232619 0.036890894 0.18222213
-0.1242135 0.037768021 0.18144259
-0.125168 0.038647726 0.18066067
-0.12612531 0.039530084 0.17987654
-0.12708542 0.040415078 0.1790899
-0.12804846 0.041302696 0.1783011
-0.12901434 0.042192951 0.1775099
-0.1299831 0.043085918 0.17671627
-0.13095483 0.043981507 0.17592022
-0.13192943 0.044879824 0.17512187
-0.13290697 0.045780852 0.17432109
-0.13388747 0.046684548 0.17351788
-0.1348709 0.047591001 0.1727123
-0.13585734 0.048500165 0.17190418
-0.13684669 0.049412131 0.17109367
-0.13783908 0.050326824 0.17028075
-0.13883451 0.051244289 0.16946536
-0.13983294 0.052164555 0.16864747
-0.14083441 0.053087622 0.16782707
-0.14183892 0.054013491 0.1670042
-0.14284649 0.054942206 0.16617885
-0.1438572 0.055873737 0.16535085
-0.14487097 0.056808129 0.16452044
-0.14588782 0.057745412 0.16368744
-0.14690784 0.058685526 0.1628519
-0.14793094 0.059628576 0.1620138
-0.14895721 0.060574517 0.16117305
-0.13317221 -0.2004845 0.14473987
-0.13170813 -0.19663459 0.14652807
-0.1302612 -0.19282976 0.14829516
-0.12883106 -0.18906914 0.15004185
-0.12741834 -0.18535306 0.15176737
-0.12602204 -0.1816799 0.15347278
-0.12503843 -0.17850776 0.15473998
-0.12437588 -0.17572361 0.15566647
-0.12371811 -0.17295943 0.15658626
-0.12306498 -0.17021497 0.15749949
-0.12241654 -0.16749011 0.15840623
-0.1217727 -0.16478455 0.15930647
-0.1211334 -0.16209812 0.16020042
-0.12049863 -0.15943065 0.16108799
-0.11986834 -0.15678197 0.16196936
-0.11924239 -0.15415174 0.16284466
-0.11862085 -0.15153989 0.16371366
-0.11800364 -0.1489462 0.16457677
-0.11739069 -0.14637044 0.16543388
-0.1167816 -0.14381211 0.16628537
-0.11617664 -0.14127126 0.16713116
-0.11557579 -0.13874786 0.1679711
-0.11497912 -0.13624173 0.16880536
-0.11438642 -0.13375258 0.16963387
-0.11379781 -0.13128039 0.17045686
-0.11321315 -0.12882492 0.17127421
-0.11263246 -0.12638599 0.17208606
-0.11205566 -0.12396345 0.17289245
-0.11148272 -0.12155715 0.17369342
-0.11121293 -0.11947336 0.17417756
-0.11113502 -0.1175937 0.17446125
-0.11105738 -0.11572085 0.1747438
-0.11098006 -0.1138548 0.17502537
-0.11090302 -0.11199553 0.1753059
-0.11082622 -0.11014291 0.17558548
-0.11074976 -0.10829705 0.17586389
-0.11067349 -0.10645776 0.17614147
-0.11059755 -0.10462513 0.17641804
-0.11052188 -0.10279906 0.17669353
-0.11044645 -0.10097951 0.17696813
-0.11037132 -0.099166475 0.17724168
-0.11029643 -0.097359903 0.17751426
-0.1102218 -0.095559746 0.17778587
-0.11014748 -0.093766026 0.17805657
-0.11007342 -0.091978662 0.17832622
-0.10999956 -0.090197593 0.17859501
-0.10992602 -0.08842285 0.17886278
-0.10985274 -0.086654395 0.17912966
-0.10977977 -0.084892191 0.17939544
-0.10970701 -0.083136179 0.17966035
-0.10963455 -0.08138635 0.17992434
-0.10956234 -0.079642653 0.1801874
-0.10949038 -0.077905051 0.18044958
-0.10941865 -0.076173507 0.18071079
-0.10934715 -0.074447989 0.18097115
-0.10927603 -0.072728544 0.18123043
-0.10920499 -0.071014985 0.18148902
-0.10913429 -0.069307432 0.18174663
-0.10906383 -0.067605764 0.18200335
-0.10899361 -0.065909982 0.18225911
-0.10892361 -0.064220056 0.1825141
-0.10885385 -0.062535934 0.1827682
-0.10878433 -0.060857601 0.18302143
-0.10871507 -0.059185043 0.18327367
-0.10864602 -0.057518214 0.18352512
-0.10857725 -0.055857092 0.18377575
-0.10850863 -0.054201603 0.18402556
-0.1084403 -0.052551784 0.18427438
-0.10837221 -0.050907597 0.18452245
-0.10830439 -0.049268991 0.18476966
-0.10812309 -0.047543973 0.18513155
-0.10742245 -0.045407757 0.18602031
-0.1067269 -0.043287084 0.18690261
-0.10603643 -0.041181892 0.18777844
-0.105351 -0.039091974 0.18864799
-0.10467046 -0.037017137 0.18951124
-0.10399489 -0.03495726 0.19036824
-0.10332411 -0.032912165 0.19121912
-0.10265817 -0.030881703 0.19206384
-0.10199696 -0.028865695 0.19290262
-0.10134043 -0.026864007 0.19373542
-0.10068859 -0.024876505 0.19456229
-0.10004131 -0.02290298 0.19538337
-0.099398576 -0.020943359 0.19619864
-0.098760366 -0.018997446 0.19700822
-0.099078253 -0.017766461 0.19685259
-0.099444211 -0.016571924 0.19664845
-0.099809907 -0.015378058 0.19644436
-0.10017547 -0.014184833 0.19624034
-0.10054079 -0.012992293 0.19603646
-0.10090593 -0.011800408 0.19583273
-0.10127087 -0.01060918 0.19562906
-0.10163561 -0.0094185919 0.19542551
-0.10200012 -0.0082286745 0.19522211
-0.10236445 -0.0070394129 0.1950188
-0.10272859 -0.0058508068 0.19481555
-0.10309251 -0.0046628565 0.19461247
-0.10345624 -0.0034755766 0.19440949
-0.10381974 -0.0022889227 0.19420668
-0.10418305 -0.0011029243 0.19400388
-0.10454619 8.2403421e-05 0.19380128
-0.10490907 0.0012671053 0.19359881
-0.1052718 0.0024511367 0.19339636
-0.10563431 0.0036345273 0.19319403
-0.10599664 0.0048172325 0.19299182
-0.10635872 0.0059993267 0.19278982
-0.10672064 0.0071807653 0.19258782
-0.10708237 0.0083615482 0.192386
-0.10744385 0.0095416903 0.19218427
-0.10780519 0.010721147 0.1919826
-0.10816631 0.011899993 0.1917811
-0.10852724 0.013078183 0.1915797
-0.10888797 0.014255732 0.19137841
-0.10924845 0.015432641 0.19117731
-0.10960882 0.016608864 0.19097617
-0.10996892 0.017784461 0.19077528
-0.11032887 0.018959433 0.19057432
-0.11068858 0.020133749 0.1903736
-0.11104815 0.021307409 0.19017297
-0.1114075 0.022480428 0.18997246
-0.11176664 0.023652807 0.18977201
-0.11212558 0.024824575 0.18957171
-0.11248431 0.025995672 0.18937156
-0.11284287 0.027166113 0.1891714
-0.11320122 0.028335944 0.18897146
-0.1135594 0.029505119 0.18877158
-0.11436684 0.030424237 0.18812782
-0.11529336 0.031280831 0.18736684
-0.11622259 0.032139897 0.18660361
-0.11715453 0.033001512 0.18583816
-0.11808926 0.033865646 0.18507043
-0.11902669 0.034732357 0.18430045
-0.11996691 0.035601601 0.18352816
-0.12090994 0.036473379 0.18275356
-0.12185575 0.037347779 0.18197677
-0.12280436 0.038224757 0.18119764
-0.12375583 0.039104298 0.18041608
-0.12471013 0.039986476 0.17963234
-0.12566723 0.040871307 0.17884618
-0.12662724 0.041758731 0.17805767
-0.12759006 0.042648852 0.17726681
-0.12855574 0.04354161 0.17647365
-0.12952439 0.044437036 0.17567807
-0.13049591 0.045335159 0.17488006
-0.13147035 0.046235964 0.17407972
-0.13244772 0.047139481 0.17327693
-0.13342801 0.048045754 0.17247176
-0.13441132 0.04895471 0.17166412
-0.13539754 0.049866468 0.17085406
-0.13638677 0.050780952 0.17004156
-0.13737901 0.051698208 0.16922656
-0.13837425 0.052618265 0.16840911
-0.13937254 0.053541079 0.16758916
-0.14037383 0.054466754 0.16676673
-0.14137818 0.055395246 0.1659418
-0.14238562 0.056326568 0.16511428
-0.14339614 0.057260707 0.16428435
-0.14440973 0.058197767 0.16345176
-0.14542648 0.059137642 0.1626167
-0.14644629 0.060080454 0.16177905
-0.14746925 0.061026141 0.16093877
-0.14849542 0.061974734 0.16009593
-0.13301042 -0.20583005 0.14225709
-0.13153732 -0.20192218 0.14407206
-0.13008156 -0.19806032 0.14586574
-0.12864284 -0.1942437 0.14763832
-0.12722091 -0.1904716 0.14939037
-0.12581643 -0.18674432 0.15112096
-0.12442812 -0.18305993 0.15283167
-0.12318313 -0.17956638 0.15438744
-0.12252721 -0.17677821 0.15531522
-0.12187602 -0.17401005 0.15623632
-0.12122944 -0.17126167 0.15715089
-0.1205875 -0.16853286 0.15805888
-0.1199501 -0.16582343 0.15896046
-0.1193172 -0.16313317 0.15985563
-0.11868878 -0.16046184 0.16074452
-0.11806477 -0.15780932 0.16162717
-0.11744516 -0.15517537 0.16250363
-0.11682978 -0.15255973 0.16337401
-0.11621878 -0.14996231 0.1642383
-0.11561185 -0.14738277 0.1650967
-0.11500876 -0.14482066 0.16594958
-0.11440986 -0.1422762 0.16679659
-0.11381505 -0.13974917 0.16763774
-0.11322433 -0.1372394 0.16847321
-0.11263758 -0.13474672 0.16930294
-0.11205485 -0.13227099 0.17012703
-0.11147605 -0.12981199 0.17094555
-0.11090118 -0.12736958 0.17175856
-0.11033018 -0.12494361 0.17256606
-0.10976297 -0.12253384 0.1733683
-0.10929847 -0.12024225 0.17406151
-0.10922409 -0.11836224 0.17434511
-0.10914994 -0.11648901 0.17462781
-0.10907608 -0.11462258 0.17490947
-0.10900257 -0.11276297 0.17519
-0.10892928 -0.11091003 0.17546958
-0.10885619 -0.10906369 0.1757482
-0.10878341 -0.10722406 0.17602581
-0.1087109 -0.10539104 0.17630237
-0.10863864 -0.10356461 0.17657793
-0.10856663 -0.10174467 0.17685258
-0.10849488 -0.099931255 0.1771262
-0.10842337 -0.098124288 0.17739883
-0.10835215 -0.096323773 0.17767048
-0.10828118 -0.094529636 0.17794126
-0.10821044 -0.092741862 0.17821097
-0.10813996 -0.090960436 0.17847976
-0.10806981 -0.08918535 0.17874756
-0.10799983 -0.0874165 0.17901441
-0.10793015 -0.085653894 0.17928034
-0.10786071 -0.083897494 0.17954534
-0.10779152 -0.082147248 0.17980936
-0.10772255 -0.080403127 0.18007255
-0.10765385 -0.078665115 0.18033472
-0.10758538 -0.076933168 0.18059602
-0.10751714 -0.075207263 0.18085638
-0.10744919 -0.073487371 0.18111587
-0.10738141 -0.071773455 0.18137446
-0.1073139 -0.070065461 0.18163201
-0.10724663 -0.068363383 0.18188882
-0.10717956 -0.066667154 0.18214473
-0.10711271 -0.064976811 0.18239981
-0.10704611 -0.06329228 0.18265393
-0.10697976 -0.061613537 0.18290716
-0.10691362 -0.059940539 0.18315953
-0.10684769 -0.058273256 0.18341115
-0.106782 -0.056611717 0.18366176
-0.10671653 -0.054955825 0.18391153
-0.10665128 -0.053305566 0.1841605
-0.10658629 -0.05166094 0.18440866
-0.10652144 -0.050021872 0.18465593
-0.10643189 -0.048367992 0.18492794
-0.10573764 -0.046229258 0.18581718
-0.10504838 -0.044106096 0.18670008
-0.1043642 -0.041998401 0.18757647
-0.10368499 -0.039906025 0.1884464
-0.10301064 -0.037828729 0.18931028
-0.10234119 -0.035766438 0.19016775
-0.10167649 -0.033718869 0.19101921
-0.10101662 -0.031686023 0.19186443
-0.10036139 -0.029667631 0.19270372
-0.09971083 -0.027663544 0.19353706
-0.099064901 -0.025673658 0.1943644
-0.098423459 -0.023697764 0.19518602
-0.097786583 -0.021735787 0.19600186
-0.097154163 -0.019787535 0.19681188
-0.097073905 -0.018260077 0.19706082
-0.09743984 -0.017067209 0.19685686
-0.097805604 -0.015875027 0.19665298
-0.09817113 -0.014683485 0.19644922
-0.098536484 -0.013492599 0.19624564
-0.098901585 -0.012302369 0.19604215
-0.099266529 -0.011112794 0.19583875
-0.099631265 -0.0099238753 0.19563541
-0.099995822 -0.0087356269 0.19543228
-0.10036015 -0.0075480193 0.1952292
-0.10072427 -0.0063610971 0.19502625
-0.10108818 -0.0051747859 0.19482341
-0.10145193 -0.0039891452 0.19462067
-0.10181544 -0.0028041601 0.19441801
-0.10217877 -0.0016198009 0.1942156
-0.1025419 -0.00043612719 0.19401312
-0.1029048 0.00074693561 0.19381091
-0.10326754 0.001929298 0.19360873
-0.10363004 0.0031110793 0.19340667
-0.10399232 0.0042921901 0.19320479
-0.10435446 0.0054726005 0.19300291
-0.10471638 0.0066524148 0.19280127
-0.10507811 0.0078315586 0.19259965
-0.10543965 0.0090100765 0.1923981
-0.10580096 0.010187924 0.1921967
-0.1061621 0.011365131 0.19199544
-0.10652303 0.012541682 0.19179431
-0.10688376 0.013717622 0.19159326
-0.10724426 0.014892891 0.19139233
-0.10760461 0.01606752 0.19119146
-0.10796474 0.017241508 0.19099078
-0.10832468 0.018414855 0.19079018
-0.10868444 0.019587547 0.19058964
-0.10904399 0.020759612 0.19038922
-0.10940333 0.021931022 0.19018897
-0.10976246 0.023101822 0.18998879
-0.11012143 0.02427195 0.18978873
-0.11048019 0.025441438 0.18958879
-0.11083878 0.0266103 0.18938893
-0.11119711 0.027778521 0.18918923
-0.11155532 0.028946072 0.18898955
-0.11206595 0.030027524 0.18863836
-0.11298689 0.030881464 0.18787998
-0.1139105 0.031737909 0.18711936
-0.11483683 0.032596827 0.18635651
-0.11576585 0.033458292 0.18559146
-0.11669762 0.034322277 0.18482405
-0.11763214 0.035188839 0.18405443
-0.11856941 0.036057904 0.18328255
-0.11950946 0.036929563 0.18250835
-0.12045228 0.037803799 0.18173191
-0.12139791 0.038680613 0.18095315
-0.12234639 0.039560005 0.18017203
-0.12329765 0.040442005 0.17938855
-0.12425175 0.041326657 0.17860287
-0.12520871 0.042213902 0.17781469
-0.12616849 0.043103829 0.17702433
-0.12713118 0.043996423 0.1762315
-0.12809671 0.044891655 0.17543632
-0.12906516 0.045789585 0.17463884
-0.1300365 0.046690211 0.17383882
-0.13101077 0.047593549 0.17303652
-0.13198794 0.048499614 0.17223173
-0.13296813 0.049408376 0.17142448
-0.13395122 0.05031991 0.17061484
-0.13493732 0.051234171 0.16980273
-0.13592637 0.052151233 0.1689882
-0.13691843 0.053071082 0.1681712
-0.13791351 0.053993702 0.16735166
-0.1389116 0.054919139 0.16652974
-0.13991274 0.055847391 0.1657052
-0.14091694 0.056778476 0.16487816
-0.14192422 0.057712406 0.1640487
-0.14293456 0.058649212 0.16321659
-0.14394805 0.059588864 0.16238195
-0.14496459 0.060531408 0.16154483
-0.14598428 0.061476856 0.16070503
-0.14700708 0.062425211 0.15986267
-0.14803305 0.063376501 0.15901777
-0.14906226 0.064330697 0.15817019
-0.1343466 -0.21526456 0.13787508
-0.13284644 -0.21124953 0.13973981
-0.13136417 -0.20728242 0.14158237
-0.12989946 -0.20336238 0.14340311
-0.12845208 -0.1994886 0.14520234
-0.12702167 -0.19566026 0.1469804
-0.12560806 -0.19187671 0.14873761
-0.12421169 -0.18813804 0.15047351
-0.1228314 -0.18444242 0.15218937
-0.12146693 -0.18078908 0.15388572
-0.12067828 -0.17783301 0.15496385
-0.12003364 -0.17506084 0.15588629
-0.11939363 -0.17230852 0.15680215
-0.11875819 -0.16957581 0.15771148
-0.11812721 -0.16686243 0.15861437
-0.11750076 -0.16416834 0.15951085
-0.11687868 -0.16149318 0.16040108
-0.11626097 -0.15883681 0.16128492
-0.11564759 -0.15619907 0.16216272
-0.11503851 -0.15357973 0.16303426
-0.11443366 -0.1509786 0.16389981
-0.11383268 -0.14839512 0.16475964
-0.1132357 -0.14582932 0.16561374
-0.11264285 -0.14328125 0.16646194
-0.11205405 -0.14075057 0.1673044
-0.1114693 -0.13823721 0.16814098
-0.11088854 -0.13574101 0.16897193
-0.11031167 -0.13326168 0.16979721
-0.10973877 -0.13079923 0.17061684
-0.10916968 -0.1283533 0.17143106
-0.10860442 -0.12592381 0.17223975
-0.10804297 -0.12351063 0.17304304
-0.10748525 -0.12111354 0.173841
-0.10731521 -0.11912989 0.17422923
-0.1072446 -0.11725631 0.17451191
-0.10717428 -0.11538959 0.1747936
-0.1071042 -0.11352956 0.17507422
-0.10703431 -0.11167619 0.17535388
-0.10696475 -0.10982957 0.17563257
-0.1068954 -0.10798956 0.1759102
-0.10682628 -0.10615613 0.17618683
-0.10675745 -0.10432932 0.1764625
-0.10668887 -0.10250902 0.17673713
-0.10662051 -0.10069522 0.17701083
-0.10655239 -0.098887883 0.17728356
-0.10648451 -0.097086959 0.17755526
-0.10641687 -0.095292434 0.17782605
-0.10634954 -0.093504332 0.17809579
-0.10628243 -0.091722526 0.17836466
-0.10621556 -0.089947045 0.17863247
-0.10614896 -0.08817783 0.17889941
-0.10608254 -0.086414814 0.17916542
-0.10601635 -0.084657982 0.17943045
-0.10595047 -0.082907364 0.17969456
-0.10588475 -0.08116284 0.17995769
-0.10581928 -0.079424396 0.18021998
-0.10575407 -0.077692077 0.1804814
-0.10568907 -0.075965747 0.18074179
-0.1056243 -0.074245475 0.18100125
-0.10555977 -0.072531134 0.18125987
-0.10549539 -0.070822671 0.18151763
-0.10543129 -0.069120184 0.18177453
-0.10536741 -0.067423582 0.18203044
-0.10530376 -0.065732792 0.18228552
-0.10524029 -0.064047843 0.1825397
-0.10517703 -0.062368646 0.18279308
-0.10511403 -0.060695238 0.18304557
-0.10505123 -0.059027568 0.18329707
-0.10498864 -0.057365566 0.18354785
-0.10492629 -0.055709258 0.18379775
-0.10486408 -0.054058552 0.1840468
-0.10480214 -0.052413493 0.18429491
-0.10474041 -0.050774008 0.18454221
-0.10467888 -0.049140096 0.18478873
-0.1040536 -0.047050357 0.1856142
-0.10337068 -0.044924691 0.18649757
-0.10269278 -0.042814553 0.18737453
-0.10201976 -0.040719673 0.18824506
-0.1013516 -0.038639948 0.1891093
-0.10068829 -0.036575198 0.18996739
-0.10002966 -0.034525245 0.19081929
-0.099375829 -0.03248997 0.19166511
-0.098726578 -0.030469134 0.19250491
-0.098081976 -0.028462693 0.19333872
-0.097441934 -0.026470423 0.19416669
-0.096806392 -0.024492204 0.1949887
-0.096175313 -0.022527859 0.19580507
-0.095548645 -0.020577267 0.19661573
-0.095075652 -0.018752247 0.19726834
-0.095441572 -0.017561033 0.19706458
-0.095807344 -0.016370505 0.196861
-0.096172825 -0.015180603 0.19665757
-0.096538186 -0.013991386 0.19645417
-0.096903346 -0.012802839 0.19625089
-0.097268268 -0.011614934 0.19604772
-0.097632997 -0.010427669 0.19584468
-0.097997539 -0.0092410743 0.19564179
-0.098361842 -0.0080550909 0.19543898
-0.098725975 -0.0068698227 0.1952363
-0.099089921 -0.0056851655 0.19503364
-0.099453658 -0.004501164 0.19483113
-0.099817201 -0.003317818 0.19462878
-0.10018051 -0.0021351129 0.19442657
-0.10054363 -0.00095306337 0.19422442
-0.10090654 0.00022833049 0.19402242
-0.10126927 0.0014090836 0.19382045
-0.10163179 0.0025892109 0.19361871
-0.1019941 0.0037686974 0.19341704
-0.10235623 0.0049474835 0.1932154
-0.10271813 0.0061256588 0.19301397
-0.10307989 0.0073031783 0.19281259
-0.10344139 0.0084800571 0.1926114
-0.10380274 0.0096562803 0.1924102
-0.10416387 0.010831863 0.19220918
-0.10452479 0.012006834 0.19200829
-0.10488552 0.01318112 0.19180748
-0.10524607 0.01435478 0.19160673
-0.10560642 0.0155278 0.19140619
-0.10596657 0.016700178 0.19120568
-0.10632654 0.017871901 0.19100526
-0.10668626 0.019042999 0.19080502
-0.10704583 0.02021344 0.19060487
-0.10740517 0.021383271 0.1904048
-0.10776433 0.022552446 0.19020498
-0.10812332 0.02372098 0.19000506
-0.10848205 0.024888873 0.18980542
-0.10884064 0.026056141 0.1896058
-0.10919902 0.027222767 0.18940628
-0.10955721 0.028388724 0.1892069
-0.10991518 0.029554084 0.18900761
-0.11069147 0.030484021 0.18839064
-0.1116095 0.031337827 0.18763262
-0.11253022 0.032194123 0.18687233
-0.11345364 0.033052936 0.1861099
-0.11437976 0.033914238 0.18534511
-0.11530865 0.034778059 0.18457806
-0.11624025 0.035644442 0.18380886
-0.11717454 0.036513388 0.18303737
-0.11811166 0.037384897 0.18226355
-0.11905151 0.03825894 0.18148756
-0.11999416 0.03913559 0.18070912
-0.12093966 0.040014818 0.17992839
-0.12188791 0.040896654 0.17914537
-0.12283903 0.041781113 0.17835996
-0.12379296 0.042668194 0.17757225
-0.12474968 0.043557957 0.17678225
-0.12570933 0.044450358 0.17598981
-0.12667179 0.045345426 0.1751951
-0.12763718 0.046243146 0.17439795
-0.12860544 0.047143564 0.17359841
-0.12957661 0.048046723 0.17279649
-0.13055068 0.048952579 0.17199209
-0.13152772 0.049861148 0.17118531
-0.13250771 0.050772473 0.17037609
-0.13349067 0.05168654 0.16956449
-0.13447654 0.052603379 0.16875038
-0.13546543 0.053523019 0.16793385
-0.13645734 0.054445416 0.16711473
-0.13745227 0.055370629 0.16629314
-0.13845018 0.056298643 0.16546917
-0.13945119 0.057229519 0.16464254
-0.1404552 0.058163211 0.1638135
-0.14146233 0.059099749 0.16298187
-0.14247254 0.060039192 0.1621477
-0.14348578 0.060981512 0.161311
-0.14450222 0.061926663 0.16047171
-0.14552175 0.062874824 0.15962985
-0.14654441 0.063825831 0.15878546
-0.14757027 0.064779788 0.1579383
-0.14859924 0.065736696 0.15708864
-0.13418981 -0.22082105 0.13529426
-0.13268016 -0.21674451 0.13718766
-0.13118859 -0.21271688 0.13905823
-0.12971491 -0.20873743 0.14090651
-0.12825869 -0.20480523 0.14273286
-0.1268197 -0.20091946 0.14453763
-0.12539759 -0.19707933 0.14632124
-0.12399238 -0.19328436 0.1480836
-0.12260415 -0.1895342 0.14982483
-0.1212319 -0.18582727 0.15154606
-0.11987542 -0.18216288 0.15324754
-0.11882907 -0.17888792 0.15461257
-0.11819106 -0.17611179 0.15553629
-0.11755753 -0.17335548 0.15645346
-0.11692858 -0.17061882 0.15736413
-0.1163041 -0.16790165 0.15826824
-0.11568401 -0.16520363 0.15916604
-0.11506832 -0.16252464 0.16005743
-0.11445692 -0.15986452 0.16094264
-0.1138498 -0.15722294 0.16182163
-0.11324698 -0.15459988 0.16269445
-0.11264822 -0.1519949 0.16356137
-0.11205325 -0.1494076 0.16442257
-0.11146239 -0.14683813 0.16527787
-0.11087558 -0.14428638 0.16612726
-0.11029284 -0.14175214 0.16697091
-0.10971408 -0.1392352 0.16780865
-0.1091392 -0.13673538 0.16864082
-0.10856828 -0.13425261 0.16946727
-0.10800117 -0.13178653 0.17028815
-0.10743794 -0.12933715 0.17110357
-0.1068785 -0.12690423 0.1719133
-0.10632274 -0.12448756 0.17271781
-0.10577077 -0.12208708 0.17351681
-0.10540848 -0.11989677 0.17411336
-0.10534137 -0.11802286 0.17439613
-0.10527451 -0.11615569 0.17467782
-0.10520788 -0.11429529 0.17495859
-0.10514145 -0.11244155 0.17523834
-0.10507531 -0.11059455 0.17551702
-0.10500941 -0.10875418 0.17579472
-0.10494374 -0.10692041 0.17607141
-0.10487831 -0.1050932 0.17634714
-0.10481311 -0.10327252 0.17662185
-0.10474813 -0.10145833 0.17689562
-0.1046834 -0.099650636 0.17716828
-0.10461889 -0.097849339 0.17744008
-0.10455465 -0.096054457 0.17771095
-0.1044907 -0.094266012 0.17798072
-0.10442689 -0.092483796 0.1782496
-0.10436334 -0.090707935 0.17851752
-0.10430002 -0.088938303 0.17878446
-0.10423689 -0.087174878 0.17905056
-0.10417401 -0.085417695 0.17931563
-0.10411133 -0.08366663 0.17957982
-0.10404892 -0.081921741 0.17984304
-0.10398668 -0.08018288 0.18010545
-0.10392468 -0.078450158 0.18036681
-0.10386294 -0.076723471 0.1806272
-0.10380133 -0.075002715 0.18088689
-0.10373997 -0.073287949 0.18114558
-0.10367884 -0.071579121 0.18140334
-0.10361791 -0.069876209 0.18166029
-0.10355719 -0.068179205 0.18191627
-0.10349661 -0.066487961 0.18217146
-0.10343633 -0.064802587 0.18242571
-0.10337624 -0.063123003 0.18267912
-0.10331635 -0.06144917 0.18293157
-0.10325665 -0.05978106 0.18318319
-0.10319713 -0.058118626 0.1834341
-0.10313785 -0.056461886 0.18368402
-0.10307876 -0.054810777 0.18393311
-0.1030199 -0.053165287 0.18418133
-0.10296123 -0.051525399 0.18442872
-0.10290268 -0.049890995 0.1846754
-0.10237036 -0.047871083 0.1854113
-0.10169376 -0.045742944 0.18629515
-0.10102215 -0.043630317 0.18717265
-0.1003553 -0.041532978 0.18804374
-0.099693336 -0.039450794 0.18890855
-0.09903612 -0.037383601 0.18976709
-0.09838362 -0.035331219 0.19061953
-0.09773577 -0.03329353 0.19146588
-0.097092524 -0.03127031 0.19230619
-0.096453875 -0.029261485 0.19314045
-0.095819749 -0.027266845 0.19396892
-0.095190033 -0.025286257 0.19479162
-0.094564766 -0.023319572 0.19560841
-0.093943909 -0.021366671 0.19641945
-0.093327358 -0.019427389 0.19722489
-0.093449339 -0.018053338 0.19727179
-0.093815066 -0.016864479 0.19706845
-0.094180614 -0.01567626 0.19686523
-0.09454596 -0.014488697 0.1966621
-0.094911091 -0.01330179 0.19645905
-0.095276013 -0.012115523 0.19625619
-0.095640719 -0.010929912 0.19605336
-0.096005253 -0.0097449571 0.1958507
-0.096369594 -0.0085606575 0.1956481
-0.096733756 -0.0073770136 0.19544563
-0.097097695 -0.0061940253 0.1952433
-0.097461388 -0.0050116479 0.19504109
-0.097824916 -0.0038299263 0.19483897
-0.098188266 -0.00264889 0.19463691
-0.0985514 -0.0014684796 0.194435
-0.098914303 -0.0002886951 0.19423324
-0.099277005 0.00089044869 0.19403166
-0.099639542 0.0020689219 0.19383004
-0.10000186 0.0032467544 0.19362864
-0.100364 0.0044239312 0.19342723
-0.1007259 0.0056004971 0.19322601
-0.10108766 0.0067763776 0.1930249
-0.10144918 0.0079516321 0.19282395
-0.10181053 0.009126246 0.19262302
-0.10217165 0.010300219 0.19242221
-0.10253257 0.011473551 0.19222158
-0.10289335 0.012646228 0.19202101
-0.10325385 0.013818309 0.19182053
-0.10361423 0.014989689 0.1916202
-0.10397436 0.016160458 0.19141993
-0.10433432 0.017330572 0.19121981
-0.10469408 0.018500075 0.19101977
-0.10505361 0.019668937 0.19081992
-0.105413 0.020837128 0.19062009
-0.10577215 0.022004724 0.19042039
-0.10613114 0.023171648 0.19022083
-0.10648991 0.024337947 0.19002137
-0.10684851 0.025503606 0.18982199
-0.10720688 0.026668653 0.1896227
-0.10756508 0.027833045 0.18942353
-0.10792305 0.028996825 0.18922454
-0.10840701 0.030088499 0.18889895
-0.10931953 0.030939683 0.1881434
-0.1102347 0.031793341 0.18738574
-0.11115256 0.032649487 0.18662584
-0.11207309 0.033508137 0.1858637
-0.11299632 0.03436929 0.18509933
-0.11392228 0.035232991 0.1843327
-0.11485097 0.03609921 0.18356377
-0.11578235 0.036967978 0.18279263
-0.11671649 0.037839323 0.18201926
-0.11765339 0.038713217 0.18124357
-0.11859315 0.039589673 0.18046549
-0.1195356 0.040468752 0.17968521
-0.12048086 0.041350439 0.1789026
-0.12142898 0.042234719 0.1781176
-0.12237987 0.043121651 0.17733034
-0.1233336 0.044011205 0.1765407
-0.12429021 0.044903398 0.17574865
-0.12524965 0.045798272 0.1749543
-0.12621194 0.046695843 0.17415756
-0.12717718 0.047596067 0.17335841
-0.12814525 0.048499018 0.17255691
-0.12911625 0.049404651 0.17175299
-0.13009015 0.050313041 0.17094663
-0.13106699 0.051224157 0.17013785
-0.13204679 0.052138016 0.16932663
-0.13302958 0.053054646 0.16851297
-0.13401529 0.053974062 0.1676968
-0.13500404 0.054896235 0.16687822
-0.13599576 0.05582124 0.16605714
-0.13699055 0.056749016 0.16523349
-0.13798828 0.057679638 0.16440743
-0.13898909 0.058613136 0.16357881
-0.13999298 0.059549436 0.16274765
-0.14099994 0.060488597 0.16191396
-0.14200994 0.061430693 0.16107774
-0.1430231 0.062375635 0.16023892
-0.14403933 0.063323483 0.15939748
-0.14505869 0.064274281 0.15855354
-0.14608124 0.06522797 0.15770692
-0.14710689 0.066184625 0.15685776
-0.14901593 0.066791311 0.15513939
-0.1340308 -0.22645596 0.13267696
-0.13251153 -0.22231649 0.13459963
-0.13101062 -0.21822715 0.13649893
-0.12952775 -0.21418694 0.1383754
-0.12806265 -0.21019506 0.1402294
-0.12661494 -0.20625067 0.14206141
-0.12518437 -0.20235288 0.14387178
-0.12377059 -0.19850087 0.14566082
-0.12237382 -0.19469447 0.14742845
-0.12099376 -0.19093286 0.14917508
-0.11962959 -0.18721458 0.15090156
-0.1182811 -0.18353902 0.15260813
-0.11697958 -0.17994297 0.15426111
-0.11634815 -0.17716286 0.15518618
-0.11572121 -0.17440262 0.15610468
-0.11509874 -0.17166202 0.15701661
-0.11448072 -0.16894095 0.15792212
-0.11386703 -0.16623908 0.15882114
-0.11325769 -0.16355625 0.15971389
-0.11265261 -0.16089228 0.16060033
-0.11205181 -0.15824701 0.16148055
-0.11145516 -0.15562013 0.16235465
-0.11086243 -0.15301123 0.16322291
-0.11027357 -0.15042019 0.16408542
-0.10968883 -0.14784709 0.16494197
-0.10910811 -0.14529169 0.16579255
-0.10853134 -0.14275378 0.16663742
-0.10795857 -0.14023328 0.16747639
-0.10738964 -0.1377299 0.16830972
-0.10682463 -0.13524355 0.16913733
-0.10626341 -0.13277403 0.16995934
-0.10570599 -0.13032113 0.17077589
-0.10515229 -0.12788472 0.17158684
-0.10460234 -0.12546465 0.17239246
-0.10405603 -0.1230607 0.17319268
-0.10351335 -0.12067277 0.17398757
-0.10344023 -0.11878849 0.17428055
-0.10337681 -0.11692096 0.17456234
-0.10331364 -0.11506019 0.1748431
-0.10325068 -0.11320613 0.17512289
-0.10318799 -0.11135873 0.1754016
-0.10312551 -0.109518 0.17567939
-0.10306323 -0.10768384 0.1759561
-0.10300121 -0.10585628 0.17623189
-0.1029394 -0.1040352 0.17650667
-0.10287778 -0.10222062 0.17678043
-0.10281646 -0.10041257 0.17705318
-0.10275535 -0.09861096 0.17732507
-0.10269445 -0.096815698 0.17759588
-0.10263379 -0.095026828 0.17786574
-0.10257334 -0.093244277 0.17813468
-0.10251308 -0.091467991 0.17840263
-0.10245305 -0.089697994 0.17866969
-0.10239321 -0.087934181 0.1789358
-0.10233359 -0.086176567 0.17920098
-0.10227419 -0.084425129 0.1794652
-0.102215 -0.082679808 0.17972848
-0.10215602 -0.080940612 0.17999086
-0.10209727 -0.079207458 0.18025234
-0.10203868 -0.077480316 0.18051288
-0.1019803 -0.075759187 0.18077257
-0.10192212 -0.074044004 0.18103132
-0.10186417 -0.072334796 0.18128911
-0.10180638 -0.070631444 0.18154615
-0.10174881 -0.068933979 0.18180227
-0.10169144 -0.067242369 0.18205747
-0.10163426 -0.065556586 0.18231171
-0.10157727 -0.063876569 0.18256521
-0.10152048 -0.06220229 0.18281782
-0.10146391 -0.060533777 0.18306953
-0.1014075 -0.058870926 0.18332043
-0.10135128 -0.057213753 0.18357038
-0.10129528 -0.055562228 0.18381956
-0.10123943 -0.05391629 0.1840679
-0.10118379 -0.052275933 0.18431538
-0.10112834 -0.050641149 0.18456197
-0.10068792 -0.048691392 0.18520847
-0.10001765 -0.046560779 0.18609285
-0.099352241 -0.044445693 0.18697086
-0.098691635 -0.042345867 0.18784252
-0.098035827 -0.040261254 0.18870786
-0.097384714 -0.038191587 0.18956694
-0.096738294 -0.036136821 0.19041991
-0.096096478 -0.034096718 0.19126672
-0.095459215 -0.032071099 0.19210756
-0.094826512 -0.030059919 0.19294235
-0.094198242 -0.028062895 0.19377133
-0.093574405 -0.026079968 0.1945945
-0.092954993 -0.024110958 0.19541177
-0.092339836 -0.022155687 0.19622338
-0.091729067 -0.020214096 0.19702935
-0.091463119 -0.018544182 0.19747832
-0.091828853 -0.017356977 0.19727522
-0.092194378 -0.016170427 0.19707221
-0.09255968 -0.014984503 0.1968694
-0.092924818 -0.01379925 0.19666654
-0.093289763 -0.012614623 0.19646388
-0.093654476 -0.011430666 0.19626135
-0.094019018 -0.01024735 0.19605896
-0.094383344 -0.0090647042 0.1958566
-0.094747454 -0.0078826845 0.19565445
-0.095111385 -0.0067013055 0.19545236
-0.095475137 -0.0055205971 0.19525033
-0.095838636 -0.0043405294 0.19504845
-0.096201986 -0.0031611174 0.19484666
-0.096565083 -0.0019823015 0.19464502
-0.09692803 -0.00080418587 0.19444349
-0.097290732 0.00037333369 0.19424209
-0.09765327 0.0015501827 0.19404075
-0.098015577 0.002726391 0.19383961
-0.098377749 0.0039019436 0.19363844
-0.098739639 0.0050768703 0.19343749
-0.099101402 0.0062511414 0.19323659
-0.099462919 0.0074248016 0.19303581
-0.09982422 0.008597821 0.19283524
-0.10018538 0.0097701699 0.19263467
-0.10054632 0.010941878 0.19243425
-0.10090707 0.012112945 0.19223389
-0.10126761 0.013283387 0.19203365
-0.10162798 0.014453188 0.19183356
-0.10198811 0.015622362 0.19163358
-0.10234809 0.016790882 0.19143364
-0.10270783 0.017958775 0.1912339
-0.10306738 0.019126013 0.19103426
-0.10342677 0.020292655 0.1908347
-0.10378594 0.021458626 0.19063526
-0.10414491 0.022623956 0.19043589
-0.1045037 0.023788691 0.19023666
-0.10486229 0.024952754 0.19003755
-0.10522067 0.026116192 0.1898385
-0.10557887 0.027279019 0.1896396
-0.10593687 0.028441191 0.18944076
-0.10629465 0.029602751 0.18924209
-0.10704054 0.030543417 0.1886518
-0.10795018 0.031394467 0.18789667
-0.10886252 0.032247975 0.18713939
-0.10977753 0.033103973 0.1863797
-0.11069518 0.033962488 0.18561795
-0.11161552 0.034823492 0.18485391
-0.11253857 0.035687029 0.18408769
-0.11346432 0.0365531 0.18331915
-0.11439278 0.037421733 0.18254849
-0.11532398 0.038292915 0.18177539
-0.11625794 0.039166659 0.18100008
-0.11719471 0.040042952 0.18022239
-0.11813422 0.040921837 0.17944247
-0.11907651 0.041803345 0.17866021
-0.12002166 0.042687446 0.17787567
-0.12096952 0.043574184 0.1770888
-0.12192025 0.044463575 0.17629951
-0.12287383 0.045355588 0.1755079
-0.12383021 0.046250284 0.17471394
-0.12478949 0.047147632 0.17391762
-0.12575161 0.048047692 0.17311892
-0.12671661 0.048950434 0.17231783
-0.12768456 0.049855888 0.17151424
-0.12865536 0.050764054 0.17070842
-0.12962908 0.051674962 0.16990006
-0.13060579 0.052588612 0.1690892
-0.1315854 0.053505018 0.16827604
-0.13256803 0.054424211 0.16746035
-0.13355356 0.055346176 0.16664213
-0.13454211 0.056270957 0.16582152
-0.13553371 0.05719851 0.16499835
-0.13652828 0.058128908 0.16417271
-0.13752587 0.059062153 0.16334459
-0.13852653 0.059998214 0.16251388
-0.13953024 0.060937166 0.16168064
-0.14053702 0.061878994 0.16084489
-0.14154691 0.062823683 0.16000643
-0.14255984 0.063771293 0.15916559
-0.14357597 0.064721808 0.1583221
-0.14459516 0.065675274 0.15747604
-0.14587119 0.066528872 0.15637624
-0.14786875 0.067099005 0.15456352
-0.13386956 -0.23217097 0.13002253
-0.13234049 -0.2279672 0.13197494
-0.13083011 -0.22381471 0.13390362
-0.129338 -0.21971251 0.13580894
-0.12786388 -0.21565971 0.13769126
-0.12640738 -0.21165539 0.1395511
-0.12496825 -0.20769873 0.14138871
-0.12354612 -0.20378886 0.14320469
-0.12214068 -0.19992498 0.14499933
-0.12075238 -0.1961071 0.14677218
-0.1193805 -0.19233391 0.14852414
-0.11802447 -0.18860433 0.15025586
-0.11668403 -0.18491758 0.15196761
-0.11535884 -0.18127288 0.15365997
-0.11450501 -0.1782141 0.15483606
-0.11388462 -0.17544991 0.15575582
-0.11326869 -0.17270543 0.15666911
-0.11265706 -0.16998038 0.15757582
-0.11204982 -0.1672747 0.15847617
-0.11144684 -0.16458803 0.15937021
-0.11084807 -0.16192023 0.16025797
-0.11025354 -0.15927115 0.1611394
-0.10966306 -0.1566405 0.16201481
-0.10907634 -0.15402767 0.16288456
-0.10849367 -0.15143293 0.16374829
-0.10791503 -0.14885618 0.164606
-0.1073404 -0.14629713 0.16545781
-0.10676965 -0.14375563 0.16630384
-0.10620282 -0.14123149 0.16714406
-0.1056399 -0.13872458 0.1679785
-0.10508075 -0.13623467 0.16880733
-0.10452538 -0.13376161 0.16963059
-0.10397379 -0.13130523 0.17044818
-0.10342592 -0.12886539 0.17126033
-0.10288166 -0.12644181 0.17206714
-0.10234107 -0.12403449 0.17286849
-0.10180406 -0.12164315 0.17366454
-0.10154115 -0.11955327 0.17416501
-0.10148119 -0.11768538 0.17444688
-0.10142151 -0.11582427 0.17472774
-0.10136199 -0.11396982 0.17500755
-0.10130271 -0.11212209 0.17528632
-0.10124366 -0.11028098 0.17556411
-0.10118479 -0.10844645 0.175841
-0.10112613 -0.10661849 0.17611676
-0.10106775 -0.10479711 0.17639163
-0.10100955 -0.10298219 0.17666546
-0.10095158 -0.10117377 0.17693821
-0.10089384 -0.099371769 0.17721006
-0.10083628 -0.097576141 0.17748094
-0.10077894 -0.095786884 0.17775092
-0.10072178 -0.094003938 0.17801988
-0.10066479 -0.092227243 0.17828795
-0.10060804 -0.090456821 0.17855507
-0.1005515 -0.088692665 0.17882121
-0.10049511 -0.086934641 0.17908645
-0.100439 -0.085182846 0.17935067
-0.10038307 -0.083437145 0.17961401
-0.10032728 -0.081697464 0.17987651
-0.10027175 -0.079963945 0.18013799
-0.10021636 -0.078236386 0.18039858
-0.10016122 -0.076514877 0.18065834
-0.10010617 -0.07479924 0.1809172
-0.10005139 -0.073089615 0.18117511
-0.099996775 -0.07138589 0.1814321
-0.099942349 -0.069688022 0.18168831
-0.099888124 -0.067995988 0.18194357
-0.09983404 -0.06630975 0.18219802
-0.09978018 -0.064629331 0.18245146
-0.09972652 -0.062954679 0.18270409
-0.099673033 -0.061285719 0.18295586
-0.099619716 -0.059622467 0.18320683
-0.099566534 -0.057964832 0.18345693
-0.099513605 -0.056312896 0.1837061
-0.099460825 -0.054666534 0.18395448
-0.099408224 -0.053025767 0.18420205
-0.099355824 -0.051390544 0.18444872
-0.099006258 -0.049511328 0.18500581
-0.098342322 -0.047378272 0.1858907
-0.097683176 -0.045260683 0.18676916
-0.097028762 -0.043158397 0.18764132
-0.096379116 -0.041071326 0.18850717
-0.095734082 -0.038999245 0.18936688
-0.095093727 -0.036942035 0.19022033
-0.094457917 -0.034899518 0.19106767
-0.093826666 -0.032871559 0.19190896
-0.093199879 -0.030857965 0.19274431
-0.092577532 -0.028858572 0.19357383
-0.091959544 -0.026873291 0.19439748
-0.091345876 -0.024901927 0.19521531
-0.090736546 -0.022944376 0.19602743
-0.090131484 -0.02100049 0.19683379
-0.089530535 -0.019070029 0.19763473
-0.089848578 -0.017847985 0.19748136
-0.090214096 -0.01666306 0.19727868
-0.090579413 -0.015478805 0.19707596
-0.090944543 -0.014295191 0.19687346
-0.09130948 -0.013112232 0.19667107
-0.091674209 -0.011929914 0.19646877
-0.092038698 -0.010748237 0.19626665
-0.092403032 -0.009567216 0.19606456
-0.092767149 -0.0083868504 0.19586256
-0.093131088 -0.0072070956 0.19566065
-0.093494818 -0.0060280263 0.19545892
-0.093858317 -0.004849568 0.19525734
-0.094221637 -0.0036717802 0.19505584
-0.094584778 -0.0024946332 0.19485438
-0.094947726 -0.0013181269 0.19465312
-0.095310457 -0.00014227629 0.19445184
-0.095672943 0.0010330081 0.19425082
-0.096035272 0.0022075772 0.19404989
-0.096397422 0.0033815205 0.19384903
-0.096759312 0.0045548379 0.19364831
-0.097121075 0.0057274997 0.19344771
-0.097482592 0.0068995357 0.19324714
-0.097843915 0.0080709308 0.19304675
-0.098205067 0.0092416704 0.19284639
-0.098565981 0.010411799 0.19264627
-0.098926753 0.011581257 0.19244614
-0.099287294 0.012750089 0.19224617
-0.099647656 0.013918296 0.19204628
-0.10000779 0.015085876 0.19184658
-0.10036775 0.016252786 0.1916469
-0.10072751 0.017419085 0.19144738
-0.10108707 0.018584743 0.19124797
-0.10144643 0.019749776 0.19104859
-0.10180561 0.020914167 0.19084945
-0.10216463 0.022077918 0.19065031
-0.10252339 0.023241043 0.19045129
-0.10288201 0.024403542 0.19025239
-0.10324036 0.025565401 0.19005364
-0.10359854 0.026726648 0.18985501
-0.10395661 0.027887225 0.18965638
-0.10431439 0.029047206 0.18945798
-0.10477239 0.030149072 0.18915775
-0.10567659 0.0309975 0.18840519
-0.10658343 0.031848401 0.18765038
-0.10749291 0.032701761 0.18689331
-0.10840504 0.033557639 0.18613419
-0.10931982 0.034415975 0.18537274
-0.11023729 0.03527683 0.184609
-0.11115742 0.036140233 0.18384317
-0.1120803 0.03700614 0.18307504
-0.11300584 0.037874609 0.18230468
-0.11393411 0.038745642 0.181532
-0.11486515 0.039619207 0.18075708
-0.11579898 0.040495336 0.1799798
-0.11673553 0.041374043 0.17920026
-0.11767485 0.042255402 0.17841843
-0.11861699 0.043139338 0.17763421
-0.11956188 0.044025883 0.1768477
-0.12050963 0.04491505 0.17605883
-0.12146018 0.045806915 0.17526764
-0.12241352 0.046701416 0.17447412
-0.12336979 0.047598571 0.17367822
-0.12432882 0.048498437 0.17287993
-0.12529077 0.049400955 0.17207927
-0.12625563 0.050306231 0.17127618
-0.12722334 0.051214203 0.17047063
-0.128194 0.052124873 0.16966268
-0.12916757 0.053038344 0.16885239
-0.13014406 0.053954542 0.16803956
-0.13112356 0.054873481 0.16722426
-0.13210598 0.055795237 0.16640651
-0.13309133 0.056719795 0.16558641
-0.13407975 0.057647109 0.16476369
-0.13507113 0.058577314 0.16393846
-0.13606551 0.059510306 0.16311079
-0.13706297 0.060446128 0.16228053
-0.13806345 0.061384827 0.16144779
-0.13906702 0.062326401 0.16061243
-0.14007363 0.063270852 0.1597746
-0.14108333 0.064218193 0.15893421
-0.14209616 0.065168455 0.1580911
-0.14311206 0.066121653 0.15724552
-0.14472905 0.06683524 0.15580276
-0.14672162 0.067406684 0.15398771
-0.14873119 0.067983061 0.15215722
-0.13370597 -0.23796779 0.12733006
-0.13216706 -0.23369832 0.12931305
-0.13064706 -0.22948129 0.13127166
-0.12914562 -0.2253157 0.13320637
-0.12766233 -0.2212006 0.13511771
-0.12619697 -0.21713513 0.13700593
-0.12474911 -0.21311834 0.13887155
-0.12331859 -0.20914945 0.14071488
-0.12190491 -0.20522746 0.14253646
-0.1205079 -0.20135167 0.14433664
-0.11912808 -0.19752224 0.14611477
-0.11776439 -0.19373746 0.14787215
-0.11641655 -0.18999654 0.14960903
-0.11508413 -0.18629852 0.15132615
-0.11376699 -0.18264285 0.15302357
-0.11266162 -0.17926551 0.15448588
-0.11204778 -0.17649734 0.15540698
-0.1114383 -0.17374893 0.15632153
-0.11083315 -0.17102002 0.15722957
-0.11023231 -0.16831039 0.15813124
-0.10963571 -0.16561991 0.1590265
-0.10904329 -0.16294834 0.15991548
-0.10845499 -0.16029546 0.16079825
-0.10787059 -0.15766081 0.16167513
-0.10729005 -0.15504427 0.1625461
-0.10671353 -0.15244587 0.16341099
-0.10614102 -0.14986539 0.16426995
-0.10557242 -0.14730272 0.16512299
-0.10500769 -0.14475755 0.1659703
-0.10444688 -0.14222987 0.16681165
-0.10388985 -0.13971935 0.16764733
-0.10333665 -0.13722593 0.16847727
-0.10278717 -0.13474935 0.16930172
-0.10224135 -0.13228947 0.17012057
-0.10169927 -0.12984613 0.17093387
-0.10116079 -0.12741914 0.17174172
-0.1006259 -0.12500839 0.17254421
-0.10009459 -0.12261369 0.17334133
-0.099644139 -0.12031721 0.17404971
-0.099587679 -0.11844899 0.17433161
-0.099531382 -0.11658747 0.17461252
-0.099475354 -0.11473269 0.17489234
-0.099419497 -0.11288459 0.1751712
-0.099363834 -0.11104313 0.17544904
-0.099308394 -0.10920823 0.17572594
-0.099253163 -0.10737994 0.17600173
-0.099198163 -0.10555819 0.17627659
-0.099143349 -0.10374293 0.17655051
-0.099088714 -0.10193413 0.17682335
-0.099034302 -0.10013175 0.17709523
-0.098980069 -0.098335728 0.1773662
-0.09892603 -0.096546091 0.17763618
-0.09887217 -0.09476275 0.17790526
-0.098818511 -0.092985705 0.17817336
-0.098765045 -0.091214903 0.17844051
-0.098711744 -0.089450307 0.17870671
-0.098658651 -0.08769194 0.17897195
-0.098605767 -0.08593972 0.17923632
