ply
format ascii 1.0
comment PCL generated
element vertex 1304
property float x
property float y
property float z
element face 0
element camera 0
property float view_px
property float view_py
property float view_pz
property float x_axisx
property float x_axisy
property float x_axisz
property float y_axisx
property float y_axisy
property float y_axisz
property float z_axisx
property float z_axisy
property float z_axisz
property float focal
property float scalex
property float scaley
property float centerx
property float centery
property int viewportx
property int viewporty
property float k1
property float k2
end_header
-0.093671687 -0.24571198 0.044587165
-0.09367165 -0.24524002 0.041217357
-0.093671568 -0.24476141 0.037799954
-0.093671516 -0.24427591 0.034333825
-0.093671449 -0.24378352 0.030817986
-0.093671151 -0.24328411 0.027251989
0.093682304 -0.22229527 0.046520293
0.09367843 -0.22646029 0.076256335
-0.093678661 -0.25337029 0.091985345
-0.093678229 -0.25299424 0.089254707
-0.093677841 -0.25261343 0.086489379
-0.093677424 -0.25222772 0.083688647
-0.093677036 -0.25183707 0.080851883
-0.093676656 -0.25144133 0.077978224
-0.093676165 -0.25104049 0.075067461
-0.093675509 -0.25063437 0.072118819
-0.093674831 -0.25022295 0.069131255
-0.093674153 -0.24980602 0.066104025
-0.093673453 -0.24938354 0.063036174
-0.09367276 -0.24895532 0.059927076
-0.093672052 -0.24852133 0.056775749
-0.093671657 -0.24808128 0.053580493
-0.093671903 -0.24763505 0.05033958
-0.093671851 -0.24718274 0.047054499
-0.093671799 -0.24672408 0.043723643
-0.093671724 -0.24625897 0.040345937
-0.093671672 -0.24578734 0.036920458
-0.09367162 -0.24530891 0.033446163
-0.093671225 -0.24482374 0.029922873
-0.093671076 -0.24433149 0.026347995
0.09368211 -0.22364475 0.048403323
-0.093678512 -0.25428507 0.091231972
-0.093678087 -0.25391462 0.088495255
-0.093677677 -0.25353944 0.085723728
-0.093677267 -0.25315946 0.082916707
-0.093676895 -0.25277466 0.080073476
-0.093676537 -0.25238475 0.07719332
-0.093676023 -0.25198984 0.074275941
-0.09367542 -0.25158975 0.071320534
-0.093674742 -0.25118443 0.068326175
-0.093674049 -0.25077367 0.065292001
-0.093673371 -0.25035742 0.062217116
-0.093672663 -0.24993557 0.059100837
-0.09367197 -0.24950799 0.055942208
-0.093671784 -0.24907446 0.052739024
-0.093672022 -0.24863485 0.049490571
-0.093671933 -0.24818917 0.046197891
-0.093671903 -0.2477373 0.042859137
-0.093671836 -0.24727909 0.039473593
-0.093671776 -0.24681437 0.036040038
-0.093671732 -0.24634305 0.032557517
-0.093671151 -0.245865 0.029026389
-0.093670987 -0.24538004 0.025443017
0.093681954 -0.22497997 0.050266474
-0.093678348 -0.25520068 0.090477854
-0.093677931 -0.25483584 0.087735057
-0.093677536 -0.25446638 0.084957331
-0.093677156 -0.25409216 0.082143962
-0.093676791 -0.2537131 0.079294235
-0.093676418 -0.25332913 0.076407641
-0.093675889 -0.25294024 0.073483646
-0.093675315 -0.25254613 0.070521414
-0.093674645 -0.2521469 0.067520171
-0.093673974 -0.25174236 0.064479053
-0.093673274 -0.2513324 0.061397165
-0.093672559 -0.25091687 0.058273733
-0.093671858 -0.25049573 0.055107832
-0.093671896 -0.25006863 0.051896602
-0.093672104 -0.24963565 0.048640698
-0.093672052 -0.24919669 0.0453403
-0.093672 -0.24875163 0.041993827
-0.093671933 -0.24830028 0.038600266
-0.093671873 -0.24784255 0.035158634
-0.093671665 -0.2473783 0.031668335
-0.093671046 -0.24690753 0.028128982
-0.09367092 -0.24642979 0.024537027
0.09368176 -0.22630107 0.052109927
-0.093678191 -0.25611728 0.089723051
-0.093677782 -0.25575799 0.086974114
-0.093677387 -0.25539422 0.08419013
-0.093677029 -0.25502574 0.081370354
-0.093676642 -0.2546525 0.078514278
-0.093676269 -0.25427446 0.075621128
-0.093675762 -0.25389147 0.072690517
-0.093675233 -0.25350347 0.06972146
-0.093674541 -0.25311035 0.066713423
-0.093673863 -0.25271207 0.06366539
-0.093673185 -0.25230837 0.060576409
-0.093672484 -0.25189918 0.057445735
-0.093671769 -0.25148454 0.054272562
-0.093672007 -0.25106394 0.051053345
-0.093672216 -0.25063753 0.047789842
-0.093672149 -0.25020531 0.044481814
-0.093672089 -0.24976705 0.041127533
-0.093672037 -0.24932262 0.037725955
-0.09367197 -0.24887188 0.034276277
-0.093671322 -0.24841483 0.030778974
-0.093670972 -0.24795114 0.027230531
-0.093670838 -0.24748068 0.023629993
0.093681604 -0.2276084 0.053934127
-0.093678027 -0.25703469 0.088967532
-0.093677633 -0.25668111 0.086212426
-0.09367726 -0.25632298 0.083422124
-0.093676902 -0.25596032 0.08059603
-0.093676507 -0.25559291 0.077733546
-0.09367612 -0.25522077 0.07483393
-0.093675636 -0.25484374 0.071896642
-0.093675122 -0.25446182 0.068920761
-0.093674488 -0.25407487 0.06590578
-0.093673773 -0.2536827 0.062850803
-0.093673088 -0.25328532 0.059754729
-0.093672387 -0.2528826 0.056616873
-0.093671903 -0.25247431 0.053435802
-0.093672134 -0.25206029 0.050209165
-0.093672305 -0.25164056 0.046938151
-0.093672253 -0.25121507 0.043622375
-0.093672194 -0.25078359 0.040260285
-0.093672156 -0.25034609 0.036850721
-0.093672082 -0.24990234 0.033392906
-0.093670949 -0.2494525 0.02988869
-0.093670852 -0.24899596 0.026331067
-0.093670756 -0.24853282 0.022721946
0.093681432 -0.22890207 0.055739313
-0.093677886 -0.25795305 0.088211238
-0.093677498 -0.25760511 0.085449934
-0.093677171 -0.25725266 0.082653314
-0.093676776 -0.25689575 0.079820961
-0.093676396 -0.25653419 0.07695204
-0.093675978 -0.25616801 0.074045867
-0.093675472 -0.25579703 0.071101993
-0.093674973 -0.25542116 0.068119287
-0.093674369 -0.25504029 0.065097362
-0.093673684 -0.25465441 0.062035352
-0.093672968 -0.25426337 0.058932275
-0.093672276 -0.253867 0.055787206
-0.093672 -0.25346515 0.052598178
-0.093672246 -0.25305769 0.04936406
-0.093672425 -0.25264466 0.046085507
-0.093672357 -0.25222588 0.042762041
-0.093672313 -0.25180125 0.039391994
-0.093672246 -0.25137064 0.035974532
-0.093671791 -0.25093403 0.032509685
-0.093670875 -0.25049129 0.028996587
-0.093670785 -0.25004193 0.02543059
-0.093670681 -0.24958615 0.021812856
0.093681253 -0.23018241 0.057525784
-0.093677737 -0.25887227 0.08745414
-0.093677387 -0.25852996 0.084686607
-0.093677022 -0.25818324 0.081883818
-0.093676642 -0.25783217 0.079045087
-0.093676247 -0.25747648 0.076169729
-0.093675852 -0.25711623 0.073256969
-0.093675338 -0.25675124 0.07030645
-0.093674846 -0.25638142 0.067317009
-0.093674272 -0.25600678 0.06428811
-0.093673594 -0.25562713 0.061219096
-0.093672909 -0.25524235 0.058108836
-0.093672179 -0.25485241 0.054956585
-0.093672134 -0.25445706 0.05175963
-0.093672357 -0.25405616 0.048518062
-0.093672507 -0.2536498 0.045231968
-0.093672469 -0.25323775 0.041900724
-0.093672402 -0.25282001 0.038522869
-0.09367235 -0.25239635 0.035097361
-0.093671456 -0.25196689 0.031625599
-0.093670785 -0.25153121 0.02810353
-0.093670689 -0.25108913 0.024529129
-0.09367054 -0.2506406 0.020902961
0.093681097 -0.23144946 0.059293866
-0.093677603 -0.25979248 0.086696297
-0.093677253 -0.25945574 0.083922595
-0.09367691 -0.25911483 0.081113517
-0.093676515 -0.25876951 0.078268439
-0.093676135 -0.25841969 0.075386614
-0.09367571 -0.25806537 0.072467327
-0.093675196 -0.25770643 0.069510102
-0.09367469 -0.25734273 0.066513896
-0.093674183 -0.25697425 0.063477963
-0.093673475 -0.25660083 0.060401976
-0.093672782 -0.2562224 0.057284653
-0.093672082 -0.25583893 0.05412516
-0.093672231 -0.25545001 0.050920278
-0.093672477 -0.2550557 0.047671199
-0.093672618 -0.25465602 0.044377506
-0.093672551 -0.25425082 0.041038513
-0.093672514 -0.25383988 0.037652761
-0.093672268 -0.25342321 0.034219742
-0.093671076 -0.25300086 0.030740649
-0.093670681 -0.2525723 0.027209491
-0.093670584 -0.25213748 0.023626655
-0.093670301 -0.25169635 0.019992232
0.09368521 -0.22886758 0.029439598
0.093680941 -0.23270358 0.061043769
-0.093677506 -0.26071349 0.085937679
-0.093677126 -0.26038247 0.083157837
-0.093676753 -0.26004729 0.080342472
-0.093676388 -0.25970775 0.077491015
-0.093675986 -0.25936386 0.074602693
-0.093675591 -0.25901547 0.071676821
-0.093675077 -0.25866258 0.06871292
-0.093674541 -0.25830501 0.065709978
-0.093674041 -0.25794268 0.062667131
-0.093673401 -0.2575756 0.059583962
-0.0936727 -0.25720352 0.056459486
-0.093672112 -0.25682637 0.053292453
-0.093672357 -0.25644395 0.050079912
-0.093672603 -0.25605634 0.046823353
-0.0936727 -0.25566337 0.043522149
-0.093672663 -0.25526488 0.040175378
-0.093672596 -0.25486085 0.036781728
-0.093671918 -0.2544513 0.033341914
-0.093670718 -0.25403598 0.029854655
-0.093670592 -0.25361452 0.026314467
-0.093670487 -0.25318694 0.022723109
-0.093670048 -0.25275326 0.019080579
0.093685009 -0.23021695 0.031465828
0.093680777 -0.23394486 0.06277585
-0.093677744 -0.26195663 0.087929457
-0.093677387 -0.26163542 0.085178316
-0.093676999 -0.2613101 0.082392335
-0.093676627 -0.26098061 0.079570711
-0.093676254 -0.260647 0.076712847
-0.093675874 -0.26030895 0.073818028
-0.093675449 -0.25996658 0.070885599
-0.09367492 -0.25961968 0.067914963
-0.093674406 -0.25926828 0.064905226
-0.093673885 -0.25891221 0.061855555
-0.093673304 -0.2585513 0.058765203
-0.093672603 -0.2581856 0.055633545
-0.093672231 -0.25781491 0.052458644
-0.093672454 -0.25743905 0.049238831
-0.093672708 -0.25705799 0.045974642
-0.09367279 -0.25667176 0.042665809
-0.093672752 -0.25628009 0.03931126
-0.0936727 -0.25588301 0.035909653
-0.093671553 -0.2554805 0.032463163
-0.093670577 -0.25507221 0.028967083
-0.093670502 -0.25465789 0.025418431
-0.093670309 -0.25423768 0.021818846
-0.093669824 -0.25381139 0.018167824
0.093684822 -0.23155159 0.033469975
0.09368062 -0.23517357 0.064490348
-0.093677618 -0.26287386 0.087175518
-0.093677253 -0.26255825 0.084418237
-0.093676873 -0.26223868 0.081625998
-0.093676507 -0.261915 0.078798115
-0.09367612 -0.26158711 0.075933844
-0.09367571 -0.26125503 0.073032588
-0.093675315 -0.26091862 0.070093513
-0.093674809 -0.26057783 0.067116201
-0.093674287 -0.26023254 0.06409961
-0.093673758 -0.2598826 0.061042994
-0.093673192 -0.25952807 0.057945579
-0.093672529 -0.25916877 0.054806709
-0.09367235 -0.2588045 0.05162394
-0.093672588 -0.25843519 0.048396736
-0.093672834 -0.25806078 0.045125008
-0.093672894 -0.25768125 0.041808605
-0.093672864 -0.25729641 0.038446218
-0.093672372 -0.2569063 0.035037935
-0.093671203 -0.25651079 0.031583399
-0.09367048 -0.2561096 0.028078437
-0.093670405 -0.2557025 0.024521381
-0.093670078 -0.25528955 0.02091372
-0.093669601 -0.25487065 0.017254025
0.093684629 -0.23287188 0.035452396
0.093680449 -0.23638989 0.066187531
-0.093677491 -0.26379201 0.086420774
-0.093677118 -0.26348206 0.083657414
-0.093676738 -0.2631681 0.080859005
-0.093676373 -0.2628502 0.078024775
-0.093675986 -0.26252821 0.075154126
-0.093675613 -0.26220205 0.072246253
-0.093675181 -0.26187167 0.069300622
-0.093674675 -0.2615369 0.066316634
-0.093674161 -0.26119778 0.063293219
-0.093673624 -0.2608541 0.060229659
-0.093673065 -0.26050588 0.057125092
-0.09367241 -0.26015297 0.053979069
-0.093672462 -0.2597951 0.050788432
-0.093672693 -0.25943238 0.047553718
-0.093672939 -0.25906461 0.044274509
-0.093672998 -0.25869185 0.040950388
-0.093672946 -0.25831386 0.037580281
-0.093672045 -0.2579307 0.034165233
-0.09367086 -0.25754222 0.03070268
-0.093670383 -0.25714809 0.027188778
-0.093670309 -0.2567482 0.023623347
-0.093669817 -0.25634262 0.02000761
-0.093669325 -0.25593117 0.016339272
0.093684442 -0.23417792 0.037413597
0.093680292 -0.23759392 0.067867726
-0.093677357 -0.26471099 0.085665345
-0.093676992 -0.26440668 0.082895845
-0.093676597 -0.26409847 0.080091208
-0.093676232 -0.26378641 0.077250659
-0.093675859 -0.26347026 0.074373543
-0.093675494 -0.26315001 0.071459174
-0.093675055 -0.26282564 0.068506986
-0.093674541 -0.26249698 0.065516204
-0.093674012 -0.262164 0.062485963
-0.093673468 -0.26182663 0.05941546
-0.093672961 -0.26148468 0.056303799
-0.093672328 -0.26113817 0.053150415
-0.093672588 -0.26078677 0.049951971
-0.093672827 -0.26043063 0.046709806
-0.09367305 -0.26006955 0.043423057
-0.093673088 -0.25970352 0.040091336
-0.093672834 -0.25933239 0.036713898
-0.093671672 -0.25895631 0.033291608
-0.093670495 -0.25857484 0.029820979
-0.093670286 -0.25818777 0.026298106
-0.093670085 -0.25779513 0.022724718
-0.093669593 -0.25739691 0.019100457
-0.093669109 -0.25699288 0.015423417
0.093684256 -0.23547006 0.039353818
0.093680136 -0.23878598 0.069531024
-0.09367723 -0.26563093 0.084909141
-0.09367688 -0.26533228 0.082133532
-0.093676478 -0.26502979 0.079322636
-0.09367612 -0.26472351 0.07647571
-0.09367574 -0.26441324 0.073592246
-0.093675345 -0.26409894 0.07067138
-0.093674898 -0.26378056 0.067712486
-0.093674399 -0.26345804 0.064714968
-0.093673885 -0.26313123 0.061677873
-0.093673326 -0.26280007 0.058600426
-0.093672797 -0.26246443 0.055481702
-0.093672432 -0.26212436 0.05232048
-0.093672693 -0.26177949 0.049114674
-0.093672931 -0.26142991 0.045865089
-0.093673192 -0.26107556 0.04257068
-0.093673199 -0.26071629 0.0392313
-0.093672492 -0.26035213 0.035847306
-0.093671322 -0.25998297 0.032417059
-0.093670279 -0.25960851 0.028937906
-0.093670197 -0.25922859 0.02540648
-0.093669847 -0.25884327 0.021825075
-0.09366934 -0.25845236 0.018192291
-0.093668863 -0.25805578 0.014506549
0.093684047 -0.23674844 0.041273475
-0.093677111 -0.26655176 0.084152222
-0.093676716 -0.26625878 0.081370443
-0.093676366 -0.26596203 0.078553289
-0.093675986 -0.26566154 0.075700045
-0.093675613 -0.26535717 0.072810113
-0.093675211 -0.26504886 0.069882691
-0.093674786 -0.26473653 0.066917211
-0.093674257 -0.26442009 0.063912958
-0.093673728 -0.26409942 0.060868979
-0.093673199 -0.2637746 0.057784528
-0.096020676 -0.26308841 0.048385978
-0.094549969 -0.2629765 0.049129277
-0.09367279 -0.26277328 0.048276395
-0.09367305 -0.26243028 0.045019329
-0.093673296 -0.26208267 0.04171738
-0.093673296 -0.26173019 0.038370311
-0.093672149 -0.26137295 0.034979761
-0.093670979 -0.26101077 0.031541556
-0.093670182 -0.26064336 0.028053552
-0.093670093 -0.26027057 0.0245139
-0.093669608 -0.25989252 0.020924419
-0.093669124 -0.25950897 0.017283052
-0.09366864 -0.2591199 0.013588637
0.093683861 -0.23801331 0.043172807
-0.093676977 -0.26747346 0.083394557
-0.093676604 -0.26718616 0.080606639
-0.093676239 -0.2668952 0.077783167
-0.093675874 -0.26660052 0.074923635
-0.093675464 -0.26630202 0.072027236
-0.093675077 -0.2659997 0.069093257
-0.093674652 -0.26569337 0.066121101
-0.093674138 -0.26538312 0.063110054
-0.093673602 -0.26506865 0.060059249
-0.099096954 -0.26396689 0.042551249
-0.097603664 -0.26385218 0.043313831
-0.096115842 -0.2637378 0.044073611
-0.094633445 -0.26362392 0.04483059
-0.093673162 -0.26343176 0.044172764
-0.093673408 -0.26309079 0.040863246
-0.093672954 -0.2627452 0.03750968
-0.093671799 -0.26239488 0.034111261
-0.093670607 -0.26203966 0.0306651
-0.093670093 -0.26167929 0.027168244
-0.093669847 -0.26131374 0.023620665
-0.093669385 -0.26094297 0.02002275
-0.093668908 -0.26056683 0.01637277
-0.093668364 -0.26018521 0.012669712
0.093683705 -0.23926485 0.045052141
-0.093676925 -0.26839608 0.082635999
-0.093676485 -0.26811448 0.079842031
-0.09367612 -0.2678293 0.07701233
-0.093675718 -0.2675404 0.07414642
-0.093675353 -0.26724786 0.071243554
-0.09367495 -0.2669515 0.068303019
-0.093674503 -0.26665124 0.065324217
-0.10268182 -0.26513079 0.038645834
-0.10139361 -0.26498252 0.038832068
-0.10010688 -0.2648344 0.039018065
-0.098821752 -0.26468652 0.039203823
-0.097538158 -0.26453876 0.039389342
-0.096212476 -0.26439753 0.039693177
-0.094718248 -0.26428145 0.040464193
-0.093673527 -0.26410002 0.040008038
-0.093672611 -0.26376134 0.036648095
-0.093671434 -0.26341796 0.033241808
-0.093670264 -0.26306966 0.02978763
-0.093670011 -0.26271641 0.026281893
-0.093669638 -0.26235807 0.022726417
-0.093669131 -0.2619946 0.019120127
-0.093668647 -0.26162589 0.015461594
-0.093668342 -0.26125169 0.011749119
0.093683511 -0.24050333 0.046911806
-0.093677089 -0.26931956 0.081876069
-0.093676664 -0.26904365 0.079075903
-0.093676247 -0.26876423 0.076240033
-0.093675815 -0.26848125 0.073367864
-0.093675397 -0.26819462 0.070458651
-0.093674958 -0.26790422 0.067511648
-0.10412636 -0.26627618 0.037208706
-0.10283472 -0.26612693 0.037396193
-0.10154463 -0.2659778 0.037583381
-0.10025609 -0.26582894 0.03777042
-0.09896908 -0.26568025 0.037957251
-0.097683638 -0.26553175 0.038143784
-0.096399717 -0.26538339 0.038330108
-0.095117353 -0.26523525 0.038516223
-0.093836538 -0.26508719 0.03870213
-0.093672276 -0.26477852 0.035785526
-0.093671106 -0.26444203 0.032371402
-0.093669996 -0.26410079 0.028908998
-0.093669854 -0.26375464 0.025394738
-0.093669392 -0.26340353 0.021831185
-0.093668908 -0.2630474 0.018216401
-0.093668476 -0.26268601 0.014549106
-0.09366823 -0.26231945 0.01082769
0.093681626 -0.24173374 0.048798829
-0.093677267 -0.27024394 0.081115425
-0.093676858 -0.26997378 0.078309029
-0.09367644 -0.26970014 0.075466901
-0.093676001 -0.26942301 0.072588295
-0.093675546 -0.2691423 0.069672614
-0.10557655 -0.26742604 0.035766035
-0.10428147 -0.26727584 0.035954773
-0.10298797 -0.26712579 0.036143214
-0.10169602 -0.26697594 0.036331475
-0.10040563 -0.26682621 0.036519468
-0.099116795 -0.26667672 0.036707282
-0.097829506 -0.26652738 0.036894888
-0.096543737 -0.26637822 0.037082195
-0.095259547 -0.26622924 0.037269354
-0.093976893 -0.26608047 0.037456214
-0.093671925 -0.2657969 0.034922153
-0.093670741 -0.26546735 0.031500161
-0.093669914 -0.26513308 0.028028846
-0.093669645 -0.26479405 0.024506807
-0.093669161 -0.26445019 0.020934969
-0.093668677 -0.26410136 0.017311722
-0.09366858 -0.26374742 0.013634771
0.093681268 -0.24294703 0.050624996
-0.093677439 -0.2711693 0.080354035
-0.093677044 -0.27090481 0.077541411
-0.093676604 -0.27063698 0.074692965
-0.093676172 -0.27036572 0.07180804
-0.093675748 -0.270091 0.068885773
-0.10573394 -0.26842931 0.034507602
-0.10443702 -0.26827827 0.034697354
-0.10314164 -0.26812738 0.034886837
-0.10184783 -0.26797673 0.035076082
-0.1005556 -0.2678262 0.035265148
-0.09926489 -0.26767591 0.035453975
-0.097975761 -0.26752576 0.035642505
-0.096688174 -0.26737583 0.035830885
-0.095402136 -0.26722604 0.036018997
-0.094117634 -0.26707643 0.036206931
-0.093671583 -0.26681632 0.034057766
-0.093670391 -0.26649371 0.030627847
-0.093669817 -0.26616648 0.02714783
-0.093669429 -0.2658346 0.023617893
-0.093668908 -0.26549795 0.02003783
-0.093668729 -0.26515651 0.016405165
-0.09366864 -0.26480997 0.012719542
0.093680911 -0.24414779 0.052432358
-0.093677603 -0.27209547 0.0795919
-0.093677185 -0.27183676 0.076773077
-0.093676776 -0.27157474 0.073918283
-0.093676366 -0.27130938 0.071026832
-0.10719214 -0.26958731 0.033054858
-0.10589177 -0.26943532 0.033245742
-0.10459297 -0.26928338 0.033436507
-0.10329574 -0.26913175 0.033626974
-0.10200006 -0.26898026 0.033817321
-0.10070597 -0.26882896 0.034007341
-0.099413425 -0.2686778 0.034197181
-0.098122418 -0.26852691 0.034386814
-0.096833006 -0.26837611 0.034576148
-0.095545098 -0.26822552 0.034765273
-0.094258763 -0.26807517 0.03495422
-0.093671218 -0.26783681 0.033192486
-0.093670033 -0.2675212 0.029754668
-0.093669645 -0.26720101 0.026266009
-0.093669176 -0.26687631 0.022728086
-0.093668856 -0.26654693 0.019139051
-0.093668841 -0.26621273 0.015497446
-0.093668379 -0.26587379 0.011804283
0.093680128 -0.24533737 0.054232836
-0.093677796 -0.27302262 0.078828961
-0.093677394 -0.27276966 0.076003909
-0.093676955 -0.27251342 0.073142797
-0.093676522 -0.27225396 0.070244938
-0.10735232 -0.27059686 0.031788409
-0.10605004 -0.27044401 0.031980455
-0.10474933 -0.27029136 0.032172233
-0.10345026 -0.2701388 0.032363743
-0.10215271 -0.26998657 0.032555103
-0.10085674 -0.26983446 0.032746166
-0.099562347 -0.26968247 0.03293696
-0.098269492 -0.26953074 0.033127546
-0.096978195 -0.26937911 0.033317983
-0.095688477 -0.26922774 0.033508122
-0.094400309 -0.26907656 0.033698052
-0.093670852 -0.26885843 0.032326251
-0.093669698 -0.26854983 0.028880388
-0.093669422 -0.2682367 0.025383383
-0.093668982 -0.26791918 0.021837115
-0.09366896 -0.26759699 0.018238872
-0.093668953 -0.26727024 0.014588714
-0.093668103 -0.26693881 0.010887951
0.093686998 -0.24366195 0.02416113
0.093679726 -0.24651377 0.056004494
-0.093678378 -0.27419478 0.080861121
-0.093677975 -0.27395064 0.078065306
-0.093677551 -0.27370346 0.075234026
-0.093677126 -0.27345306 0.072366595
-0.10881862 -0.27176309 0.030325323
-0.10751289 -0.27160925 0.030518591
-0.10620877 -0.27145553 0.030711621
-0.10490616 -0.27130201 0.030904442
-0.10360519 -0.27114874 0.031096995
-0.10230578 -0.27099559 0.031289339
-0.10100793 -0.27084267 0.031481475
-0.099711664 -0.27068987 0.031673342
-0.098416962 -0.27053732 0.031865001
-0.097123794 -0.27038491 0.032056421
-0.095832229 -0.27023271 0.032247543
-0.094542205 -0.27008072 0.032438487
-0.093670517 -0.26988122 0.031459063
-0.093669645 -0.2695795 0.028004497
-0.093669176 -0.26927355 0.024499863
-0.093669102 -0.26896313 0.020944297
-0.093669079 -0.26864827 0.01733765
-0.093668766 -0.26832896 0.013679832
0.093686789 -0.24492261 0.026203245
0.093679652 -0.2476774 0.057749957
-0.093678549 -0.27511802 0.080102831
-0.093678132 -0.2748796 0.077300876
-0.093677714 -0.27463818 0.074463367
-0.09367732 -0.27439362 0.07158953
-0.10898153 -0.27277905 0.029050976
-0.10767393 -0.27262431 0.029245257
-0.10636789 -0.27246982 0.02943933
-0.10506342 -0.2723155 0.029633224
-0.10376055 -0.27216133 0.02982679
-0.10245927 -0.27200744 0.030020148
-0.10115957 -0.27185363 0.030213296
-0.099861391 -0.27170005 0.030406237
-0.098564826 -0.27154669 0.030598849
-0.097269818 -0.27139348 0.030791283
-0.09597639 -0.27124047 0.030983537
-0.094684497 -0.27108762 0.031175494
-0.09367016 -0.27090508 0.030591011
-0.093669415 -0.27061033 0.027128011
-0.093669213 -0.27031144 0.023614526
-0.093669198 -0.2700083 0.020050526
-0.093669184 -0.26970074 0.016435444
-0.093668498 -0.26938882 0.012770116
0.093686223 -0.24617058 0.028233916
0.093679555 -0.24882933 0.059477806
-0.09367869 -0.27604219 0.079343945
-0.093678318 -0.27580947 0.076535761
-0.093677893 -0.27557382 0.073691905
-0.1101334 -0.27398011 0.028408945
-0.10887558 -0.2738204 0.028471798
-0.10761856 -0.27366075 0.028534651
-0.1063624 -0.27350122 0.028597444
-0.10510708 -0.2733418 0.028660208
-0.1038526 -0.27318254 0.028722912
-0.10259897 -0.27302334 0.028785586
-0.10131158 -0.27286747 0.028941631
-0.10001154 -0.27271304 0.029135585
-0.098713107 -0.27255881 0.0293293
-0.097416222 -0.27240479 0.029522747
-0.096120939 -0.27225095 0.029715985
-0.094827183 -0.27209729 0.029909015
-0.093669809 -0.27192998 0.029721916
-0.09366934 -0.27164233 0.026250243
-0.093669318 -0.27135056 0.022728056
-0.093669303 -0.27105457 0.019155771
-0.093669154 -0.2707544 0.015532643
-0.093668245 -0.27044991 0.011859417
0.093685582 -0.24740534 0.030244797
0.093679458 -0.24996965 0.06118831
-0.093678683 -0.27696723 0.078584701
-0.093678474 -0.27674025 0.075769812
-0.11122019 -0.27518672 0.027934909
-0.1099621 -0.27502662 0.027997971
-0.10870481 -0.27486664 0.028060943
-0.10744841 -0.27470675 0.028123885
-0.10619283 -0.27454695 0.028186768
-0.1049381 -0.27438721 0.028249681
-0.10368421 -0.27422768 0.028312534
-0.10243113 -0.27406818 0.028375298
-0.10117892 -0.27390879 0.028438032
-0.099927507 -0.27374947 0.028500766
-0.09867695 -0.27359033 0.02856341
-0.097427227 -0.2734313 0.028626055
-0.09617833 -0.27327231 0.02868861
-0.094930246 -0.27311352 0.028751165
-0.093676232 -0.27295545 0.028832823
-0.093669444 -0.2726754 0.025370896
-0.093669437 -0.27239072 0.021840572
-0.093669407 -0.27210203 0.018259972
-0.093668886 -0.27180919 0.014629483
-0.093667977 -0.27151224 0.010947675
0.09368562 -0.24862519 0.032215208
0.093679376 -0.25109866 0.062881738
-0.093678683 -0.27789322 0.077824622
-0.093678668 -0.27767199 0.075003147
-0.11104845 -0.27623272 0.027524143
-0.10979091 -0.27607229 0.027587295
-0.10853428 -0.27591199 0.027650416
-0.10727842 -0.27575186 0.027713478
-0.10602343 -0.27559173 0.02777651
-0.10476927 -0.27543175 0.027839482
-0.10351595 -0.27527186 0.027902395
-0.10226345 -0.27511212 0.027965337
-0.10101181 -0.27495244 0.02802819
-0.099760979 -0.27479291 0.028091013
-0.098510988 -0.2746335 0.028153747
-0.097261839 -0.27447414 0.028216571
-0.096013494 -0.27431491 0.028279245
-0.094765984 -0.2741558 0.028341979
-0.093669549 -0.27398318 0.027979732
-0.093669541 -0.27370957 0.024490625
-0.093669534 -0.27343208 0.020952135
-0.093669534 -0.27315065 0.017363191
-0.093668625 -0.27286521 0.01372537
-0.093667693 -0.27257571 0.010034889
0.093685359 -0.24983279 0.034172922
-0.093678661 -0.27882013 0.077063859
-0.11213463 -0.27743858 0.027050406
-0.11087685 -0.27727777 0.027113795
-0.10961991 -0.27711707 0.027177036
-0.10836381 -0.2769565 0.027240247
-0.10710857 -0.27679604 0.027303398
-0.10585413 -0.27663568 0.027366579
-0.10460056 -0.2764754 0.02742964
-0.10334784 -0.27631521 0.027492672
-0.1020959 -0.2761552 0.027555734
-0.1008448 -0.27599528 0.027618736
-0.099594563 -0.27583545 0.027681708
-0.098345131 -0.27567571 0.027744651
-0.097096547 -0.27551612 0.027807444
-0.095848784 -0.27535659 0.027870297
-0.094601862 -0.27519724 0.027933151
-0.09366966 -0.27501142 0.027106524
-0.093669653 -0.27474496 0.02360937
-0.093669631 -0.27447462 0.020062715
-0.093669288 -0.27420044 0.016466409
-0.093668364 -0.27392247 0.012820154
0.093684979 -0.25102797 0.036113769
-0.09367875 -0.27974793 0.076302141
-0.11196258 -0.27848303 0.026640296
-0.1107054 -0.27832195 0.026703686
-0.10944901 -0.27816096 0.026767105
-0.1081935 -0.27800012 0.026830435
-0.10693884 -0.27783942 0.026893765
-0.10568498 -0.27767876 0.026957035
-0.10443195 -0.27751821 0.027020305
-0.10317977 -0.27735779 0.027083457
-0.10192847 -0.27719745 0.027146578
-0.10067794 -0.27703723 0.027209699
-0.099428251 -0.27687714 0.027272791
-0.098179415 -0.27671713 0.027335793
-0.096931405 -0.27655721 0.027398795
-0.09568423 -0.27639744 0.027461708
-0.09443786 -0.27623776 0.02752462
-0.09366978 -0.27604082 0.026232421
-0.093669765 -0.27578136 0.022727191
-0.093669765 -0.27551827 0.019172251
-0.093669027 -0.27525145 0.015568733
-0.093668096 -0.27498081 0.011914015
0.093684584 -0.25221056 0.038034201
-0.093678571 -0.28067666 0.075540364
-0.11179064 -0.27952662 0.026230544
-0.11053401 -0.27936527 0.026294112
-0.10927825 -0.27920401 0.026357591
-0.10802329 -0.2790429 0.0264211
-0.10676921 -0.27888188 0.02648446
-0.10551593 -0.27872097 0.026547879
-0.1042635 -0.27856016 0.026611239
-0.1030119 -0.27839938 0.026674569
-0.10176112 -0.27823877 0.026737839
-0.10051119 -0.27807829 0.02680102
-0.099262103 -0.27791792 0.026864141
-0.098013811 -0.27775764 0.026927322
-0.096766375 -0.27759749 0.026990414
-0.095519759 -0.27743739 0.027053475
-0.094274007 -0.27727747 0.027116418
-0.093669891 -0.2770713 0.025357306
-0.093669869 -0.27681896 0.021844
-0.093669675 -0.27656308 0.01828146
-0.093668774 -0.27630365 0.014670044
-0.09366782 -0.27604041 0.011006773
0.093684196 -0.25338075 0.039934486
-0.11287569 -0.28073114 0.025757551
-0.11161886 -0.2805694 0.025821209
-0.1103628 -0.28040773 0.025884897
-0.10910758 -0.28024623 0.025948495
-0.10785324 -0.28008479 0.026012123
-0.10659972 -0.27992347 0.026075631
-0.10534703 -0.2797623 0.02613911
-0.10409516 -0.27960119 0.026202559
-0.10284415 -0.27944019 0.026265979
-0.10159396 -0.27927929 0.026329339
-0.1003446 -0.27911857 0.026392639
-0.099096082 -0.2789579 0.026455939
-0.097848378 -0.27879733 0.026519179
-0.096601501 -0.27863684 0.02658242
-0.095355466 -0.27847648 0.026645541
-0.09411025 -0.27831623 0.026708692
-0.093670018 -0.2781029 0.024481237
-0.093669996 -0.27785775 0.020959795
-0.0936694 -0.27760914 0.017390132
-0.09366852 -0.27735692 0.013770342
-0.093667574 -0.27710116 0.010098547
0.093683824 -0.25453874 0.041814953
-0.11270348 -0.28177324 0.025348395
-0.11144716 -0.28161126 0.025412232
-0.1101917 -0.28144935 0.025475979
-0.1089371 -0.28128755 0.025539696
-0.10768332 -0.28112578 0.025603414
-0.10643036 -0.28096423 0.025667042
-0.10517825 -0.28080279 0.025730699
-0.10392698 -0.28064138 0.025794208
-0.10267653 -0.28048012 0.025857747
-0.10142693 -0.28031892 0.025921196
-0.10017812 -0.28015786 0.025984675
-0.09893018 -0.27999693 0.026048064
-0.097683065 -0.27983609 0.026111364
-0.096436784 -0.27967533 0.026174664
-0.0951913 -0.27951473 0.026237965
-0.093946673 -0.27935421 0.026301205
-0.093670107 -0.2791357 0.023604214
-0.093670063 -0.27889767 0.020074844
-0.093669146 -0.27865621 0.016497791
-0.093668245 -0.27841142 0.012869656
0.093683459 -0.25568473 0.043675959
-0.11253136 -0.28281456 0.024939597
-0.11127566 -0.28265223 0.025003552
-0.11002076 -0.28249007 0.025067449
-0.10876673 -0.28232795 0.025131315
-0.10751354 -0.28216603 0.025195062
-0.10626116 -0.28200409 0.025258839
-0.10500962 -0.28184235 0.025322586
-0.10375893 -0.28168073 0.025386214
-0.10250905 -0.28151917 0.025449872
-0.10126001 -0.28135774 0.02551344
-0.10001183 -0.28119633 0.025576949
-0.098764427 -0.28103513 0.025640488
-0.097517878 -0.28087404 0.025703967
-0.096272171 -0.28071299 0.025767356
-0.095027275 -0.28055215 0.025830686
-0.093783222 -0.28039131 0.025894016
-0.093670219 -0.28016958 0.022726268
-0.093669809 -0.2799387 0.019189805
-0.093668886 -0.27970451 0.015604526
-0.093667977 -0.27946705 0.011967957
0.093682885 -0.25681928 0.045523107
-0.11361536 -0.28401765 0.024467111
-0.11235942 -0.28385496 0.024531156
-0.11110426 -0.28369239 0.024595231
-0.10984998 -0.28352994 0.024659216
-0.10859652 -0.28336754 0.024723172
-0.10734389 -0.28320527 0.024787098
-0.10609211 -0.28304309 0.024850905
-0.10484114 -0.28288105 0.024914771
-0.10359103 -0.28271919 0.024978548
-0.10234173 -0.28255734 0.025042295
-0.10109325 -0.28239563 0.025105953
-0.099845633 -0.28223401 0.025169611
-0.098598838 -0.28207251 0.025233209
-0.097352847 -0.28191105 0.025296807
-0.096107706 -0.28174981 0.025360376
-0.094863378 -0.28158861 0.025423825
-0.093670331 -0.28142521 0.025343776
-0.093670346 -0.28120455 0.021847308
-0.093669549 -0.28098086 0.018303782
-0.09366864 -0.28075403 0.014710248
-0.093667716 -0.28052396 0.011065274
0.093687192 -0.25588924 0.014824897
0.093682066 -0.25794262 0.047358513
-0.11344299 -0.28505749 0.024058908
-0.11218759 -0.28489447 0.024123132
-0.11093307 -0.28473166 0.024187207
-0.10967933 -0.28456891 0.024251312
-0.10842644 -0.28440621 0.024315387
-0.10717439 -0.28424367 0.024379462
-0.10592317 -0.28408128 0.024443388
-0.10467282 -0.28391901 0.024507284
-0.10342325 -0.28375676 0.02457121
-0.10217454 -0.28359467 0.024635047
-0.10092665 -0.28343266 0.024698883
-0.099679574 -0.28327075 0.02476263
-0.098433368 -0.28310892 0.024826348
-0.097187951 -0.28294724 0.024890035
-0.095943376 -0.28278574 0.024953634
-0.094699614 -0.28262424 0.025017232
-0.093670443 -0.28245419 0.024471968
-0.093670167 -0.28224072 0.020968258
-0.09366928 -0.28202423 0.017416805
-0.093668364 -0.28180465 0.013814956
-0.093667455 -0.28158194 0.010161579
0.093686849 -0.2570892 0.016930938
0.093681253 -0.25905448 0.049175203
-0.1131973 -0.28609765 0.023838967
-0.11197742 -0.28593385 0.023814499
-0.1107579 -0.28577009 0.023790121
-0.1095088 -0.28560698 0.023843765
-0.10825652 -0.28544408 0.023907959
-0.10700504 -0.28528127 0.023972094
-0.10575441 -0.28511858 0.024036199
-0.10450459 -0.28495598 0.024100274
-0.10325564 -0.28479347 0.02416423
-0.10200749 -0.28463107 0.024228156
-0.10076018 -0.2844688 0.024292082
-0.09951368 -0.2843067 0.024355978
-0.098268017 -0.28414461 0.024419814
-0.097023197 -0.2839826 0.024483562
-0.095779195 -0.28382081 0.024547309
-0.094536021 -0.28365907 0.024611026
-0.093670569 -0.2834844 0.023599118
-0.093669906 -0.28327799 0.020088434
-0.09366902 -0.28306872 0.016528845
-0.093668118 -0.28285643 0.012918711
0.093686529 -0.2582761 0.01901406
0.093680449 -0.26015496 0.050973266
-0.11402351 -0.28730172 0.024020076
-0.11280526 -0.28713804 0.023995638
-0.11158735 -0.28697428 0.02397123
-0.11036982 -0.28681058 0.023946792
-0.10915264 -0.28664696 0.023922414
-0.10793582 -0.28648338 0.023897976
-0.1067194 -0.28631991 0.023873568
-0.10550333 -0.28615645 0.023849189
-0.10428762 -0.28599304 0.023824781
-0.10307231 -0.28582966 0.023800403
-0.10184058 -0.28566667 0.023821622
-0.10059384 -0.28550416 0.023885638
-0.099347919 -0.28534174 0.023949653
-0.09810283 -0.28517935 0.024013579
-0.096858568 -0.28501716 0.024077475
-0.095615141 -0.28485498 0.024141282
-0.094372526 -0.28469303 0.024205118
-0.093670554 -0.28451568 0.022725731
-0.093669653 -0.28431645 0.019207716
-0.093668766 -0.28411433 0.015639931
-0.093667857 -0.28390941 0.012021452
0.093686193 -0.25945023 0.021074682
0.093679659 -0.2612443 0.052753091
-0.11363072 -0.28833866 0.0241763
-0.11241444 -0.28817496 0.024151832
-0.11119851 -0.28801131 0.024127394
-0.10998292 -0.28784782 0.024103045
-0.10876773 -0.28768432 0.024078608
-0.10755291 -0.28752083 0.024054259
-0.10633845 -0.28735742 0.024029851
-0.10512434 -0.28719407 0.024005473
-0.1039106 -0.28703076 0.023981124
-0.10269724 -0.28686747 0.023956746
-0.10148423 -0.28670424 0.023932368
-0.10027158 -0.2865411 0.023908019
-0.099059284 -0.28637797 0.023883641
-0.097847365 -0.28621489 0.023859352
-0.096635811 -0.2860519 0.023835003
-0.095424637 -0.28588894 0.023810685
-0.094209187 -0.28572604 0.023799568
-0.093670279 -0.28554812 0.021852106
-0.093669333 -0.28535601 0.018326133
-0.093668416 -0.28516117 0.014750302
-0.09366744 -0.28496355 0.011123598
0.093685858 -0.26061171 0.023113251
0.093679436 -0.26232168 0.054499477
-0.11323917 -0.28937227 0.024331927
-0.11202483 -0.28920874 0.024307579
-0.11081088 -0.28904518 0.024283141
-0.10959729 -0.28888178 0.024258733
-0.10838404 -0.28871837 0.024234384
-0.10717116 -0.28855506 0.024209976
-0.10595866 -0.28839171 0.024185628
-0.10474652 -0.28822845 0.024161249
-0.10353474 -0.28806517 0.024136871
-0.10232334 -0.28790212 0.024112552
-0.10111228 -0.28773892 0.024088234
-0.099901564 -0.28757587 0.024063945
-0.09869127 -0.28741282 0.024039567
-0.09748131 -0.28724983 0.024015218
-0.096271701 -0.28708699 0.023990929
-0.095062442 -0.28692409 0.02396667
-0.093853556 -0.28676122 0.023942351
-0.093669809 -0.28658164 0.020978123
-0.093668878 -0.28639668 0.017443985
-0.093667939 -0.28620911 0.013860017
-0.093666986 -0.28601882 0.010224968
0.093685552 -0.26176083 0.025129974
0.093679518 -0.26338783 0.056219965
-0.11284883 -0.29040274 0.024487138
-0.11163649 -0.2902393 0.0244627
-0.11042447 -0.2900759 0.024438351
-0.10921282 -0.28991252 0.024414062
-0.10800155 -0.28974918 0.024389595
-0.10679063 -0.28958598 0.024365276
-0.10558007 -0.28942275 0.024340957
-0.10436989 -0.28925955 0.024316579
-0.10316008 -0.28909644 0.024292171
-0.10195061 -0.28893337 0.024267882
-0.10074151 -0.28877038 0.024243593
-0.099532746 -0.28860742 0.024219275
-0.098324373 -0.28844449 0.024194956
-0.097116366 -0.28828162 0.024170667
-0.095908701 -0.28811884 0.024146408
-0.094701387 -0.28795603 0.024122119
-0.093670264 -0.28779164 0.023596138
-0.093669347 -0.28761628 0.020103127
-0.093668424 -0.28743848 0.016561002
-0.09366747 -0.28725812 0.012968779
0.093684867 -0.26289824 0.027135938
0.094180569 -0.26369742 0.044389307
-0.1136705 -0.29159334 0.02466619
-0.1124597 -0.29142994 0.024641901
-0.11124932 -0.29126659 0.024617493
-0.11003926 -0.29110327 0.024593115
-0.10882957 -0.29093999 0.024568796
-0.10762025 -0.29077676 0.024544388
-0.10641126 -0.29061362 0.024520099
-0.10520268 -0.29045051 0.024495721
-0.10399441 -0.29028744 0.024471462
-0.10278656 -0.29012454 0.024447113
-0.10157903 -0.28996149 0.024422765
-0.10037187 -0.28979862 0.024398506
-0.099165082 -0.28963575 0.024374217
-0.097958617 -0.28947291 0.024349958
-0.096752554 -0.28931016 0.024325609
-0.095546834 -0.28914741 0.02430141
-0.094341472 -0.28898475 0.024277091
-0.093669817 -0.28882033 0.022728205
-0.093668893 -0.28865209 0.019227207
-0.093667947 -0.28848147 0.015676975
-0.093666993 -0.28830841 0.012076497
0.093684174 -0.26402366 0.029121131
0.094424568 -0.26442584 0.039561242
-0.11328063 -0.2926172 0.024820477
-0.1120718 -0.29245391 0.024796158
-0.11086334 -0.29229066 0.02477175
-0.10965525 -0.29212746 0.024747461
-0.10844751 -0.29196432 0.024723083
-0.1072401 -0.29180121 0.024698764
-0.1060331 -0.2916382 0.024674416
-0.10482643 -0.29147515 0.024650097
-0.10362013 -0.29131219 0.024625778
-0.10241418 -0.29114926 0.024601489
-0.1012086 -0.29098645 0.02457723
-0.1000034 -0.29082361 0.024552912
-0.098798536 -0.2906608 0.024528652
-0.09759403 -0.29049811 0.024504304
-0.096389882 -0.29033542 0.024480075
-0.095186099 -0.29017287 0.024455845
-0.093982674 -0.29001021 0.024431586
-0.093669347 -0.28985018 0.021859288
-0.093668438 -0.289689 0.018350333
-0.093667477 -0.28952557 0.014792025
-0.093666546 -0.28935981 0.011183351
0.093684159 -0.26513624 0.031065851
0.094533332 -0.26535851 0.03839156
-0.11289201 -0.2936379 0.024974197
-0.11168511 -0.29347467 0.024949878
-0.11047859 -0.2933116 0.024925619
-0.10927244 -0.29314846 0.024901241
-0.10806663 -0.29298547 0.024876893
-0.10686121 -0.29282242 0.024852574
-0.10565609 -0.29265949 0.024828285
-0.10445138 -0.29249659 0.024803966
-0.10324699 -0.29233369 0.024779707
-0.10204302 -0.29217091 0.024755359
-0.10083936 -0.2920081 0.0247311
-0.0996361 -0.29184541 0.024706781
-0.098433137 -0.29168278 0.024682581
-0.097230561 -0.29152015 0.024658322
-0.096028343 -0.29135755 0.024634093
-0.094826482 -0.29119501 0.024609864
-0.093669802 -0.29103297 0.024457932
-0.0936689 -0.29088107 0.020989448
-0.093667962 -0.29072696 0.017472535
-0.093667023 -0.29057077 0.013906062
-0.093666285 -0.29041234 0.010288417
0.093684196 -0.26623711 0.032988936
0.094642378 -0.2662935 0.037218928
-0.11250456 -0.29465547 0.02512753
-0.11129963 -0.29449236 0.025103182
-0.11009503 -0.29432932 0.025078893
-0.10889082 -0.2941663 0.025054544
-0.10768693 -0.29400334 0.025030285
-0.10648341 -0.29384038 0.025005966
-0.10528028 -0.29367751 0.024981648
-0.10407747 -0.29351479 0.024957418
-0.10287504 -0.29335204 0.0249331
-0.10167296 -0.29318929 0.02490887
-0.10047124 -0.29302669 0.024884582
-0.099269874 -0.29286405 0.024860352
-0.098068886 -0.29270148 0.024836034
-0.096868217 -0.29253894 0.024811834
-0.095667921 -0.29237649 0.024787664
-0.094468005 -0.29221404 0.024763376
-0.093669355 -0.29205796 0.023595005
-0.093668431 -0.29191303 0.020118684
-0.0936675 -0.2917662 0.016593754
-0.093666688 -0.29161718 0.013018817
0.093684226 -0.26732659 0.034892142
0.094751701 -0.26723093 0.036043257
-0.11211834 -0.29566979 0.025280327
-0.1109153 -0.29550675 0.025256068
-0.10971267 -0.29534382 0.025231719
-0.10851038 -0.29518092 0.02520746
-0.10730842 -0.29501811 0.025183171
-0.10610685 -0.29485527 0.025158852
-0.1049056 -0.29469252 0.025134653
-0.10370473 -0.2945298 0.025110304
-0.10250422 -0.29436719 0.025086105
-0.10130407 -0.29420456 0.025061816
-0.10010426 -0.29404202 0.025037557
-0.098904818 -0.29387951 0.025013298
-0.097705744 -0.29371706 0.024989069
-0.096507028 -0.29355466 0.024964839
-0.095308632 -0.29339224 0.02494067
-0.094110608 -0.29323 0.02491641
-0.093668886 -0.29308408 0.022731185
-0.093667977 -0.29294622 0.019246966
-0.093667038 -0.29280645 0.01571402
-0.093666524 -0.29266471 0.012129992
0.093758158 -0.26831234 0.034686893
0.094861291 -0.26817074 0.034864604
-0.11293476 -0.29684392 0.025457025
-0.11173328 -0.29668093 0.025432765
-0.11053221 -0.29651812 0.025408417
-0.10933147 -0.29635522 0.025384158
-0.10813111 -0.29619244 0.025359839
-0.10693107 -0.29602969 0.02533558
-0.10573143 -0.295867 0.025311291
-0.10453209 -0.29570436 0.025287062
-0.10333315 -0.2955417 0.025262803
-0.10213455 -0.29537925 0.025238544
-0.10093632 -0.29521671 0.025214314
-0.099738434 -0.29505426 0.025190026
-0.098540895 -0.2948918 0.025165826
-0.097343743 -0.2947295 0.025141597
-0.096146904 -0.29456717 0.025117397
-0.094950452 -0.29440489 0.025093168
-0.093754336 -0.29424265 0.025068998
-0.093668438 -0.29411128 0.021866411
-0.093667507 -0.29398045 0.018374324
-0.093666889 -0.29384783 0.014832407
-0.093666397 -0.29371336 0.011240155
0.093866661 -0.26925528 0.033504367
0.094971173 -0.26911297 0.033682942
-0.11254897 -0.29785189 0.025608957
-0.11134947 -0.29768908 0.025584608
-0.11015029 -0.29752627 0.025560349
-0.10895146 -0.29736352 0.02553606
-0.10775302 -0.29720083 0.025511801
-0.1065549 -0.29703817 0.025487512
-0.10535716 -0.2968756 0.025463253
-0.10415979 -0.29671308 0.025438994
-0.10296273 -0.29655054 0.025414735
-0.10176606 -0.29638812 0.025390476
-0.10056971 -0.29622567 0.025366277
-0.099373728 -0.29606333 0.025342107
-0.098178111 -0.295901 0.025317878
-0.096982822 -0.29573873 0.025293678
-0.095787935 -0.29557654 0.025269479
-0.094593368 -0.29541439 0.025245339
-0.093668886 -0.29526159 0.024452746
-0.093667977 -0.29513955 0.021000743
-0.093667269 -0.29501581 0.017500103
-0.09366677 -0.29489043 0.013949782
-0.093666241 -0.29476321 0.010349423
0.093975492 -0.27020067 0.032318741
-0.11216442 -0.29885674 0.025760323
-0.11096682 -0.29869398 0.025736004
-0.10976955 -0.29853126 0.025711775
-0.10857265 -0.29836866 0.025687516
-0.10737611 -0.29820609 0.025663227
-0.10617991 -0.29804349 0.025638998
-0.10498407 -0.29788104 0.025614709
-0.10378857 -0.29771861 0.025590479
-0.10259344 -0.29755622 0.02556625
-0.10139866 -0.2973938 0.025542051
-0.10020425 -0.29723153 0.025517821
-0.09901017 -0.29706931 0.025493622
-0.097816437 -0.2969071 0.025469422
-0.096623071 -0.29674494 0.025445253
-0.095430039 -0.29658282 0.025421113
-0.09423741 -0.29642075 0.025396943
-0.093668446 -0.29628396 0.023593903
-0.093667619 -0.29616895 0.020133793
-0.093667135 -0.29605234 0.016624629
-0.093666621 -0.29593408 0.013066232
0.094084561 -0.2711485 0.031129986
-0.11164832 -0.29985106 0.026252031
-0.11049341 -0.29969081 0.026124507
-0.10933838 -0.29953036 0.025996894
-0.10818321 -0.29937005 0.02586931
-0.10700034 -0.29920822 0.025814235
-0.10580605 -0.29904577 0.025789976
-0.1046121 -0.29888338 0.025765806
-0.10341853 -0.29872102 0.025741547
-0.1022253 -0.29855874 0.025717318
-0.10103244 -0.29839653 0.025693119
-0.099839881 -0.29823428 0.025668919
-0.098647736 -0.2980721 0.02564472
-0.097455904 -0.29791006 0.02562058
-0.096264422 -0.29774803 0.02559638
-0.09507329 -0.29758599 0.02557227
-0.093882516 -0.29742405 0.025548071
-0.093667984 -0.29730746 0.022734195
-0.093667507 -0.29719943 0.019265354
-0.093666986 -0.29708996 0.015748173
-0.093666486 -0.29697895 0.012181699
0.093687527 -0.27160305 0.011800468
0.094193935 -0.27209872 0.029938251
-0.11102003 -0.300834 0.027036011
-0.1098684 -0.30067423 0.026908875
-0.10871661 -0.3005144 0.026781708
-0.10756469 -0.30035454 0.026654482
-0.1064126 -0.30019468 0.026527345
-0.10526036 -0.30003482 0.026400119
-0.10410799 -0.29987493 0.026272833
-0.10295546 -0.29971498 0.026145637
-0.10180277 -0.299555 0.026018381
-0.10064995 -0.29939511 0.025891036
-0.09947668 -0.299234 0.02581951
-0.098286368 -0.29907197 0.025795341
-0.097096466 -0.2989099 0.025771171
-0.095906854 -0.29874793 0.025747091
-0.094717637 -0.29858607 0.025722921
-0.093668446 -0.29843158 0.025301486
-0.093667872 -0.29833204 0.02187255
-0.093667343 -0.29823107 0.018395931
-0.093666852 -0.29812866 0.014870763
-0.093666352 -0.29802489 0.011296272
0.093687348 -0.27270412 0.013894022
0.094301425 -0.2730535 0.02880317
-0.11039533 -0.30181134 0.027815431
-0.10924695 -0.30165201 0.027688712
-0.10809839 -0.30149275 0.027561992
-0.10694971 -0.30133346 0.027435184
-0.10580086 -0.30117407 0.027308404
-0.10465185 -0.30101472 0.027181625
-0.10350272 -0.30085537 0.027054787
-0.10235345 -0.30069596 0.026927978
-0.10120398 -0.30053654 0.026801109
-0.10005441 -0.30037707 0.026674211
-0.098904639 -0.30021763 0.026547313
-0.097754747 -0.30005816 0.026420444
-0.09660472 -0.29989862 0.026293486
-0.095454529 -0.29973906 0.026166588
-0.094304204 -0.29957956 0.026039541
-0.093668208 -0.2994504 0.024447024
-0.093667731 -0.29935777 0.021010041
-0.093667217 -0.29926383 0.017525554
-0.09366671 -0.29916859 0.013992488
-0.093666211 -0.29907206 0.010409802
0.093687147 -0.27379334 0.015965104
0.094381928 -0.27403438 0.028417975
-0.10977417 -0.3027831 0.0285905
-0.10862901 -0.30262437 0.028464168
-0.1074837 -0.30246562 0.028337777
-0.10633819 -0.3023068 0.028211445
-0.10519256 -0.30214795 0.028085083
-0.10404679 -0.30198911 0.027958721
-0.10290088 -0.30183023 0.02783227
-0.10175484 -0.3016713 0.027705729
-0.10060867 -0.30151248 0.027579188
-0.099462315 -0.30135351 0.027452677
-0.098315813 -0.30119458 0.027326107
-0.097169198 -0.30103561 0.027199477
-0.096022405 -0.30087662 0.027072906
-0.094875485 -0.30071762 0.026946276
-0.093728386 -0.3005586 0.026819646
-0.093668066 -0.3004702 0.02359128
-0.093667597 -0.30038449 0.020146608
-0.093667075 -0.30029762 0.016654283
-0.093666583 -0.30020961 0.013113171
0.093686953 -0.27487102 0.018014163
0.094462357 -0.27501461 0.028033167
-0.11029841 -0.30390772 0.029486954
-0.10915663 -0.30374941 0.02936092
-0.10801469 -0.30359119 0.029234946
-0.10687257 -0.30343291 0.029108912
-0.10573035 -0.30327463 0.028982848
-0.10458793 -0.30311626 0.028856814
-0.10344539 -0.30295795 0.02873075
-0.10230271 -0.30279961 0.028604656
-0.10115985 -0.30264127 0.028478563
-0.10001688 -0.30248287 0.028352439
-0.098873749 -0.30232444 0.028226256
-0.097730458 -0.30216604 0.028100103
-0.096587017 -0.30200759 0.02797398
-0.095443435 -0.3018491 0.027847767
-0.094299719 -0.30169064 0.027721584
-0.093668595 -0.30156872 0.026139677
-0.093667962 -0.30149108 0.022734523
-0.093667448 -0.30141234 0.019282252
-0.093666948 -0.30133262 0.015781999
-0.093666434 -0.30125171 0.012232959
0.093686529 -0.27593747 0.020048469
0.094542734 -0.27599403 0.027648538
-0.10968139 -0.30486804 0.030252099
-0.10854274 -0.3047103 0.030126572
-0.10740397 -0.30455258 0.030000955
-0.10626506 -0.30439484 0.029875338
-0.10512597 -0.30423698 0.029749691
-0.10398676 -0.30407926 0.029624045
-0.10284737 -0.3039214 0.029498398
-0.10170791 -0.30376357 0.029372662
-0.10056824 -0.30360577 0.029246986
-0.09942843 -0.30344784 0.02912125
-0.098288491 -0.30328992 0.028995544
-0.097148374 -0.303132 0.028869808
-0.096008115 -0.30297405 0.028744042
-0.094867721 -0.30281606 0.028618246
-0.093727186 -0.30265805 0.028492421
-0.093668506 -0.30258384 0.025289655
-0.093667917 -0.30251306 0.021876812
-0.093667313 -0.30244136 0.018416941
-0.093666799 -0.3023687 0.01490882
-0.093666293 -0.30229497 0.011351705
0.093686089 -0.27699268 0.022062153
0.094623037 -0.27697265 0.027264297
-0.10906775 -0.30582303 0.031013072
-0.10793229 -0.30566579 0.030887872
-0.10679669 -0.30550858 0.030762672
-0.10566093 -0.30535135 0.030637473
-0.10452501 -0.30519405 0.030512273
-0.10338897 -0.30503672 0.030386955
-0.10225278 -0.3048794 0.030261695
-0.10111643 -0.30472213 0.030136377
-0.099979922 -0.30456465 0.030011088
-0.098843306 -0.30440739 0.029885799
-0.097706512 -0.30424991 0.02976048
-0.096569575 -0.30409259 0.029635102
-0.095432475 -0.30393508 0.029509783
-0.094295286 -0.30377764 0.029384285
-0.09366902 -0.30366293 0.027813017
-0.093668424 -0.30359995 0.024438739
-0.093667805 -0.30353615 0.021018237
-0.093667209 -0.30347154 0.017550647
-0.093666688 -0.30340591 0.014034688
-0.093666151 -0.30333939 0.010469586
0.093685642 -0.27803671 0.024054736
0.094703302 -0.27795056 0.026880264
-0.1084576 -0.30677271 0.031769723
-0.10732528 -0.30661598 0.03164494
-0.10619281 -0.30645916 0.031520158
-0.10506021 -0.30630243 0.031395257
-0.10392744 -0.3061457 0.031270444
-0.10279453 -0.30598891 0.031145602
-0.10166147 -0.30583203 0.031020731
-0.10052828 -0.30567527 0.030895829
-0.099394932 -0.30551842 0.030770957
-0.098261423 -0.30536151 0.030646056
-0.097127795 -0.3052046 0.030521125
-0.095994025 -0.30504766 0.030396134
-0.094860099 -0.30489075 0.030271202
-0.093726024 -0.30473378 0.030146182
-0.093668923 -0.30467331 0.026968747
-0.093668334 -0.30461726 0.023586899
-0.093667723 -0.3045603 0.020158798
-0.093667105 -0.30450273 0.0166834
-0.093666531 -0.30444419 0.013159692
0.093685202 -0.27906987 0.026026458
0.094783485 -0.27892765 0.026496559
-0.10672166 -0.30756074 0.032397747
-0.10559233 -0.30740449 0.032273293
-0.10446283 -0.30724829 0.032148927
-0.1033332 -0.30709198 0.032024473
-0.10220341 -0.30693567 0.031900018
-0.10107347 -0.30677938 0.031775564
-0.099943399 -0.30662304 0.03165108
-0.098813199 -0.3064667 0.031526595
-0.097682856 -0.30631033 0.031402051
-0.096552335 -0.30615395 0.031277508
-0.095421672 -0.30599749 0.031152934
-0.094290882 -0.30584106 0.03102839
-0.093669437 -0.30573341 0.029467374
