ply
format ascii 1.0
comment PCL generated
element vertex 1322
property float x
property float y
property float z
element face 0
element camera 0
property float view_px
property float view_py
property float view_pz
property float x_axisx
property float x_axisy
property float x_axisz
property float y_axisx
property float y_axisy
property float y_axisz
property float z_axisx
property float z_axisy
property float z_axisz
property float focal
property float scalex
property float scaley
property float centerx
property float centery
property int viewportx
property int viewporty
property float k1
property float k2
end_header
-0.093669318 -0.26128307 0.034267515
-0.093668401 -0.26099068 0.032061219
-0.093667507 -0.26069596 0.029837102
-0.09366668 -0.26039886 0.027594864
-0.093665883 -0.26009935 0.025334239
-0.093665652 -0.25979742 0.023054212
-0.093665771 -0.25949314 0.020754963
-0.093665823 -0.25918633 0.01843679
-0.09366589 -0.25887695 0.016099423
-0.093665943 -0.25856501 0.013742566
-0.093666025 -0.25825042 0.01136601
0.13436025 -0.18450762 0.086944878
0.1343614 -0.18375385 0.08125335
0.13436265 -0.1829803 0.075413048
0.13436387 -0.18218628 0.069417894
0.13436514 -0.18137094 0.063261747
0.13436647 -0.18053344 0.056938022
0.13436781 -0.17967278 0.050439835
0.13436919 -0.17878802 0.043759704
-0.13355936 -0.285983 0.10103258
-0.13199371 -0.28544554 0.10132885
-0.13043234 -0.28490955 0.10162428
-0.12887521 -0.28437498 0.10191894
-0.12732236 -0.28384194 0.10221276
-0.12577377 -0.28331029 0.10250574
-0.12422931 -0.28278014 0.10279799
-0.12268904 -0.28225139 0.10308945
-0.12115302 -0.2817241 0.10338005
-0.11962113 -0.28119817 0.10366994
-0.11809336 -0.2806738 0.10395902
-0.11656972 -0.28015077 0.10424733
-0.11505024 -0.27962911 0.10453483
-0.11353476 -0.27910891 0.10482159
-0.11202345 -0.27859008 0.10510755
-0.11051615 -0.27807263 0.10539278
-0.10901288 -0.27755663 0.10567719
-0.10751367 -0.27704197 0.10596091
-0.10601843 -0.27652866 0.10624385
-0.10452724 -0.27601671 0.10652593
-0.10303999 -0.2755062 0.10680735
-0.1015567 -0.27499697 0.10708803
-0.10007735 -0.27448919 0.10736799
-0.09860193 -0.2739827 0.10764718
-0.097130433 -0.27347755 0.10792562
-0.095662832 -0.27297378 0.10820335
-0.094199143 -0.27247131 0.1084803
-0.093679674 -0.27215526 0.10751832
-0.093679495 -0.27194026 0.10586384
-0.093679324 -0.27172378 0.10419786
-0.09367913 -0.27150577 0.1025202
-0.093678944 -0.27128625 0.10083073
-0.093678713 -0.27106515 0.099129349
-0.093678549 -0.27084252 0.097415835
-0.093678303 -0.27061826 0.09569025
-0.093677975 -0.27039242 0.093952477
-0.09367761 -0.27016491 0.092202246
-0.093677431 -0.26993582 0.09043929
-0.093677156 -0.26970509 0.088663578
-0.093676969 -0.26947266 0.086875021
-0.093676731 -0.26923856 0.085073471
-0.093676545 -0.26900277 0.083258748
-0.093676321 -0.26876524 0.081430763
-0.093676075 -0.26852596 0.079589337
-0.093675829 -0.26828492 0.077734351
-0.093675636 -0.26804203 0.075865567
-0.09367536 -0.26779741 0.073983014
-0.093675144 -0.26755098 0.072086364
-0.093674891 -0.26730269 0.070175529
-0.093674645 -0.26705247 0.068250328
-0.093674369 -0.26680043 0.066310614
-0.093673922 -0.2665464 0.064356536
-0.11395761 -0.26989293 0.032677799
-0.11198723 -0.26926976 0.033459991
-0.11002575 -0.26864931 0.034238666
-0.10807312 -0.26803172 0.035013825
-0.1061293 -0.26741686 0.035785437
-0.10419413 -0.26680484 0.036553651
-0.10226768 -0.26619554 0.037318408
-0.10034972 -0.26558885 0.038079888
-0.098440342 -0.26498494 0.038837969
-0.096105017 -0.26430994 0.040255189
-0.09367118 -0.26362041 0.041838914
-0.093671069 -0.26334175 0.03969419
-0.093670473 -0.26306084 0.037533194
-0.093669601 -0.26277754 0.035355359
-0.093668729 -0.26249209 0.033159941
-0.09366785 -0.26220429 0.03094691
-0.093666993 -0.26191413 0.028715909
-0.093666181 -0.26162171 0.026466727
-0.093665697 -0.26132685 0.024198651
-0.093665786 -0.26102972 0.021911085
-0.093665838 -0.26073024 0.019604802
-0.093665905 -0.26042816 0.017279387
-0.093666002 -0.26012358 0.014934689
-0.093666039 -0.2598165 0.01257053
-0.093666144 -0.25950685 0.010186493
0.1343606 -0.18535115 0.085063726
0.13436177 -0.18460572 0.079329014
0.134363 -0.1838408 0.0734438
0.13436426 -0.18305551 0.067402095
0.13436556 -0.1822491 0.061197639
0.13436688 -0.18142061 0.054823607
0.13436824 -0.18056922 0.048273087
0.13436952 -0.17969383 0.041537881
-0.13329381 -0.28702179 0.10046056
-0.13172843 -0.28648284 0.1007576
-0.13016734 -0.28594545 0.10105389
-0.12861055 -0.28540948 0.10134923
-0.12705797 -0.28487498 0.10164386
-0.12550963 -0.2843419 0.10193771
-0.12396554 -0.28381035 0.1022307
-0.12242557 -0.28328019 0.10252294
-0.12088981 -0.28275147 0.10281438
-0.11935819 -0.28222418 0.10310501
-0.11783075 -0.28169832 0.10339484
-0.11630744 -0.28117388 0.10368392
-0.11478817 -0.28065082 0.10397223
-0.113273 -0.28012922 0.10425976
-0.11176197 -0.27960899 0.10454646
-0.11025497 -0.2790902 0.10483247
-0.10875197 -0.2785728 0.10511765
-0.10725307 -0.27805671 0.10540208
-0.10575815 -0.27754208 0.10568577
-0.10426722 -0.2770288 0.10596868
-0.10278023 -0.27651685 0.10625088
-0.10129722 -0.27600634 0.10653234
-0.099818155 -0.27549714 0.10681301
-0.098343022 -0.27498925 0.10709295
-0.096871816 -0.27448279 0.10737213
-0.095404498 -0.27397764 0.10765058
-0.093941078 -0.2734738 0.10792828
-0.093679532 -0.27321127 0.10662428
-0.093679361 -0.27299979 0.10496527
-0.093679138 -0.27278683 0.10329467
-0.093678921 -0.27257231 0.10161236
-0.093678758 -0.27235636 0.099918097
-0.093678586 -0.2721388 0.098211974
-0.093678407 -0.27191982 0.096493661
-0.093678042 -0.27169916 0.094763339
-0.093677729 -0.27147698 0.093020648
-0.093677349 -0.27125317 0.091265529
-0.093677044 -0.27102774 0.089497656
-0.093676835 -0.27080077 0.087716907
-0.093676619 -0.27057213 0.085923284
-0.093676381 -0.27034175 0.084116578
-0.09367612 -0.2701098 0.082296729
-0.093675949 -0.26987609 0.080463439
-0.093675695 -0.26964065 0.078616798
-0.093675479 -0.26940349 0.076756388
-0.093675256 -0.26916456 0.074882329
-0.093675025 -0.26892385 0.072994202
-0.093674779 -0.26868138 0.071092099
-0.093674555 -0.26843709 0.069175661
-0.093674295 -0.26819092 0.067244858
-0.11829674 -0.27244925 0.029470116
-0.11630338 -0.27181605 0.030264825
-0.11431909 -0.27118579 0.031055957
-0.11234383 -0.2705583 0.031843424
-0.11037748 -0.26993376 0.032627344
-0.10842 -0.2693119 0.033407778
-0.10647134 -0.26869294 0.034184635
-0.1045315 -0.26807678 0.034957975
-0.10260031 -0.26746336 0.035727918
-0.10067773 -0.26685265 0.036494374
-0.098763727 -0.26624465 0.037257463
-0.096858293 -0.26563939 0.038017094
-0.094961315 -0.26503682 0.038773417
-0.093670785 -0.26453969 0.038603783
-0.093669914 -0.26426321 0.036436647
-0.093669057 -0.2639845 0.034252107
-0.093668185 -0.26370355 0.032050043
-0.093667321 -0.26342034 0.029830247
-0.093666434 -0.26313487 0.02759245
-0.093665726 -0.26284704 0.025336176
-0.093665853 -0.26255706 0.023060203
-0.093665853 -0.26226467 0.020765722
-0.09366595 -0.2619698 0.018452197
-0.093666032 -0.26167265 0.01611957
-0.093666069 -0.26137289 0.0137676
-0.093666263 -0.26107073 0.011395812
0.13436094 -0.18620011 0.083170265
0.13436215 -0.18546334 0.077391833
0.13436338 -0.18470709 0.07146138
0.13436463 -0.1839307 0.065372586
0.13436595 -0.18313329 0.059119195
0.13436726 -0.18231405 0.05269441
0.13436863 -0.18147202 0.046090811
-0.13302818 -0.28806069 0.099888504
-0.13146314 -0.28752032 0.10018632
-0.12990238 -0.28698149 0.10048333
-0.12834582 -0.28644404 0.10077959
-0.12679358 -0.2859081 0.10107499
-0.12524556 -0.28537366 0.10136956
-0.12370168 -0.28484061 0.10166338
-0.12216202 -0.284309 0.10195643
-0.12062659 -0.28377891 0.10224858
-0.11909527 -0.28325021 0.10254002
-0.1175681 -0.28272292 0.10283065
-0.11604502 -0.28219709 0.10312051
-0.11452609 -0.28167266 0.10340953
-0.11301125 -0.28114966 0.10369781
-0.11150045 -0.28062806 0.10398537
-0.10999382 -0.28010786 0.10427204
-0.10849108 -0.27958906 0.10455805
-0.10699246 -0.2790716 0.10484326
-0.10549778 -0.27855557 0.10512769
-0.10400716 -0.27804092 0.10541138
-0.10252051 -0.27752766 0.10569429
-0.10103778 -0.27701572 0.10597646
-0.099558979 -0.27650514 0.10625792
-0.098084152 -0.27599594 0.10653856
-0.096613228 -0.27548808 0.10681853
-0.095146187 -0.27498159 0.10709772
-0.093683012 -0.27447644 0.10737619
-0.093679361 -0.27426916 0.10572872
-0.093679145 -0.27406114 0.10406509
-0.093678981 -0.27385172 0.10238984
-0.093678795 -0.27364078 0.10070279
-0.093678631 -0.27342841 0.099003822
-0.093678415 -0.27321452 0.09729287
-0.093678139 -0.27299908 0.095569938
-0.093677782 -0.27278209 0.093834758
-0.093677446 -0.27256349 0.092087209
-0.093677074 -0.27234343 0.090327084
-0.093676738 -0.27212176 0.088554263
-0.093676485 -0.27189845 0.086768538
-0.093676239 -0.27167353 0.084969789
-0.093676038 -0.27144703 0.083157927
-0.093675785 -0.27121887 0.081332833
-0.093675569 -0.270989 0.079494357
-0.093675345 -0.27075744 0.077642351
-0.093675129 -0.27052417 0.075776637
-0.093674868 -0.27028921 0.073897123
-0.093674675 -0.27005252 0.072003543
-0.093674384 -0.26981393 0.070095927
-0.093674175 -0.26957366 0.068173945
-0.11978667 -0.27422947 0.028320193
-0.11818199 -0.27366498 0.028542131
-0.11658075 -0.27310175 0.028763592
-0.11468215 -0.272484 0.02942723
-0.11270192 -0.27185228 0.030220091
-0.11073063 -0.27122346 0.031009406
-0.1087683 -0.27059746 0.031795084
-0.10681486 -0.26997432 0.032577157
-0.10487018 -0.26935396 0.033355802
-0.10293427 -0.26873636 0.034130841
-0.10100698 -0.26812157 0.034902483
-0.099088319 -0.26750949 0.035670727
-0.097178303 -0.26690021 0.036435425
-0.095276713 -0.26629359 0.037196755
-0.093670212 -0.26574004 0.037511557
-0.093669385 -0.26546806 0.035337776
-0.093668498 -0.26519391 0.033146679
-0.093667634 -0.26491755 0.03093794
-0.093666762 -0.2646389 0.028711319
-0.093665935 -0.26435804 0.026466578
-0.093665794 -0.26407504 0.024202466
-0.093665883 -0.26378974 0.021919489
-0.093665995 -0.26350212 0.019617796
-0.093666047 -0.26321217 0.017297119
-0.093666084 -0.26291969 0.014957309
-0.093666367 -0.26262489 0.01259768
-0.093666077 -0.26232755 0.010219246
0.13436133 -0.18705471 0.081264347
0.13436255 -0.18632661 0.075441808
0.13436377 -0.18557921 0.069465488
0.13436505 -0.18481185 0.06332919
0.13436633 -0.18402365 0.057026416
0.13436769 -0.18321374 0.050550193
0.1343689 -0.18238118 0.043892235
-0.13433163 -0.28964293 0.099016935
-0.13276257 -0.28909966 0.099316388
-0.13119778 -0.28855792 0.099615037
-0.1296373 -0.28801751 0.099912882
-0.12808111 -0.28747869 0.1002098
-0.12652916 -0.28694138 0.10050601
-0.12498138 -0.28640544 0.10080141
-0.12343785 -0.285871 0.101096
-0.12189847 -0.28533801 0.10138977
-0.12036329 -0.28480643 0.10168281
-0.11883228 -0.28427634 0.10197502
-0.11730543 -0.28374767 0.10226634
-0.11578267 -0.28322041 0.10255697
-0.11426401 -0.28269455 0.10284689
-0.11274941 -0.28217015 0.10313591
-0.11123899 -0.28164715 0.10342416
-0.10973254 -0.28112558 0.10371166
-0.10823017 -0.28060535 0.10399842
-0.10673182 -0.28008658 0.10428435
-0.10523742 -0.27956912 0.10456955
-0.10374709 -0.27905312 0.10485399
-0.10226072 -0.27853847 0.10513765
-0.10077825 -0.27802518 0.10542059
-0.099299774 -0.27751324 0.10570279
-0.097825252 -0.27700269 0.10598421
-0.096354581 -0.27649346 0.10626489
-0.094887853 -0.27598563 0.10654485
-0.093679383 -0.27553201 0.10648817
-0.093679212 -0.2753289 0.10483149
-0.093679018 -0.27512446 0.10316327
-0.093678817 -0.27491853 0.10148335
-0.093678653 -0.27471122 0.099791586
-0.093678422 -0.2745024 0.098087937
-0.093678243 -0.27429211 0.096372217
-0.093677863 -0.27408025 0.094644547
-0.093677536 -0.27386692 0.092904449
-0.093677171 -0.27365208 0.091151923
-0.093676828 -0.27343565 0.089386851
-0.093676448 -0.27321771 0.087609053
-0.093676083 -0.27299818 0.08581841
-0.093675889 -0.27277708 0.084014535
-0.093675643 -0.27255437 0.082197517
-0.093675435 -0.27233002 0.080367208
-0.093675189 -0.27210402 0.078523457
-0.093674995 -0.27187634 0.076666087
-0.093674719 -0.27164701 0.074795067
-0.093674518 -0.27141601 0.07291007
-0.093674265 -0.27118319 0.071011066
-0.093674034 -0.27094871 0.069097847
-0.12095243 -0.27595246 0.027643383
-0.11934534 -0.27538571 0.027866215
-0.11774169 -0.27482015 0.028088629
-0.11614152 -0.2742559 0.028310508
-0.11454486 -0.27369288 0.028531879
-0.11295159 -0.27313098 0.028752834
-0.11108529 -0.27251858 0.029384643
-0.10911807 -0.27188832 0.030175686
-0.10715975 -0.27126095 0.030963033
-0.10521027 -0.27063644 0.031746894
-0.10326957 -0.27001467 0.032527238
-0.10133761 -0.26939574 0.033304036
-0.099414289 -0.26877958 0.034077346
-0.097499572 -0.26816615 0.03484726
-0.095593393 -0.26755551 0.035613716
-0.093695715 -0.26694754 0.036376715
-0.093668826 -0.26667538 0.034236729
-0.093667954 -0.26640576 0.032038957
-0.09366706 -0.26613399 0.029823482
-0.093666203 -0.26586005 0.027590036
-0.093665838 -0.2655839 0.025337726
-0.093665928 -0.26530561 0.023066312
-0.09366601 -0.26502508 0.020776302
-0.093666062 -0.2647422 0.018467516
-0.093666218 -0.26445705 0.016139537
-0.093666531 -0.26416945 0.013791978
-0.0936663 -0.26387951 0.011425763
0.13436052 -0.18861596 0.085063249
0.13436168 -0.18791498 0.079345763
0.13436289 -0.18719563 0.073478699
0.13436417 -0.18645729 0.067456156
0.13436542 -0.18569903 0.061271757
0.13436677 -0.18492018 0.054918945
0.13436799 -0.18411979 0.048390299
0.13436915 -0.18329689 0.041677862
-0.13351245 -0.29055768 0.099101812
-0.13225693 -0.29008433 0.099030674
-0.13093244 -0.28959548 0.099043638
-0.12937224 -0.28905371 0.099342287
-0.12781635 -0.28851345 0.099640071
-0.12626468 -0.28797466 0.099937022
-0.12471724 -0.28743732 0.1002332
-0.12317399 -0.28690144 0.10052857
-0.12163489 -0.28636703 0.10082319
-0.12010004 -0.28583404 0.10111693
-0.11856931 -0.28530252 0.10140991
-0.11704271 -0.28477246 0.10170206
-0.11552025 -0.28424376 0.10199347
-0.1140019 -0.28371659 0.10228407
-0.11248762 -0.28319076 0.1025739
-0.11097742 -0.28266636 0.10286292
-0.10947134 -0.28214338 0.10315117
-0.10796922 -0.28162181 0.10343868
-0.10647113 -0.28110158 0.1037254
-0.10497704 -0.28058282 0.10401145
-0.10348702 -0.28006539 0.10429659
-0.10200089 -0.27954939 0.104581
-0.10051873 -0.2790347 0.10486472
-0.099040523 -0.27852142 0.10514763
-0.097566277 -0.27800947 0.10542983
-0.096095882 -0.27749896 0.10571128
-0.094629429 -0.27698976 0.10599196
-0.093679227 -0.27659014 0.10559395
-0.093679056 -0.27639058 0.10393277
-0.093678862 -0.27618966 0.10225987
-0.093678661 -0.2759873 0.10057524
-0.093678497 -0.27578351 0.098878771
-0.093678281 -0.27557829 0.097170383
-0.093677998 -0.27537161 0.095449954
-0.093677588 -0.27516341 0.093717396
-0.093677282 -0.27495375 0.09197244
-0.09367691 -0.2747426 0.090215057
-0.09367656 -0.27452993 0.088444918
-0.093676217 -0.27431577 0.086662084
-0.093675822 -0.27409995 0.084866345
-0.093675494 -0.27388263 0.083057493
-0.093675308 -0.2736637 0.08123526
-0.093675055 -0.27344325 0.079399735
-0.093674809 -0.27322114 0.077550679
-0.093674548 -0.27299738 0.075688064
-0.093674354 -0.27277192 0.073811531
-0.093674108 -0.27254489 0.0719212
-0.0936739 -0.2723161 0.070016623
-0.12211983 -0.27767795 0.026965678
-0.1205103 -0.27710888 0.027189404
-0.11890431 -0.27654105 0.027412593
-0.11730172 -0.27597457 0.027635425
-0.11570267 -0.27540922 0.027857691
-0.11410702 -0.27484512 0.02807951
-0.11251482 -0.27428225 0.028300852
-0.11092605 -0.27372053 0.028521717
-0.10934073 -0.27316013 0.028742075
-0.1075061 -0.272553 0.029342234
-0.10555178 -0.27192423 0.03013137
-0.10360631 -0.27129829 0.030916929
-0.10166955 -0.27067515 0.031698972
-0.099741563 -0.27005488 0.032477498
-0.097822152 -0.26943734 0.033252537
-0.095911376 -0.26882255 0.034024149
-0.094009101 -0.26821053 0.034792244
-0.093668222 -0.26788515 0.033133477
-0.093667433 -0.26762015 0.03092891
-0.093666546 -0.26735294 0.0287067
-0.093665883 -0.26708367 0.026466131
-0.093665965 -0.26681232 0.024206132
-0.093666054 -0.26653883 0.021927804
-0.093666062 -0.26626295 0.01963079
-0.093666352 -0.26598495 0.017314494
-0.093666665 -0.2657046 0.014979094
-0.093666613 -0.26542193 0.01262477
-0.093666025 -0.26513678 0.01025182
0.13436086 -0.18947314 0.083175391
0.13436209 -0.18878092 0.077414542
0.13436329 -0.18807055 0.071502447
0.13436455 -0.1873413 0.065433115
0.13436584 -0.18659239 0.059200108
0.13436717 -0.18582299 0.05279687
0.13436827 -0.18503219 0.04621473
-0.13390675 -0.29193294 0.099309117
-0.13265257 -0.29145956 0.099238008
-0.13139954 -0.29098657 0.09916693
-0.13014774 -0.29051402 0.099095881
-0.12889707 -0.29004192 0.099024922
-0.12755156 -0.28954834 0.099070191
-0.1260002 -0.28900808 0.099367976
-0.124453 -0.28846931 0.099664986
-0.12291008 -0.28793201 0.099961102
-0.12137131 -0.28739619 0.10025647
-0.11983673 -0.28686181 0.10055104
-0.11830626 -0.28632885 0.10084477
-0.11678002 -0.28579736 0.1011377
-0.11525782 -0.28526729 0.10142991
-0.11373977 -0.28473866 0.10172129
-0.11222579 -0.28421146 0.10201183
-0.11071589 -0.28368565 0.10230166
-0.10921003 -0.28316122 0.10259068
-0.1077082 -0.28263828 0.10287899
-0.10621045 -0.28211674 0.10316646
-0.10471664 -0.28159657 0.10345319
-0.10322686 -0.28107774 0.10373911
-0.10174106 -0.28056037 0.10402432
-0.10025921 -0.28004432 0.10430875
-0.098781295 -0.27952966 0.10459241
-0.09730731 -0.27901641 0.10487533
-0.095837221 -0.27850449 0.10515752
-0.094371036 -0.27799395 0.10543898
-0.093679048 -0.27765018 0.10469821
-0.093678884 -0.27745417 0.10303235
-0.093678668 -0.27725676 0.10135487
-0.093678504 -0.27705795 0.099665523
-0.093678318 -0.27685779 0.097964346
-0.093678065 -0.27665615 0.096251249
-0.093677744 -0.27645308 0.094526052
-0.093677387 -0.27624857 0.092788607
-0.093677022 -0.27604261 0.091038764
-0.093676664 -0.27583513 0.089276373
-0.093676269 -0.27562621 0.087501317
-0.093675926 -0.27541575 0.085713387
-0.093675561 -0.27520379 0.083912522
-0.093675204 -0.27499023 0.082098573
-0.093674913 -0.27477518 0.080271214
-0.093674682 -0.27455854 0.078430444
-0.093674488 -0.27434033 0.076576114
-0.093674213 -0.27412051 0.074708074
-0.093673989 -0.27389902 0.072826207
-0.093673758 -0.27367595 0.070930362
-0.12328894 -0.27940583 0.0262869
-0.12167699 -0.27883455 0.02651158
-0.12006859 -0.27826446 0.026735693
-0.11846361 -0.27769566 0.02695936
-0.11686213 -0.2771281 0.027182519
-0.11526408 -0.27656171 0.027405202
-0.11366949 -0.27599666 0.027627438
-0.11207838 -0.27543265 0.027849168
-0.11049067 -0.27486995 0.02807045
-0.10890636 -0.27430847 0.028291255
-0.10732545 -0.27374816 0.028511584
-0.10574801 -0.2731891 0.028731406
-0.10394444 -0.27258721 0.029299945
-0.10200291 -0.27195984 0.030087322
-0.10007019 -0.27133542 0.030871063
-0.098146126 -0.27071375 0.031651258
-0.096230663 -0.27009487 0.032428056
-0.094323784 -0.26947874 0.033201277
-0.093667708 -0.26909739 0.0320279
-0.093666859 -0.26883698 0.029816657
-0.093665987 -0.26857439 0.027587652
-0.09366595 -0.26830998 0.025339216
-0.093666025 -0.26804328 0.023072362
-0.093666181 -0.26777452 0.020786792
-0.093666457 -0.26750356 0.018482327
-0.093666755 -0.26723027 0.016158909
-0.093666896 -0.26695481 0.013816446
-0.093666337 -0.26667687 0.011455745
0.13436122 -0.19033588 0.081275165
0.13436244 -0.18965264 0.075470448
0.13436368 -0.18895134 0.069512814
0.13436493 -0.18823138 0.063396245
0.13436624 -0.18749188 0.057114184
0.13436745 -0.18673205 0.050658971
0.13436854 -0.18595111 0.044023633
-0.13430004 -0.29330492 0.099515975
-0.13304725 -0.29283142 0.099444807
-0.13179559 -0.2923584 0.099373728
-0.13054506 -0.29188576 0.099302679
-0.12929572 -0.29141355 0.09923172
-0.12804756 -0.29094186 0.09916085
-0.12680055 -0.29047057 0.09909001
-0.12555481 -0.28999978 0.09901911
-0.12418882 -0.2895014 0.099096656
-0.12264614 -0.28896266 0.099393606
-0.12110768 -0.28842539 0.099689752
-0.11957341 -0.28788957 0.099985033
-0.11804327 -0.28735524 0.10027957
-0.11651723 -0.28682232 0.10057333
-0.11499543 -0.28629088 0.10086626
-0.11347762 -0.28576082 0.10115841
-0.11196391 -0.28523225 0.10144979
-0.11045431 -0.28470507 0.10174036
-0.10894874 -0.28417927 0.10203013
-0.10744723 -0.28365493 0.10231915
-0.10594973 -0.28313199 0.10260743
-0.10445622 -0.28261036 0.10289493
-0.10296673 -0.28209025 0.1031816
-0.10148123 -0.28157145 0.10346755
-0.099999636 -0.28105405 0.10375273
-0.098521963 -0.28053805 0.10403723
-0.09704829 -0.2800234 0.10432085
-0.095578484 -0.27951008 0.10460383
-0.09411259 -0.2789982 0.10488597
-0.093678907 -0.27871206 0.10380083
-0.093678743 -0.2785196 0.10213032
-0.093678541 -0.27832577 0.10044816
-0.093678378 -0.2781305 0.098754197
-0.093678176 -0.27793396 0.097048253
-0.093677804 -0.27773595 0.095330447
-0.093677439 -0.27753657 0.093600482
-0.093677096 -0.2773357 0.091858178
-0.093676731 -0.27713341 0.090103388
-0.093676388 -0.27692968 0.088335961
-0.093676023 -0.27672446 0.086555928
-0.09367568 -0.27651781 0.084762931
-0.0936753 -0.27630961 0.08295697
-0.09367492 -0.27609995 0.081137866
-0.093674533 -0.27588871 0.07930547
-0.093674332 -0.27567598 0.077459365
-0.093674064 -0.27546164 0.07559973
-0.093673848 -0.27524576 0.073726296
-0.12607756 -0.28171113 0.025381237
-0.12445968 -0.28113627 0.025607228
-0.12284537 -0.28056267 0.025832802
-0.12123445 -0.27999035 0.02605781
-0.11962714 -0.27941924 0.02628234
-0.11802325 -0.27884942 0.026506424
-0.1164228 -0.27828076 0.026730001
-0.11482584 -0.27771333 0.026953131
-0.11323232 -0.27714717 0.027175725
-0.11164228 -0.27658224 0.027397841
-0.11005557 -0.2760185 0.027619541
-0.10847236 -0.27545595 0.027840734
-0.10689251 -0.27489462 0.02806142
-0.10531607 -0.27433455 0.028281689
-0.10374304 -0.27377564 0.028501451
-0.10217333 -0.27321795 0.028720766
-0.10040014 -0.27262124 0.029257953
-0.098471366 -0.27199537 0.030043393
-0.096551239 -0.27137241 0.030825377
-0.094639756 -0.2707521 0.031603813
-0.093667202 -0.27031213 0.030920029
-0.0936663 -0.27005634 0.02870217
-0.09366601 -0.26979858 0.026465386
-0.093666069 -0.26953876 0.024209887
-0.09366633 -0.26927683 0.02193585
-0.093666576 -0.26901287 0.019643068
-0.093666896 -0.26874664 0.017331451
-0.09366715 -0.26847827 0.01500082
-0.093666561 -0.26820755 0.012652308
-0.093665972 -0.26793453 0.010284245
0.13436159 -0.1912044 0.079362452
0.13436282 -0.19053018 0.073513418
0.13436407 -0.18983807 0.0675098
0.13436534 -0.1891275 0.061345428
0.13436662 -0.18839762 0.055013478
0.13436767 -0.18764758 0.048505962
0.13436882 -0.1868766 0.04181695
-0.133441 -0.2942 0.099651068
-0.13219064 -0.29372689 0.09957996
-0.13094145 -0.2932542 0.099508971
-0.12969346 -0.29278198 0.099437982
-0.12844661 -0.29231024 0.099367112
-0.12720087 -0.29183879 0.099296331
-0.12595636 -0.29136792 0.099225521
-0.124713 -0.2908974 0.09915483
-0.12347085 -0.29042739 0.099084049
-0.12222991 -0.28995785 0.099013329
-0.12084405 -0.28945473 0.099122941
-0.11931003 -0.28891748 0.099419057
-0.11778022 -0.28838173 0.099714339
-0.11625452 -0.28784743 0.10000885
-0.11473291 -0.2873145 0.10030258
-0.1132154 -0.28678307 0.10059553
-0.11170206 -0.28625306 0.10088763
-0.11019272 -0.28572446 0.10117897
-0.10868748 -0.28519732 0.10146958
-0.10718621 -0.28467157 0.10175937
-0.10568901 -0.28414726 0.10204834
-0.1041958 -0.28362429 0.10233662
-0.10270657 -0.28310278 0.10262406
-0.10122137 -0.28258264 0.10291076
-0.099740066 -0.2820639 0.10319668
-0.098262712 -0.28154653 0.10348186
-0.0967893 -0.28103048 0.10376629
-0.095319785 -0.28051588 0.10404998
-0.093854196 -0.28000259 0.10433289
-0.09367875 -0.27977592 0.10290185
-0.093678579 -0.27958697 0.10122672
-0.093678355 -0.27939668 0.099539936
-0.093678199 -0.27920505 0.097841173
-0.093677886 -0.27901205 0.096130669
-0.093677551 -0.27881768 0.094408005
-0.093677223 -0.27862194 0.092673182
-0.093676858 -0.27842477 0.090925992
-0.093676455 -0.27822623 0.089166284
-0.09367609 -0.27802619 0.087393939
-0.093675733 -0.27782482 0.08560878
-0.093675412 -0.27762187 0.083810717
-0.09367501 -0.27741757 0.0819996
-0.093674675 -0.2772117 0.08017531
-0.093674272 -0.27700436 0.07833764
-0.093673937 -0.27679545 0.076486439
-0.093673699 -0.2765851 0.074621499
-0.12725244 -0.28344628 0.024699688
-0.12563217 -0.28286916 0.024926573
-0.12401532 -0.28229329 0.025153041
-0.12240206 -0.28171864 0.025378972
-0.12079225 -0.28114527 0.025604427
-0.11918596 -0.28057313 0.025829405
-0.11758317 -0.28000221 0.026053905
-0.1159838 -0.27943256 0.02627787
-0.11438792 -0.27886415 0.026501358
-0.11279546 -0.27829692 0.026724368
-0.11120642 -0.27773094 0.026946962
-0.10962082 -0.27716616 0.027169019
-0.10803862 -0.2766026 0.027390599
-0.10645986 -0.27604029 0.027611673
-0.10488442 -0.27547914 0.027832389
-0.10331243 -0.27491918 0.028052509
-0.1017438 -0.27436048 0.028272152
-0.10017844 -0.27380294 0.028491437
-0.098616503 -0.27324656 0.028710186
-0.096873157 -0.27265516 0.029216141
-0.094957024 -0.27203077 0.029999703
-0.093666613 -0.27152938 0.029809922
-0.093666025 -0.27127823 0.027584881
-0.093666166 -0.27102521 0.025340587
-0.093666434 -0.27077019 0.023077875
-0.09366671 -0.27051306 0.020796746
-0.093667001 -0.27025378 0.018496901
-0.093667284 -0.26999247 0.016178161
-0.093666844 -0.26972881 0.01384145
-0.093666255 -0.26946291 0.011485666
0.13436078 -0.19272669 0.083180517
0.13436197 -0.19207858 0.077437043
0.1343632 -0.19141355 0.071543276
0.13436444 -0.19073084 0.065493166
0.13436572 -0.19002979 0.059280574
0.13436683 -0.1893096 0.052897483
0.13436793 -0.1885695 0.046337754
0.13436906 -0.18780868 0.039594382
-0.13297267 -0.29518566 0.099323988
-0.13148962 -0.29465613 0.099532247
-0.13009021 -0.29414704 0.099643767
-0.12884465 -0.29367521 0.099572837
-0.1276003 -0.29320377 0.099502027
-0.12635709 -0.29273281 0.099431247
-0.12511502 -0.2922622 0.099360555
-0.1238741 -0.29179209 0.099289894
-0.12263434 -0.29132247 0.099219322
-0.12139574 -0.2908532 0.09914878
-0.12015842 -0.29038444 0.099078149
-0.11892222 -0.28991613 0.099007577
-0.11751714 -0.28940824 0.099149108
-0.11599171 -0.28887254 0.09944436
-0.11447044 -0.28833824 0.099738866
-0.11295323 -0.28780541 0.10003254
-0.11144012 -0.287274 0.1003255
-0.10993109 -0.28674406 0.10061759
-0.10842617 -0.28621548 0.10090888
-0.10692517 -0.28568834 0.10119945
-0.10542824 -0.28516263 0.10148928
-0.10393531 -0.28463832 0.10177827
-0.10244641 -0.28411537 0.10206646
-0.10096148 -0.28359389 0.10235387
-0.09948045 -0.28307372 0.1026406
-0.098003425 -0.28255504 0.10292652
-0.096530288 -0.28203762 0.10321167
-0.095061071 -0.28152165 0.10349613
-0.093678772 -0.28102577 0.10366938
-0.093678579 -0.28084165 0.10200131
-0.093678407 -0.28065625 0.10032153
-0.093678229 -0.28046954 0.098630011
-0.093678012 -0.28028154 0.0969266
-0.093677625 -0.28009215 0.095211387
-0.093677275 -0.27990139 0.093483925
-0.093676917 -0.27970934 0.091744274
-0.093676597 -0.27951586 0.089992106
-0.093676209 -0.27932104 0.088227451
-0.093675859 -0.2791248 0.08645007
-0.093675487 -0.27892715 0.084659934
-0.093675122 -0.27872807 0.082856715
-0.093674719 -0.27852753 0.081040502
-0.093674399 -0.2783255 0.079210937
-0.093674012 -0.27812204 0.077368051
-0.093673632 -0.27791709 0.075511605
-0.12842894 -0.28518397 0.024017274
-0.12680617 -0.28460449 0.024245083
-0.12518698 -0.28402632 0.024472415
-0.12357128 -0.28344944 0.024699211
-0.12195905 -0.28287375 0.02492556
-0.12035033 -0.28229934 0.025151432
-0.11874513 -0.28172615 0.025376827
-0.11714339 -0.28115416 0.025601685
-0.11554509 -0.2805835 0.025826097
-0.11395028 -0.28001404 0.026049972
-0.11235887 -0.27944583 0.026273429
-0.11077093 -0.27887878 0.026496351
-0.10918634 -0.27831301 0.026718855
-0.1076052 -0.27774844 0.026940823
-0.10602747 -0.27718511 0.027162313
-0.10445311 -0.27662289 0.027383298
-0.10288214 -0.27606195 0.027603924
-0.1013145 -0.27550223 0.027824014
-0.099750265 -0.27494368 0.028043598
-0.098189332 -0.27438635 0.028262734
-0.096631721 -0.27383015 0.028481424
-0.0950775 -0.2732752 0.028699577
-0.093666084 -0.2727491 0.02869755
-0.09366627 -0.27250275 0.026464432
-0.093666524 -0.2722545 0.024213105
-0.093666829 -0.27200413 0.02194345
-0.09366712 -0.27175182 0.019655257
-0.093667403 -0.2714974 0.017348349
-0.093667157 -0.27124077 0.015023321
-0.093666568 -0.27098191 0.012679636
-0.093665957 -0.27072099 0.010316551
0.13436115 -0.19359757 0.081285954
0.13436235 -0.19295858 0.075498909
0.13436358 -0.19230285 0.069559932
0.13436484 -0.19162968 0.063462883
0.13436601 -0.19093828 0.057200789
0.13436711 -0.19022802 0.050766677
0.1343682 -0.18949804 0.044154197
-0.13404483 -0.29671526 0.098723084
-0.13255945 -0.29618359 0.098932147
-0.13107748 -0.2956531 0.099140733
-0.12959887 -0.29512379 0.099348873
-0.12812364 -0.29459578 0.099556535
-0.12675679 -0.29409438 0.099636495
-0.12551603 -0.29362378 0.099565804
-0.12427645 -0.29315361 0.099495143
-0.12303801 -0.29268387 0.099424541
-0.12180068 -0.29221454 0.099353999
-0.12056452 -0.29174566 0.099283546
-0.11932952 -0.29127726 0.099213123
-0.11809574 -0.29080927 0.099142641
-0.11686313 -0.29034173 0.099072248
-0.1156316 -0.28987461 0.099001884
-0.11420793 -0.28936207 0.099175125
-0.11269099 -0.28882778 0.099469602
-0.1111782 -0.288295 0.099763244
-0.10966947 -0.28776366 0.10005611
-0.10816476 -0.28723368 0.10034823
-0.10666408 -0.2867052 0.10063958
-0.10516749 -0.28617808 0.10093004
-0.10367486 -0.28565234 0.10121986
-0.1021862 -0.28512812 0.10150883
-0.10070155 -0.28460521 0.10179698
-0.099220872 -0.28408369 0.10208443
-0.097744048 -0.28356361 0.10237116
-0.096271217 -0.28304484 0.10265708
-0.094802253 -0.28252748 0.10294226
-0.093678601 -0.28208986 0.10277185
-0.09367846 -0.28190926 0.10109907
-0.093678251 -0.2817274 0.099414676
-0.093678057 -0.2815443 0.097718447
-0.093677737 -0.28135988 0.096010476
-0.093677394 -0.28117409 0.094290376
-0.093677014 -0.28098705 0.092558146
-0.093676686 -0.28079867 0.090813607
-0.093676277 -0.28060895 0.089056581
-0.093675934 -0.28041786 0.087286919
-0.093675584 -0.2802254 0.085504532
-0.093675256 -0.2800315 0.08370924
-0.093674861 -0.27983624 0.081900984
-0.093674459 -0.27963954 0.080079556
-0.093674108 -0.27944142 0.078244835
-0.093673915 -0.27924195 0.076396435
-0.12916802 -0.2868278 0.023959577
-0.12776046 -0.28629392 0.023879498
-0.12635417 -0.28576055 0.023799598
-0.12474213 -0.28518268 0.024018556
-0.1231275 -0.28460473 0.024245769
-0.12151638 -0.28402802 0.024472535
-0.11990872 -0.28345257 0.024698794
-0.11830459 -0.28287837 0.024924576
-0.11670392 -0.28230539 0.025149852
-0.11510666 -0.28173363 0.025374681
-0.11351292 -0.28116313 0.025598943
-0.11192258 -0.28059384 0.025822818
-0.11033566 -0.28002584 0.026046187
-0.10875217 -0.27945903 0.026269019
-0.10717209 -0.27889341 0.026491433
-0.10559537 -0.27832901 0.026713312
-0.10402206 -0.27776581 0.026934773
-0.10245211 -0.27720386 0.027155697
-0.10088554 -0.2766431 0.027376175
-0.099322289 -0.27608353 0.027596235
-0.097762413 -0.27552518 0.027815729
-0.096205845 -0.274968 0.028034806
-0.094652608 -0.27441204 0.028253376
-0.093666464 -0.2739715 0.027581453
-0.09366665 -0.27372986 0.025341421
-0.093666933 -0.27348626 0.02308327
-0.093667239 -0.27324072 0.020806611
-0.09366753 -0.27299318 0.018511385
-0.093667425 -0.27274346 0.016198009
-0.093666837 -0.2724916 0.013866335
-0.093666188 -0.27223775 0.011515439
0.13436149 -0.19447412 0.079378992
0.13436274 -0.19384447 0.0735479
0.13436396 -0.19319816 0.067563146
0.13436522 -0.19253461 0.061418533
0.13436627 -0.19185306 0.055106342
0.13436735 -0.19115284 0.048620909
0.13436845 -0.19043308 0.041955113
-0.1336309 -0.2977134 0.098331213
-0.13214654 -0.29718071 0.098540664
-0.1306656 -0.29664928 0.098749638
-0.12918806 -0.29611912 0.098958135
-0.12771384 -0.2955901 0.099166185
-0.12624305 -0.29506227 0.099373698
-0.12477557 -0.29453576 0.099580795
-0.12344074 -0.29404199 0.099629223
-0.1222047 -0.2935726 0.099558741
-0.12096979 -0.29310372 0.099488258
-0.1197361 -0.29263517 0.099417865
-0.11850347 -0.2921671 0.099347532
-0.11727204 -0.29169947 0.099277258
-0.11604183 -0.29123232 0.099206924
-0.11481275 -0.29076552 0.099136591
-0.11358484 -0.29029921 0.099066317
-0.112358 -0.28983331 0.098996192
-0.11091622 -0.28931609 0.099200994
-0.10940778 -0.28878331 0.099494636
-0.10790341 -0.28825203 0.099787474
-0.10640301 -0.28772208 0.1000796
-0.10490669 -0.2871936 0.10037088
-0.10341437 -0.28666657 0.10066137
-0.101926 -0.28614089 0.10095114
-0.10044162 -0.28561661 0.10124007
-0.098961197 -0.28509375 0.10152829
-0.097484715 -0.28457227 0.1018157
-0.09601213 -0.28405219 0.10210243
-0.094543479 -0.28353348 0.10238832
-0.093678504 -0.2831558 0.10187262
-0.093678303 -0.28297877 0.10019529
-0.09367808 -0.2828005 0.098506242
-0.093677819 -0.28262097 0.096805423
-0.093677461 -0.28244019 0.095092684
-0.093677096 -0.28225809 0.093367815
-0.093676753 -0.28207472 0.091630757
-0.093676403 -0.28189 0.089881212
-0.093676031 -0.28170401 0.088119268
-0.093675651 -0.2815167 0.086344659
-0.093675278 -0.28132793 0.084557235
-0.093674943 -0.28113791 0.082756907
-0.093674555 -0.28094649 0.080943495
-0.093674593 -0.28075379 0.079116285
-0.093674295 -0.28055954 0.07727623
-0.093673632 -0.2803638 0.075423241
-0.12829088 -0.28788903 0.024119318
-0.12688603 -0.28735554 0.024039388
-0.12548244 -0.28682259 0.023959517
-0.12408007 -0.28629005 0.023879707
-0.12267903 -0.28575805 0.023799956
-0.12107401 -0.2851814 0.024019837
-0.11946747 -0.28460494 0.024246484
-0.11786438 -0.28402969 0.024472684
-0.11626473 -0.28345567 0.024698436
-0.11466857 -0.28288287 0.024923593
-0.11307591 -0.28231135 0.025148273
-0.11148658 -0.28174105 0.025372565
-0.10990074 -0.28117195 0.025596261
-0.10831826 -0.28060415 0.0258196
-0.10673924 -0.28003752 0.026042372
-0.10516357 -0.27947208 0.026264668
-0.10359133 -0.27890792 0.026486486
-0.10202239 -0.27834493 0.026707858
-0.10045685 -0.27778316 0.026928753
-0.098894611 -0.27722254 0.0271492
-0.097335793 -0.27666312 0.027369052
-0.095780253 -0.27610499 0.027588516
-0.094228007 -0.27554798 0.027807534
-0.093666814 -0.2751964 0.026463032
-0.093667097 -0.27495947 0.024216145
-0.093667358 -0.27472067 0.02195102
-0.093667619 -0.27447981 0.019667476
-0.093667679 -0.27423707 0.017365545
-0.093667105 -0.27399212 0.015045762
-0.093666501 -0.27374515 0.012706906
-0.093665935 -0.27349615 0.010348678
0.1343607 -0.19596098 0.083185613
0.13436188 -0.19535644 0.077459455
0.1343631 -0.1947362 0.071583837
0.13436435 -0.19409955 0.06555289
0.13436545 -0.19344576 0.059359491
0.13436653 -0.19277424 0.05299741
0.13436763 -0.19208421 0.046460092
0.13436875 -0.1913749 0.039740324
-0.13321729 -0.29871067 0.09793964
-0.13173398 -0.29817709 0.098149449
-0.13025412 -0.29764473 0.09835881
-0.12877758 -0.29711357 0.098567665
-0.1273044 -0.29658365 0.098776102
-0.12583467 -0.29605496 0.098983973
-0.12436824 -0.29552746 0.099191368
-0.12290512 -0.29500115 0.099398315
-0.12144537 -0.29447603 0.099604815
-0.12014173 -0.29398984 0.099622041
-0.11891039 -0.29352167 0.099551737
-0.11768027 -0.29305401 0.099481374
-0.11645121 -0.29258677 0.09941119
-0.1152233 -0.29211989 0.099341065
-0.11399656 -0.29165351 0.09927088
-0.11277104 -0.29118758 0.099200696
-0.11154667 -0.29072204 0.099130571
-0.11032335 -0.29025695 0.099060535
-0.10910121 -0.28979227 0.09899056
-0.10764199 -0.2892704 0.099226683
-0.10614195 -0.28873909 0.099519521
-0.10464587 -0.28820926 0.099811584
-0.10315378 -0.28768077 0.10010293
-0.10166573 -0.28715372 0.10039341
-0.10018167 -0.28662813 0.10068309
-0.098701522 -0.28610387 0.10097206
-0.097225301 -0.28558102 0.10126027
-0.095753059 -0.28505957 0.10154772
-0.094284646 -0.28453949 0.10183439
-0.093678325 -0.28422362 0.10097191
-0.093678132 -0.28405017 0.099289894
-0.093677893 -0.28387555 0.097596228
-0.093677558 -0.2836996 0.095890701
-0.0936772 -0.28352243 0.094173253
-0.09367688 -0.28334403 0.092443556
-0.093676478 -0.28316432 0.09070164
-0.093676127 -0.28298336 0.088947207
-0.09367574 -0.28280109 0.087180316
-0.093675449 -0.28261751 0.085400611
-0.093675062 -0.28243265 0.08360818
-0.093675338 -0.28224656 0.081801802
-0.093675248 -0.28205904 0.079982877
-0.093674555 -0.28186998 0.078151524
-0.0936739 -0.2816796 0.076306671
-0.12882011 -0.28948033 0.024358571
-0.12741663 -0.28894678 0.024278611
-0.12601446 -0.28841367 0.024198741
-0.12461355 -0.28788111 0.02411887
-0.12321392 -0.28734899 0.024039149
-0.1218155 -0.28681737 0.023959488
-0.12041841 -0.28628618 0.023879886
-0.11902255 -0.28575552 0.023800284
-0.11742447 -0.28518012 0.024021149
-0.11582592 -0.28460506 0.024247229
-0.11423082 -0.2840313 0.024472833
-0.11263917 -0.28345874 0.024697959
-0.11105093 -0.2828874 0.02492258
-0.10946614 -0.28231731 0.025146753
-0.10788473 -0.28174841 0.025370449
-0.10630672 -0.28118077 0.025593638
-0.10473213 -0.28061438 0.025816351
-0.1031609 -0.28004915 0.026038527
-0.10159298 -0.27948514 0.026260346
-0.10002845 -0.27892235 0.026481628
-0.098467298 -0.27836072 0.026702374
-0.096909449 -0.27780038 0.026922762
-0.095354974 -0.2772412 0.027142555
-0.093803756 -0.27668315 0.027361959
-0.093667179 -0.27642384 0.025342315
-0.093667462 -0.27619165 0.023088574
-0.093667753 -0.27595758 0.020816475
-0.093667999 -0.27572155 0.018525928
-0.093667403 -0.27548346 0.016218007
-0.093666814 -0.2752434 0.013891131
-0.093666174 -0.27500132 0.011545062
0.13436107 -0.19683978 0.081296712
0.13436225 -0.19624464 0.075527161
0.13436349 -0.1956339 0.069606662
0.13436463 -0.19500695 0.063528627
0.13436569 -0.19436313 0.057286263
0.13436678 -0.1937018 0.050873667
0.13436787 -0.19302207 0.044283956
-0.13428959 -0.30024293 0.097337753
-0.13280396 -0.29970717 0.097548366
-0.13132171 -0.29917264 0.097758591
-0.12984288 -0.29863933 0.09796831
-0.12836742 -0.2981073 0.098177493
-0.12689529 -0.29757649 0.098386258
-0.12542658 -0.29704681 0.098594517
-0.12396118 -0.29651839 0.098802298
-0.12249909 -0.29599118 0.099009663
-0.12104037 -0.29546514 0.099216461
-0.11958491 -0.29494029 0.099422902
-0.1181328 -0.29441667 0.099628776
-0.11685972 -0.29393801 0.099614918
-0.11563308 -0.29347107 0.099544734
-0.11440759 -0.29300466 0.099474639
-0.1131832 -0.29253855 0.099404603
-0.11196001 -0.29207298 0.099334598
-0.11073801 -0.2916078 0.099264532
-0.10951713 -0.29114303 0.099194527
-0.10829733 -0.29067874 0.099124581
-0.10707868 -0.29021487 0.099054754
-0.10586112 -0.28975141 0.098984897
-0.10438503 -0.28922495 0.099252343
-0.10289329 -0.28869513 0.099544346
-0.10140549 -0.2881667 0.099835575
-0.099921681 -0.28763971 0.10012606
-0.098441839 -0.28711405 0.10041583
-0.096965924 -0.28658986 0.10070473
-0.095493942 -0.28606707 0.10099292
-0.094025843 -0.28554568 0.10128033
-0.093678154 -0.2852934 0.10006952
-0.09367799 -0.28512356 0.09838289
-0.093677625 -0.28495249 0.096684605
-0.093677297 -0.28478014 0.094974399
-0.093676932 -0.28460667 0.093252122
-0.093676604 -0.28443193 0.091517568
-0.093676247 -0.28425595 0.089770764
-0.093675882 -0.28407869 0.088011473
-0.093675718 -0.28390026 0.086239308
-0.093676038 -0.28372061 0.084453702
-0.093676142 -0.28353965 0.08265546
-0.093675509 -0.28335717 0.080845296
-0.093674839 -0.28317335 0.07902199
-0.093674175 -0.28298819 0.077185392
-0.093673475 -0.28280172 0.075335354
-0.12794599 -0.29053423 0.024517268
-0.12654522 -0.29000106 0.024437338
-0.12514567 -0.28946838 0.024357557
-0.12374745 -0.28893617 0.024277776
-0.12235046 -0.28840443 0.024198085
-0.1209548 -0.28787321 0.024118453
-0.11956033 -0.2873424 0.024038881
-0.11816716 -0.28681216 0.023959428
-0.11677523 -0.28628239 0.023880005
-0.11538455 -0.28575301 0.023800671
-0.11379337 -0.28517887 0.02402246
-0.11220277 -0.28460532 0.024247974
-0.1106156 -0.28403294 0.024473011
-0.10903183 -0.28346184 0.024697602
-0.10745148 -0.28289193 0.024921656
-0.10587451 -0.28232324 0.025145233
-0.10430096 -0.28175581 0.025368363
-0.10273074 -0.28118956 0.025590956
-0.10116392 -0.28062457 0.025813103
-0.099600382 -0.28006074 0.026034832
-0.098040245 -0.2794981 0.026256025
-0.096483484 -0.27893677 0.026476711
-0.094929978 -0.27837655 0.02669698
-0.093667373 -0.27787951 0.026461631
-0.093667604 -0.27765387 0.024219215
-0.093667842 -0.27742639 0.02195859
-0.093668163 -0.27719706 0.019679546
-0.093667701 -0.27696574 0.017383158
-0.093667068 -0.27673244 0.015068144
-0.093666479 -0.27649724 0.012734026
-0.093665898 -0.27626017 0.010380685
0.13436145 -0.19772439 0.079395443
0.13436262 -0.19713868 0.073582172
0.13436387 -0.19653766 0.067616194
0.13436489 -0.19592062 0.061490089
0.13436595 -0.19528687 0.055198699
0.13436703 -0.19463582 0.048735142
0.13436811 -0.19396669 0.042092413
-0.13387558 -0.30123958 0.096946388
-0.13239095 -0.30070287 0.097157449
-0.1309098 -0.30016747 0.097368002
-0.12943201 -0.2996332 0.097578049
-0.12795758 -0.29910025 0.097787648
-0.12648651 -0.29856846 0.097996771
-0.12501882 -0.29803792 0.098205358
-0.12355444 -0.2975086 0.098413497
-0.12209339 -0.29698038 0.098621249
-0.12063569 -0.29645348 0.098828435
-0.11918127 -0.29592767 0.099035174
-0.11773016 -0.29540312 0.099241465
-0.11628231 -0.29487976 0.09944728
-0.11483775 -0.29435754 0.099652648
-0.11359454 -0.29388639 0.099607795
-0.11237258 -0.29342064 0.09953779
-0.11115174 -0.29295549 0.099467874
-0.10993198 -0.29249063 0.099398047
-0.10871349 -0.29202625 0.099328101
-0.10749608 -0.29156232 0.099258214
-0.10627981 -0.2910988 0.099188387
-0.10506462 -0.29063565 0.09911865
-0.10385056 -0.29017305 0.099048972
-0.1026327 -0.28970954 0.098985761
-0.10114518 -0.28917974 0.099277794
-0.099661723 -0.28865135 0.099568963
-0.098182149 -0.28812441 0.099859446
-0.096706443 -0.28759882 0.10014918
-0.095234796 -0.28707463 0.10043806
-0.093767002 -0.28655183 0.10072622
-0.093677998 -0.28636503 0.099165529
-0.093677744 -0.28619879 0.097474337
-0.093677379 -0.28603125 0.095771372
-0.093677022 -0.28586262 0.094056427
-0.093676671 -0.28569281 0.092329323
-0.093676299 -0.28552181 0.09059
-0.093676381 -0.28534964 0.088837713
-0.093676679 -0.28517628 0.087072492
-0.093676999 -0.28500172 0.085294694
-0.093676403 -0.28482565 0.083505303
-0.093675762 -0.28464833 0.081703067
-0.093675084 -0.28446969 0.079887807
-0.093674414 -0.28428975 0.078059345
-0.093673736 -0.28410855 0.076217502
-0.12847409 -0.29211795 0.024755418
-0.12707472 -0.29158473 0.024675488
-0.12567665 -0.29105192 0.024595618
-0.12427978 -0.29051962 0.024515867
-0.12288424 -0.2899878 0.024436086
-0.1214899 -0.28945646 0.024356514
-0.12009684 -0.28892556 0.024276942
-0.11870508 -0.28839526 0.024197429
-0.11731452 -0.28786537 0.024118036
-0.11592521 -0.28733593 0.024038702
-0.11453719 -0.28680703 0.023959398
-0.11315042 -0.28627855 0.023880184
-0.11176486 -0.28575054 0.023801059
-0.11018056 -0.28517759 0.024023741
-0.10859787 -0.28460547 0.024248689
-0.10701855 -0.28403455 0.02447319
-0.10544264 -0.28346488 0.024697185
-0.10387015 -0.2828964 0.024920642
-0.10230096 -0.2823292 0.025143683
-0.10073514 -0.28176311 0.025366277
-0.099172704 -0.28119826 0.025588304
-0.097613536 -0.2806347 0.025809944
-0.096057773 -0.28007227 0.026031017
-0.094505265 -0.27951103 0.026251674
-0.093667738 -0.2791073 0.02534309
-0.093667977 -0.27888641 0.02309382
-0.093668237 -0.27866369 0.02082631
-0.093667924 -0.27843902 0.018541276
-0.093667381 -0.27821252 0.016237944
-0.093666777 -0.27798411 0.013915777
-0.093666151 -0.27775383 0.011574566
0.13436177 -0.19861473 0.077481657
0.13436298 -0.19803871 0.07162416
0.13436413 -0.19744749 0.065611541
0.13436516 -0.19684045 0.059437692
0.1343662 -0.19621699 0.053096682
0.13436727 -0.1955764 0.046581566
0.13436839 -0.19491799 0.039885253
-0.13346185 -0.30223545 0.096555382
-0.1319783 -0.30169788 0.0967668
-0.1304982 -0.3011615 0.096977681
-0.12902141 -0.30062637 0.097188175
-0.12754804 -0.30009246 0.097398072
-0.12607801 -0.29955974 0.097607583
-0.12461137 -0.29902831 0.097816586
-0.12314803 -0.29849797 0.098025054
-0.12168801 -0.29796892 0.098233104
-0.12023133 -0.29744107 0.098440647
-0.11877792 -0.29691434 0.098647803
-0.11732779 -0.29638889 0.098854452
-0.11588103 -0.29586458 0.099060595
-0.11443744 -0.29534146 0.099266291
-0.11299717 -0.29481956 0.099471509
-0.11156464 -0.29429996 0.099670559
-0.11034617 -0.29383507 0.099600673
-0.1091288 -0.2933706 0.099530876
-0.10791259 -0.29290655 0.099461108
-0.10669747 -0.29244298 0.099391401
-0.10548357 -0.29197982 0.099321634
-0.10427077 -0.29151705 0.099251956
-0.10305905 -0.29105476 0.099182248
-0.10184845 -0.29059282 0.099112719
-0.10063899 -0.29013136 0.09904319
-0.099401668 -0.28966311 0.099011868
-0.09792234 -0.28913471 0.099303186
-0.096447058 -0.28860784 0.09959355
-0.094975613 -0.28808227 0.099883229
-0.093678005 -0.28760013 0.099944204
-0.093677841 -0.28743863 0.098259985
-0.093677476 -0.28727591 0.096564233
-0.093677133 -0.28711212 0.094856501
-0.093676738 -0.28694713 0.093136817
-0.093677096 -0.28678113 0.091403991
-0.093677334 -0.28661394 0.089658916
-0.09367767 -0.28644559 0.087901324
-0.093677297 -0.28627586 0.086132139
-0.093676649 -0.28610483 0.084350586
-0.093676008 -0.28593254 0.082556307
-0.093675345 -0.28575903 0.080748945
-0.093674704 -0.28558433 0.0789285
-0.093674019 -0.28540829 0.077094823
-0.12900093 -0.29369795 0.024992943
-0.12760301 -0.29316464 0.024913013
-0.12620631 -0.29263172 0.024833143
-0.12481086 -0.29209936 0.024753362
-0.12341669 -0.29156744 0.024673641
-0.12202378 -0.29103601 0.024594009
-0.12063212 -0.29050511 0.024514407
-0.11924168 -0.28997463 0.024434924
-0.11785256 -0.28944463 0.024355501
-0.11646464 -0.28891516 0.024276108
-0.115078 -0.28838614 0.024196774
-0.11369257 -0.28785756 0.024117589
-0.11230838 -0.28732944 0.024038464
-0.11092551 -0.28680184 0.023959398
-0.10954382 -0.28627473 0.023880392
-0.10816341 -0.28574806 0.023801416
-0.10658596 -0.28517631 0.024025023
-0.10501112 -0.28460562 0.024249405
-0.10343959 -0.28403616 0.02447328
-0.10187146 -0.28346792 0.024696738
-0.10030665 -0.28290081 0.024919719
-0.098745219 -0.28233504 0.025142193
-0.097187169 -0.28177041 0.025364161
-0.095632374 -0.28120697 0.025585622
-0.09408091 -0.28064477 0.025806695
-0.093668088 -0.28033763 0.024222285
-0.093668401 -0.28012151 0.0219661
-0.093668215 -0.27990347 0.019692361
-0.093667649 -0.27968356 0.017400712
-0.093667075 -0.27946186 0.015090436
-0.093666464 -0.27923837 0.012761116
-0.093665861 -0.27901301 0.010412604
0.13436098 -0.20006286 0.081307352
0.13436218 -0.19951102 0.075555354
0.13436332 -0.19894476 0.069652915
0.13436435 -0.19836345 0.063593239
0.13436539 -0.19776665 0.05737114
0.13436645 -0.19715357 0.050980061
0.13436751 -0.19652364 0.044412911
-0.13304847 -0.30323052 0.096164703
-0.13156596 -0.302692 0.096376419
-0.1300869 -0.30215475 0.096587688
-0.12861116 -0.30161867 0.096798539
-0.12713882 -0.30108383 0.097008854
-0.12566987 -0.30055025 0.097218663
-0.12420422 -0.30001777 0.097428024
-0.12274193 -0.29948664 0.097636878
-0.12128292 -0.29895663 0.097845316
-0.11982728 -0.29842782 0.098053247
-0.11837487 -0.29790026 0.098260731
-0.11692576 -0.29737383 0.098467708
-0.11548001 -0.29684862 0.098674208
-0.11403743 -0.29632461 0.098880291
-0.11259817 -0.29580176 0.099085867
-0.11116211 -0.29528013 0.099291027
-0.10972929 -0.29475963 0.099495709
-0.10832827 -0.29424766 0.099663317
-0.10711434 -0.29378399 0.099593669
-0.10590155 -0.29332075 0.099524021
-0.10468997 -0.29285792 0.099454343
-0.10347951 -0.2923955 0.099384755
-0.10227014 -0.29193357 0.099315196
-0.1010619 -0.29147205 0.099245667
-0.099854738 -0.29101089 0.099176228
-0.098648652 -0.2905502 0.099106848
-0.0974437 -0.29008994 0.099037528
-0.096187554 -0.28961691 0.099037915
-0.09471646 -0.28909004 0.099328309
-0.093677863 -0.28867206 0.099041641
-0.09367758 -0.28851411 0.097352922
-0.093677409 -0.28835508 0.095652193
-0.093677737 -0.28819507 0.093938857
-0.093678042 -0.2880339 0.092213422
-0.093678325 -0.28787157 0.090475768
-0.093678199 -0.28770807 0.088726372
-0.093677573 -0.28754321 0.086965233
-0.093676917 -0.28737718 0.085191369
-0.093676254 -0.28720993 0.083404869
-0.093675599 -0.28704154 0.081605464
-0.09367495 -0.28687185 0.079793036
-0.093674265 -0.28670099 0.077967495
-0.093673602 -0.28652883 0.076128602
-0.12813002 -0.29474083 0.025150031
-0.12673472 -0.29420784 0.025070101
-0.12534067 -0.29367536 0.02499035
-0.1239479 -0.29314342 0.024910569
-0.1225564 -0.2926119 0.024830937
-0.12116615 -0.29208091 0.024751306
-0.1197771 -0.29155037 0.024671793
-0.11838932 -0.29102027 0.02459237
-0.11700279 -0.29049063 0.024512976
-0.11561751 -0.28996152 0.024433702
-0.1142335 -0.28943288 0.024354488
-0.11285069 -0.2889047 0.024275303
