# .PCD v0.7 - Point Cloud Data file format
VERSION 0.7
FIELDS x y z
SIZE 4 4 4
TYPE F F F
COUNT 1 1 1
WIDTH 1327
HEIGHT 1
VIEWPOINT 0 0 0 1 0 0 0
POINTS 1327
DATA ascii
-0.12161417 -0.28019482 0.026197433
-0.12099121 -0.27890587 0.02670294
-0.12036877 -0.27761793 0.02720803
-0.11974679 -0.27633107 0.027712762
-0.11912529 -0.27504519 0.028217137
-0.11850431 -0.27376035 0.028720975
-0.11751514 -0.2724089 0.029762328
-0.11600196 -0.27096668 0.031569809
-0.093701154 -0.26586539 0.063752741
-0.09370131 -0.2647737 0.063377827
-0.093701437 -0.26367867 0.063001752
-0.093701579 -0.26258039 0.062624604
-0.093701698 -0.26147887 0.062246293
-0.093701854 -0.26037398 0.06186682
-0.093701996 -0.25926578 0.061486274
-0.0937021 -0.25815427 0.061104566
-0.093701951 -0.25703931 0.060722142
-0.093701802 -0.25592107 0.060338467
-0.093701683 -0.25479937 0.05995366
-0.093701564 -0.25367433 0.05956775
-0.093701422 -0.25254583 0.059180617
-0.093701288 -0.25141394 0.058792263
-0.093701169 -0.25027862 0.058402777
-0.093700998 -0.24913979 0.058012158
-0.093700901 -0.24799754 0.057620287
-0.093700737 -0.24685177 0.057227254
-0.093700632 -0.24570249 0.056832939
-0.093700476 -0.24454968 0.056437492
-0.093700334 -0.24339335 0.056040794
-0.09370023 -0.24223344 0.055642843
-0.093699932 -0.24106997 0.055243939
-0.093699925 -0.23990293 0.054843336
-0.093702033 -0.23873247 0.054438412
-0.093702026 -0.2375582 0.054035425
-0.093702063 -0.23638028 0.053631037
-0.093702063 -0.23519874 0.053225458
-0.0937021 -0.23401345 0.052818656
-0.093702093 -0.23282453 0.052410513
-0.093702115 -0.23163189 0.052001119
-0.093702137 -0.23043552 0.051590472
-0.093702167 -0.22923541 0.051178485
-0.093702152 -0.22803155 0.050765336
-0.09370219 -0.22682387 0.050350785
-0.093702219 -0.22561243 0.049934894
-0.093702234 -0.22439718 0.049517781
-0.093702227 -0.2231781 0.049099326
-0.093702257 -0.22195518 0.04867956
-0.093702279 -0.22072835 0.048258424
-0.093702346 -0.21949767 0.047835916
-0.093702435 -0.21826306 0.047412008
-0.093702517 -0.21702453 0.046986789
-0.093702577 -0.21578208 0.046560258
-0.093702659 -0.21453565 0.046132326
-0.093702771 -0.21328522 0.045702904
-0.093702942 -0.2120308 0.045272112
-0.093703084 -0.21077238 0.044839948
-0.09370327 -0.20950991 0.044406354
-0.093703456 -0.2082434 0.04397139
-0.093703642 -0.20697278 0.043534994
-0.093703806 -0.20569809 0.043097138
-0.093703993 -0.20441929 0.042657912
-0.093704157 -0.20313628 0.042217314
-0.093704343 -0.20184915 0.041775256
-0.093704544 -0.20055789 0.041331738
-0.093704753 -0.19926238 0.040886819
-0.093704902 -0.19796269 0.04044047
-0.09370511 -0.19665873 0.039992601
-0.093705274 -0.19535051 0.03954336
-0.093705475 -0.194038 0.039092481
-0.093705639 -0.1927212 0.03864032
-0.040095061 -0.10735188 0.090914756
-0.037664741 -0.10697593 0.094483793
-0.035272062 -0.10660581 0.097997546
-0.032916218 -0.10624141 0.10145715
-0.030596346 -0.10588253 0.10486409
-0.028311595 -0.1055291 0.10821927
-0.026061252 -0.10518101 0.11152408
-0.023844495 -0.10483809 0.11477947
-0.021660566 -0.10450025 0.11798665
-0.019508779 -0.10416739 0.12114668
-0.017388389 -0.1038394 0.12426063
-0.015298709 -0.10351613 0.12732938
-0.013239145 -0.10319754 0.13035393
-0.011208996 -0.10288349 0.13333532
-0.0092076361 -0.1025739 0.13627443
-0.0072344989 -0.10226868 0.13917208
-0.0052888393 -0.10196777 0.1420294
-0.0041007996 -0.10129595 0.14360654
-0.0031905919 -0.10048907 0.14471462
-0.0022845715 -0.099685863 0.14581758
-0.0013827235 -0.098886341 0.14691547
-0.00048500299 -0.098090485 0.14800829
0.00037378073 -0.097279325 0.14903659
0.0011881143 -0.096449196 0.14999086
0.0019993782 -0.095622286 0.1509414
0.0028074831 -0.09479852 0.15188831
0.0036125183 -0.093977898 0.15283164
0.0044144988 -0.093160436 0.15377143
0.0052133799 -0.092346057 0.15470752
0.0060092658 -0.091534793 0.15564007
0.0068021119 -0.090726584 0.15656909
0.0075919777 -0.08992146 0.15749463
0.0083788335 -0.089119375 0.15841666
0.0091627091 -0.0883203 0.15933517
0.0099436492 -0.08752425 0.16025028
0.010721669 -0.086731195 0.16116193
0.011496767 -0.085941121 0.16207016
0.012268931 -0.085153967 0.16297492
0.013038233 -0.084369794 0.16387641
0.013804674 -0.083588526 0.16477445
0.014568239 -0.082810163 0.1656692
0.015328974 -0.082034707 0.16656062
0.016086891 -0.081262141 0.16744876
0.016842023 -0.080492407 0.16833356
0.017594308 -0.079725534 0.16921505
0.018343881 -0.078961492 0.17009336
0.019090652 -0.078200251 0.17096835
0.019834682 -0.077441826 0.17184028
0.020576 -0.076686144 0.1727089
0.021314591 -0.075933293 0.17357436
0.022050485 -0.075183153 0.17443666
0.022783697 -0.074435741 0.1752958
0.023514226 -0.0736911 0.17615181
0.024242103 -0.072949111 0.17700469
0.024967328 -0.07220982 0.17785451
0.025689915 -0.071473226 0.17870116
0.026409894 -0.070739239 0.17954478
0.027127266 -0.070007935 0.18038535
0.02784206 -0.069279283 0.18122292
0.053588212 -0.0034725368 0.19781217
0.053743824 -0.0021874458 0.19760793
0.053899884 -0.00089870393 0.19740304
0.054056421 0.00039376318 0.19719762
0.054213375 0.0016899854 0.19699159
0.054370806 0.0029899329 0.19678491
0.054528713 0.0042936653 0.19657767
0.054687038 0.0056011677 0.19636989
0.054845825 0.0069124848 0.19616142
0.055005088 0.0082276016 0.1959523
0.055164814 0.0095465481 0.19574264
0.055325001 0.010869339 0.19553241
0.055485651 0.012196019 0.19532144
0.055646807 0.013526559 0.19510996
0.055808395 0.014861003 0.19489783
0.05597046 0.01619938 0.19468504
0.056133002 0.017541707 0.19447166
0.056296006 0.018887982 0.19425759
0.056459486 0.020238236 0.19404298
0.056623504 0.021592438 0.19382769
0.056787968 0.022950664 0.19361171
0.056952924 0.024312921 0.19339517
0.057118356 0.025679193 0.193178
0.057284296 0.027049534 0.19296014
0.057450712 0.028423972 0.19274157
0.057617635 0.029802486 0.19252244
0.057785064 0.031185091 0.19230267
0.057021648 0.034054719 0.19015601
0.056156859 0.037111849 0.18779081
0.055277795 0.040219575 0.18538648
0.054384038 0.043379158 0.18294203
0.053475246 0.046591923 0.18045643
0.052551046 0.049859166 0.17792875
0.051611021 0.053182311 0.17535773
0.050654754 0.056562841 0.17274234
0.049681902 0.060002163 0.1700815
0.048692137 0.063501574 0.16737434
0.047684833 0.067062981 0.16461915
0.046659544 0.070688054 0.16181478
-0.10259461 -0.33365667 0.071248353
-0.10095405 -0.33208784 0.073214889
-0.099326037 -0.33053109 0.075166345
-0.097710587 -0.32898626 0.07710281
-0.096107416 -0.32745323 0.079024553
-0.094516508 -0.32593191 0.080931544
-0.093695842 -0.32470191 0.081761003
-0.093695961 -0.32377484 0.081439555
-0.093696088 -0.32284522 0.081117272
-0.093696155 -0.321913 0.080794156
-0.093696281 -0.32097822 0.080470085
-0.093696408 -0.32004088 0.080145061
-0.09369649 -0.31910086 0.079819262
-0.093696624 -0.31815833 0.07949242
-0.093696706 -0.31721306 0.079164833
-0.093696833 -0.31626529 0.078836232
-0.093696952 -0.31531477 0.078506738
-0.093697041 -0.31436163 0.07817629
-0.09369716 -0.31340581 0.077844948
-0.093697257 -0.31244731 0.077512622
-0.093697377 -0.31148618 0.077179492
-0.093697481 -0.31052226 0.076845318
-0.093697593 -0.30955571 0.076510221
-0.093697704 -0.30858642 0.07617417
-0.093697831 -0.30761433 0.075837135
-0.09369801 -0.30663955 0.075499117
-0.093698211 -0.30566204 0.075160116
-0.093698427 -0.30468175 0.074820131
-0.093698628 -0.30369866 0.074479192
-0.093698822 -0.30271277 0.0741373
-0.093699008 -0.30172408 0.073794395
-0.093699232 -0.30073261 0.073450506
-0.12186395 -0.30783081 0.032817036
-0.12216014 -0.30682573 0.032015592
-0.12245786 -0.30581599 0.031210214
-0.12275697 -0.30480152 0.030400991
-0.12305754 -0.3037824 0.029588044
-0.12335949 -0.30275849 0.028771192
-0.12366285 -0.30172974 0.027950615
-0.12396763 -0.30069619 0.027126193
-0.1242739 -0.2996577 0.026297778
-0.12425915 -0.29853129 0.025930017
-0.12411049 -0.29736772 0.025754273
-0.12396152 -0.29620177 0.025578201
-0.12381218 -0.29503345 0.02540192
-0.12366255 -0.29386276 0.025225163
-0.12351263 -0.29268974 0.025048196
-0.12336236 -0.29151434 0.024870843
-0.12321186 -0.29033661 0.024692953
-0.12306099 -0.28915647 0.024514914
-0.12290983 -0.28797391 0.024336427
-0.12275837 -0.286789 0.024157614
-0.12253526 -0.28558594 0.024082094
-0.1219115 -0.28429422 0.024588943
-0.12128824 -0.28300351 0.025095314
-0.12066548 -0.28171387 0.025601268
-0.12004334 -0.28042525 0.026106715
-0.11942168 -0.27913767 0.026611686
-0.11880053 -0.27785116 0.027116299
-0.11817989 -0.27656561 0.027620524
-0.11755973 -0.27528107 0.028124303
-0.11694008 -0.2739976 0.028627664
-0.11612021 -0.27267796 0.029424787
-0.11461231 -0.27123582 0.031232238
-0.11311378 -0.26980263 0.033028454
-0.093701802 -0.26525313 0.061153144
-0.093701929 -0.26415485 0.060772359
-0.093702093 -0.2630533 0.060390443
-0.093702219 -0.26194838 0.060007423
-0.093702354 -0.26084015 0.059623212
-0.09370248 -0.25972861 0.059237808
-0.093702435 -0.25861365 0.05885154
-0.093702309 -0.25749528 0.058464259
-0.093702167 -0.25637355 0.058075815
-0.093702063 -0.25524843 0.05768612
-0.093701914 -0.25411987 0.057295322
-0.09370178 -0.25298789 0.056903303
-0.093701661 -0.25185245 0.056510061
-0.093701527 -0.25071353 0.056115597
-0.09370137 -0.24957113 0.055720001
-0.093701251 -0.24842526 0.055323154
-0.093701094 -0.24727584 0.054925144
-0.093700841 -0.2461229 0.054526061
-0.093700565 -0.2449664 0.054125696
-0.09370032 -0.24380636 0.05372417
-0.093700171 -0.24264272 0.053321153
-0.09370032 -0.24147551 0.052916527
-0.093700483 -0.24030472 0.052510619
-0.093702555 -0.23913045 0.052100539
-0.093702592 -0.23795231 0.051692307
-0.093702562 -0.23677056 0.051282853
-0.093702592 -0.23558509 0.050871998
-0.093702622 -0.23439594 0.050459951
-0.093702637 -0.23320305 0.050046623
-0.093702637 -0.23200643 0.049631983
-0.093702666 -0.2308061 0.049216062
-0.093702674 -0.22960196 0.0487988
-0.093702711 -0.22839403 0.048380226
-0.093702726 -0.22718233 0.047960311
-0.093702719 -0.22596677 0.047539145
-0.093702748 -0.22474739 0.047116548
-0.093702778 -0.22352415 0.046692699
-0.093702801 -0.22229701 0.04626748
-0.093702815 -0.22106598 0.045840919
-0.093702868 -0.21983106 0.045412928
-0.093702935 -0.2185922 0.044983566
-0.093703002 -0.21734937 0.044552833
-0.093703076 -0.21610256 0.04412064
-0.093703158 -0.2148518 0.043687195
-0.0937033 -0.213597 0.04325223
-0.093703456 -0.21233813 0.042815745
-0.093703642 -0.21107526 0.042377889
-0.093703814 -0.20980835 0.041938633
-0.093703985 -0.2085373 0.041497976
-0.093704134 -0.20726213 0.041055888
-0.09370435 -0.20598286 0.04061234
-0.093704522 -0.20469946 0.040167332
-0.093704708 -0.20341185 0.039720923
-0.093704894 -0.20212008 0.039273024
-0.093705088 -0.2008241 0.038823694
-0.093705259 -0.19952385 0.038372874
-0.093705431 -0.19821939 0.037920594
-0.036736995 -0.10718045 0.093539745
-0.034349561 -0.10680841 0.09706369
-0.031998917 -0.10644214 0.10053331
-0.029684171 -0.10608146 0.10394999
-0.027404547 -0.10572621 0.1073148
-0.02515924 -0.10537635 0.11062902
-0.022947446 -0.10503174 0.11389372
-0.020768479 -0.10469219 0.11710998
-0.018621549 -0.10435764 0.12027895
-0.016506016 -0.104028 0.12340161
-0.01442121 -0.10370314 0.12647882
-0.012366354 -0.10338296 0.12951189
-0.010340929 -0.10306737 0.13250154
-0.0083442181 -0.10275623 0.13544878
-0.0063756704 -0.10244949 0.13835442
-0.0044347048 -0.10214706 0.14121938
-0.0029495209 -0.10162814 0.14331195
-0.0020425916 -0.10082097 0.14441991
-0.0011397898 -0.10001753 0.14552286
-0.00024116039 -0.099217787 0.14662063
0.00059776008 -0.098391742 0.14761803
0.0014130771 -0.097558051 0.14857662
0.0022253096 -0.096727565 0.14953157
0.0030343831 -0.095900267 0.15048283
0.003840372 -0.095076144 0.15143049
0.0046432912 -0.094255164 0.15237451
0.0054431111 -0.093437299 0.15331495
0.006239906 -0.092622548 0.15425169
0.007033661 -0.091810897 0.15518495
0.0078244507 -0.091002345 0.1561147
0.0086121857 -0.090196848 0.15704089
0.0093969554 -0.089394376 0.15796357
0.010178819 -0.088594958 0.15888286
0.010957703 -0.087798536 0.15979859
0.011733621 -0.087005109 0.16071084
0.012506679 -0.086214662 0.16161978
0.01327686 -0.08542718 0.1625253
0.014044091 -0.084642619 0.16342738
0.014808506 -0.083860978 0.16432613
0.015570089 -0.083082289 0.16522154
0.016328827 -0.082306474 0.16611364
0.017084748 -0.081533521 0.16700235
0.017837867 -0.080763429 0.16788784
0.0185882 -0.079996213 0.1687701
0.019335762 -0.079231799 0.16964898
0.020080566 -0.078470215 0.17052472
0.020822659 -0.077711418 0.17139721
0.02156201 -0.076955408 0.17226648
0.022298664 -0.076202169 0.17313257
0.023032621 -0.075451702 0.17399555
0.02376391 -0.074703947 0.17485532
0.024492517 -0.073958918 0.17571196
0.025218487 -0.073216587 0.17656559
0.025941819 -0.072476968 0.17741594
0.026662514 -0.071740001 0.17826334
0.027380601 -0.071005702 0.17910755
0.02809608 -0.070274055 0.17994878
0.028808981 -0.069545016 0.18078694
0.054930881 -0.0027650148 0.19761536
0.055088416 -0.0014792085 0.19741085
0.055246383 -0.00018961728 0.19720572
0.055404842 0.0011036247 0.19700003
0.055563733 0.0024006218 0.19679379
0.055723071 0.0037013888 0.19658685
0.055882886 0.005005911 0.19637936
0.056043148 0.0063142478 0.19617125
0.056203887 0.0076263547 0.19596258
0.056365088 0.0089422762 0.19575325
0.05652678 0.010262012 0.19554335
0.05668892 0.011585653 0.19533283
0.056851566 0.012913108 0.19512165
0.057014644 0.014244482 0.19490987
0.057178214 0.015579745 0.19469747
0.057342261 0.016918942 0.19448444
0.05750677 0.018262088 0.19427076
0.057671785 0.019609168 0.19405648
0.057837293 0.020960227 0.19384158
0.058003277 0.022315271 0.19362605
0.058169767 0.023674309 0.19340986
0.058336735 0.025037378 0.19319305
0.058504194 0.026404515 0.19297555
0.05867216 0.027775675 0.19275743
0.058840603 0.029150926 0.19253868
0.059009567 0.030530311 0.19231921
0.058710366 0.032663919 0.19112217
0.057863429 0.035695426 0.1887759
0.05700253 0.038776845 0.186391
0.056127355 0.041909419 0.18396655
0.055237532 0.045094483 0.18150139
0.054332644 0.048333295 0.17899469
0.053412393 0.051627263 0.17644531
0.052476317 0.054977812 0.17385215
0.051523998 0.058386438 0.17121398
0.050555244 0.061854273 0.1685302
0.049569443 0.065383181 0.16579908
0.048566118 0.068974867 0.16301948
-0.10130933 -0.33383244 0.071027786
-0.099674948 -0.33226413 0.072993755
-0.09805312 -0.33070788 0.074944526
-0.09644372 -0.32916352 0.076880425
-0.094846614 -0.327631 0.078801513
-0.093696408 -0.32627279 0.080096006
-0.093696542 -0.32534602 0.079771608
-0.093696669 -0.32441676 0.079446375
-0.093696736 -0.32348484 0.079120308
-0.09369687 -0.32255039 0.078793228
-0.093696982 -0.32161331 0.078465313
-0.093697079 -0.32067364 0.078136474
-0.093697213 -0.31973138 0.077806681
-0.093697287 -0.31878644 0.077476084
-0.093697406 -0.31783891 0.077144414
-0.09369754 -0.31688872 0.07681185
-0.09369763 -0.31593585 0.076478392
-0.093697749 -0.31498033 0.07614401
-0.093697824 -0.31402206 0.075808674
-0.093697965 -0.31306118 0.075472355
-0.093698099 -0.31209755 0.075135142
-0.093698189 -0.31113124 0.074796975
-0.093698286 -0.31016213 0.074457854
-0.093698427 -0.30919036 0.07411772
-0.093698509 -0.3082158 0.073776662
-0.093698643 -0.30723846 0.073434651
-0.093698718 -0.30625838 0.073091686
-0.093698844 -0.30527544 0.072747678
-0.093699075 -0.30428982 0.072402596
-0.1186206 -0.31075296 0.036321551
-0.11961119 -0.30997366 0.034524918
-0.11990025 -0.3089796 0.033732474
-0.1201907 -0.30798101 0.032936305
-0.12048253 -0.30697784 0.03213647
-0.12077577 -0.30596998 0.031332761
-0.12107054 -0.30495745 0.030525059
-0.1213667 -0.3039403 0.02971366
-0.12166422 -0.30291831 0.028898418
-0.12196311 -0.30189157 0.02807945
-0.12226342 -0.30085996 0.027256548
-0.12256517 -0.29982352 0.026429832
-0.12262058 -0.29871792 0.025957882
-0.12247046 -0.29755607 0.025782406
-0.12232004 -0.2963919 0.025606662
-0.12216932 -0.29522538 0.025430501
-0.12201824 -0.29405653 0.025254101
-0.12186688 -0.2928853 0.025077283
-0.12171514 -0.29171175 0.024900168
-0.12156314 -0.29053575 0.024722725
-0.12141082 -0.28935736 0.024544865
-0.12125821 -0.28817672 0.024366707
-0.12110528 -0.28699359 0.024188161
-0.12095204 -0.28580809 0.024009258
-0.12034029 -0.28452009 0.024499893
-0.11971834 -0.28323075 0.025005788
-0.11909695 -0.28194249 0.025511205
-0.118476 -0.28065521 0.026016235
-0.11785565 -0.279369 0.026520729
-0.11723586 -0.2780838 0.027024746
-0.11661655 -0.27679962 0.027528346
-0.11599768 -0.27551645 0.028031677
-0.11537932 -0.27423429 0.028534502
-0.11472703 -0.27294677 0.029087692
-0.11322436 -0.27150464 0.030895114
-0.11173106 -0.27007145 0.03269127
-0.110247 -0.26864716 0.03447631
-0.10877189 -0.26723164 0.036250651
-0.093702599 -0.2635296 0.058139861
-0.093702734 -0.26242137 0.057752013
-0.093702845 -0.2613098 0.057362974
-0.093702927 -0.26019478 0.056972891
-0.093702823 -0.25907642 0.056581825
-0.093702681 -0.25795466 0.056189716
-0.093702525 -0.25682944 0.055796355
-0.093702398 -0.2557008 0.055401713
-0.093702272 -0.25456876 0.055005938
-0.093702145 -0.2534332 0.054608971
-0.093701959 -0.25229418 0.054210812
-0.093701713 -0.25115168 0.05381158
-0.093701467 -0.25000569 0.053411126
-0.093701184 -0.24885614 0.05300945
-0.093700908 -0.24770303 0.052606553
-0.09370064 -0.24654642 0.052202374
-0.093700446 -0.2453862 0.051796913
-0.09370061 -0.24422248 0.051389575
-0.093700752 -0.24305511 0.050981015
-0.093700863 -0.24188416 0.050571233
-0.093700975 -0.24070951 0.050160199
-0.093703069 -0.23953143 0.049744934
-0.093703099 -0.23834944 0.049331397
-0.093703106 -0.2371638 0.048916698
-0.093703128 -0.2359744 0.048500597
-0.093703128 -0.23478134 0.048083305
-0.093703136 -0.23358449 0.047664642
-0.093703173 -0.23238389 0.047244638
-0.093703203 -0.23117951 0.046823353
-0.093703203 -0.2299713 0.046400726
-0.09370324 -0.22875933 0.045976758
-0.09370324 -0.22754352 0.045551389
-0.093703292 -0.22632383 0.045124739
-0.0937033 -0.22510032 0.044696748
-0.09370333 -0.22387284 0.044267356
-0.093703352 -0.22264154 0.043836623
-0.093703352 -0.22140627 0.043404549
-0.093703352 -0.22016703 0.042971104
-0.093703441 -0.21892387 0.042536169
-0.093703493 -0.21767673 0.042099804
-0.093703568 -0.21642554 0.041662008
-0.09370365 -0.21517041 0.04122293
-0.093703799 -0.21391118 0.040782183
-0.093703985 -0.2126479 0.040340036
-0.093704179 -0.21138057 0.039896458
-0.093704335 -0.2101091 0.03945145
-0.093704537 -0.20883355 0.039004982
-0.0937047 -0.20755382 0.038557082
-0.093704917 -0.20626995 0.038107693
-0.093705095 -0.20498186 0.037656873
-0.093705267 -0.2036896 0.037204593
-0.093705453 -0.20239311 0.036750853
-0.035807729 -0.10738526 0.092594147
-0.033425599 -0.10701133 0.096128345
-0.031080127 -0.10664321 0.099608064
-0.028770566 -0.10628067 0.10303444
-0.026496053 -0.10592367 0.10640898
-0.024255767 -0.10557203 0.1097326
-0.022049025 -0.10522567 0.11300659
-0.01987499 -0.10488443 0.11623198
-0.017732978 -0.10454825 0.11940983
-0.015622348 -0.10421693 0.12254113
-0.013542324 -0.10389046 0.12562707
-0.011492237 -0.10356867 0.12866861
-0.0094715357 -0.10325152 0.13166651
-0.0074795187 -0.10293885 0.13462183
-0.005515635 -0.10263056 0.13753548
-0.0035792142 -0.10232666 0.14040834
-0.0017997772 -0.10195987 0.14301774
-0.00089606643 -0.10115249 0.14412573
3.054738e-06 -0.10034858 0.14522782
0.0008225292 -0.099508047 0.14619452
0.0016388148 -0.098670751 0.14715752
0.0024520159 -0.097836688 0.14811686
0.0032620728 -0.097005814 0.14907253
0.0040690005 -0.096178129 0.15002444
0.0048728734 -0.095353633 0.15097281
0.005673632 -0.094532281 0.15191755
0.0064713508 -0.093714043 0.15285861
0.0072659999 -0.09289892 0.15379611
0.0080576986 -0.092086926 0.15473002
0.0088463724 -0.091278002 0.15566045
0.0096320361 -0.090472132 0.15658733
0.010414749 -0.089669287 0.15751073
0.011194527 -0.088869512 0.15843067
0.011971325 -0.088072717 0.15934703
0.012745216 -0.087278903 0.16026005
0.013516217 -0.086488113 0.16116965
0.014284343 -0.085700259 0.16207585
0.015049592 -0.08491534 0.16297856
0.015811995 -0.084133372 0.16387799
0.016571537 -0.083354294 0.16477403
0.017328262 -0.082578123 0.16566676
0.018082187 -0.081804812 0.16655624
0.018833339 -0.081034377 0.16744238
0.01958169 -0.080266789 0.16832519
0.02032727 -0.079502016 0.1692048
0.021070138 -0.078740075 0.17008114
0.021810263 -0.077980936 0.17095429
0.022547677 -0.077224568 0.17182425
0.023282379 -0.076470971 0.17269099
0.024014413 -0.075720146 0.17355457
0.024743766 -0.074972034 0.17441508
0.025470465 -0.074226648 0.17527235
0.026194513 -0.073483974 0.17612657
0.026915953 -0.072744012 0.17697766
0.02763474 -0.072006702 0.17782557
0.028350919 -0.07127203 0.17867044
0.029064536 -0.070540056 0.17951229
0.02977559 -0.069810674 0.18035114
0.056273103 -0.0020577759 0.19741866
0.05643256 -0.00077116489 0.19721392
0.056592405 0.00051921606 0.19700852
0.056752786 0.0018132329 0.19680256
0.056913584 0.0031110495 0.19659606
0.057074875 0.0044125766 0.1963889
0.057236597 0.0057179183 0.19618118
0.057398796 0.0070270449 0.1959728
0.057561487 0.0083399415 0.19576377
0.05772464 0.0096566826 0.19555429
0.057888284 0.010977253 0.19534412
0.058052361 0.012301683 0.1951333
0.058216944 0.013629973 0.19492194
0.058382019 0.014962137 0.19470987
0.058547541 0.016298234 0.19449717
0.05871357 0.017638251 0.1942839
0.058880091 0.018982202 0.19407001
0.059047073 0.020330101 0.19385546
0.059214577 0.021681987 0.19364026
0.059382588 0.023037821 0.19342449
0.059551045 0.024397723 0.19320801
0.059720039 0.025761597 0.19299096
0.05988954 0.027129546 0.19277319
0.060059518 0.028501555 0.19255489
0.060230002 0.029877648 0.19233575
0.060383499 0.031285979 0.19207937
0.059554115 0.034292154 0.18975177
0.058711126 0.03734763 0.18738616
0.05785419 0.04045359 0.18498129
0.056982979 0.043611325 0.18253639
0.05609715 0.046822108 0.1800504
0.055196285 0.050087266 0.17752242
0.054280028 0.053408258 0.17495108
0.053347975 0.056786552 0.17233542
0.052399799 0.060223378 0.16967452
0.051435128 0.063720271 0.16696721
0.050453395 0.067279048 0.16421193
0.049454123 0.070901357 0.16140759
-0.10002597 -0.33400792 0.070807606
-0.098397732 -0.33244014 0.07277292
-0.096782081 -0.33088437 0.074723065
-0.09517879 -0.32934052 0.076658309
-0.093696997 -0.32784989 0.078424364
-0.093697123 -0.32692349 0.078097075
-0.09369719 -0.32599449 0.077768922
-0.093697339 -0.32506296 0.077439755
-0.093697451 -0.32412884 0.077109754
-0.09369754 -0.32319206 0.076778799
-0.093697637 -0.32225269 0.07644695
-0.093697764 -0.32131073 0.076114118
-0.093697861 -0.32036611 0.075780481
-0.093698002 -0.31941891 0.075445801
-0.093698084 -0.31846893 0.075110227
-0.093698226 -0.31751639 0.074773699
-0.093698315 -0.31656113 0.074436218
-0.093698427 -0.3156032 0.074097812
-0.093698561 -0.31464261 0.073758394
-0.093698628 -0.31367925 0.073418111
-0.09369877 -0.31271315 0.073076785
-0.093698882 -0.31174433 0.072734475
-0.093699008 -0.31077284 0.072391301
-0.09369912 -0.30979854 0.072047085
-0.093699239 -0.30882144 0.071701854
-0.093699299 -0.30784154 0.07135576
-0.093699329 -0.30685887 0.071008772
-0.093699358 -0.30587345 0.07066074
-0.11579752 -0.31160718 0.03849861
-0.11685469 -0.31086248 0.036600173
-0.11792172 -0.31011075 0.034683973
-0.11823644 -0.30912751 0.033849895
-0.11852258 -0.30813074 0.033055305
-0.11881007 -0.30712944 0.032256931
-0.11909891 -0.30612344 0.031454921
-0.1193893 -0.3051129 0.030648798
-0.11968104 -0.30409765 0.029838979
-0.11997417 -0.30307764 0.029025346
-0.12026868 -0.30205286 0.028207868
-0.12056455 -0.30102324 0.027386636
-0.12086185 -0.29998881 0.026561439
-0.12098642 -0.29890406 0.025985628
-0.12083486 -0.29774398 0.02581048
-0.12068301 -0.2965816 0.025634944
-0.12053087 -0.2954168 0.025459051
-0.12037839 -0.29424977 0.02528283
-0.12022556 -0.2930803 0.025106341
-0.12007239 -0.2919085 0.024929494
-0.11991897 -0.29073435 0.024752289
-0.11976521 -0.28955784 0.024574757
-0.11961111 -0.28837892 0.024396867
-0.11945674 -0.28719765 0.024218559
-0.11930206 -0.28601396 0.024039894
-0.1187726 -0.28474548 0.024411082
-0.11815199 -0.28345752 0.024916381
-0.11753189 -0.28217056 0.025421351
-0.11691227 -0.28088465 0.025925815
-0.11629318 -0.27959973 0.026429892
-0.11567467 -0.27831593 0.026933432
-0.11505669 -0.27703306 0.027436465
-0.11443914 -0.27575123 0.02793923
-0.11382208 -0.27447048 0.028441608
-0.11320554 -0.27319068 0.028943509
-0.11183814 -0.2717731 0.030558378
-0.11035004 -0.27033997 0.032354504
-0.10887115 -0.26891571 0.034139514
-0.10740139 -0.26750022 0.035913497
-0.10594015 -0.26609337 0.037677258
-0.093703255 -0.26289791 0.055479914
-0.093703404 -0.26178288 0.055085957
-0.093703292 -0.26066446 0.054691225
-0.093703181 -0.25954258 0.054295242
-0.093703039 -0.25841737 0.053898156
-0.093702815 -0.25728869 0.053499967
-0.093702547 -0.2561565 0.053100586
-0.093702301 -0.25502089 0.052700013
-0.093702056 -0.25388178 0.052298188
-0.093701802 -0.25273919 0.051895082
-0.093701527 -0.25159311 0.051490813
-0.093701266 -0.25044346 0.051085293
-0.093700975 -0.24929026 0.050678551
-0.093700722 -0.2481335 0.050270468
-0.093700856 -0.24697319 0.049860537
-0.093701005 -0.24580932 0.049449354
-0.093701154 -0.24464178 0.04903689
-0.093701273 -0.24347065 0.048623145
-0.093701385 -0.24229588 0.048208177
-0.093701534 -0.24111743 0.047791809
-0.093703628 -0.23993549 0.047371268
-0.093703613 -0.23874961 0.046952486
-0.093703635 -0.23756005 0.046532452
-0.093703642 -0.23636675 0.046111047
-0.093703672 -0.23516968 0.045688361
-0.093703695 -0.23396885 0.045264304
-0.093703702 -0.2327642 0.044838905
-0.093703747 -0.23155582 0.044412136
-0.093703754 -0.23034357 0.043984056
-0.093703791 -0.22912747 0.043554664
-0.093703799 -0.22790751 0.043123841
-0.093703821 -0.22668366 0.042691708
-0.093703829 -0.22545595 0.042258173
-0.093703888 -0.22422433 0.041823149
-0.093703873 -0.22298871 0.041386902
-0.093703896 -0.22174917 0.040949166
-0.093703918 -0.22050567 0.040510088
-0.093703933 -0.21925819 0.04006955
-0.093703993 -0.21800667 0.039627552
-0.09370406 -0.2167511 0.039184064
-0.093704171 -0.2154915 0.038739145
-0.093704358 -0.21422789 0.038292676
-0.093704522 -0.21296009 0.037844718
-0.093704686 -0.21168822 0.037395447
-0.093704879 -0.21041226 0.036944538
-0.093705095 -0.20913211 0.036492199
-0.093705259 -0.20784777 0.036038429
-0.034876958 -0.10759042 0.091646999
-0.032500073 -0.10721461 0.095191419
-0.030159846 -0.10684462 0.098681152
-0.027855486 -0.10648026 0.10211748
-0.025586084 -0.10612144 0.10550165
-0.023350894 -0.10576805 0.10883477
-0.021149173 -0.10541992 0.11211807
-0.018980101 -0.105077 0.11535254
-0.016843081 -0.1047391 0.11853933
-0.014737278 -0.10440613 0.12167948
-0.012662083 -0.10407804 0.12477407
-0.010616824 -0.10375465 0.12782398
-0.008600831 -0.10343595 0.1308302
-0.0066135228 -0.10312171 0.13379374
-0.0046542734 -0.10281192 0.13671535
-0.0027224869 -0.1025065 0.13959613
-0.00081759691 -0.10220532 0.14243665
0.00022760034 -0.10147241 0.14379486
0.0010480732 -0.10062823 0.14476609
0.001865387 -0.09978731 0.14573354
0.0026795268 -0.098949641 0.14669731
0.0034905225 -0.098115191 0.14765728
0.0042984039 -0.097283944 0.1486136
0.0051032305 -0.096455902 0.14956629
0.0059049428 -0.095631018 0.15051532
0.0067036003 -0.094809279 0.15146068
0.0074991733 -0.093990698 0.15240249
0.008291766 -0.093175218 0.15334067
0.0090813339 -0.092362821 0.15427527
0.0098678917 -0.091553539 0.15520638
0.010651499 -0.090747312 0.15613395
0.011432126 -0.089944109 0.15705806
0.012209818 -0.089143947 0.15797856
0.012984574 -0.088346794 0.15889576
0.013756454 -0.087552637 0.15980938
0.014525399 -0.08676146 0.16071963
0.015291482 -0.085973233 0.16162649
0.016054705 -0.085187972 0.16252995
0.016815066 -0.084405631 0.16342995
0.017572626 -0.083626196 0.1643267
0.01832734 -0.082849652 0.16522008
0.019079283 -0.082075998 0.16611025
0.019828424 -0.081305206 0.16699699
0.020574808 -0.080537245 0.16788051
0.021318451 -0.07977213 0.16876084
0.022059336 -0.079009846 0.1696378
0.022797495 -0.078250319 0.1705116
0.023532942 -0.077493593 0.17138216
0.024265736 -0.076739669 0.17224962
0.024995834 -0.075988472 0.17311385
0.025723249 -0.075240001 0.1739749
0.026448041 -0.074494302 0.17483282
0.027170196 -0.073751271 0.1756877
0.027889714 -0.073010951 0.17653939
0.028606623 -0.072273284 0.17738798
0.02932094 -0.071538299 0.17823353
0.030032665 -0.070805952 0.17907602
0.030741841 -0.070076227 0.17991549
0.057614848 -0.0013508052 0.19722193
0.057776183 -6.338954e-05 0.19701695
0.057937965 0.0012277663 0.19681135
0.058100253 0.0025226176 0.19660515
0.058262944 0.003821224 0.19639835
0.058426157 0.0051235706 0.19619101
0.058589831 0.0064296722 0.19598293
0.058753967 0.0077396035 0.19577432
0.058918595 0.0090533197 0.19556513
0.059083685 0.010370865 0.19535533
0.059249267 0.011692196 0.19514492
0.059415326 0.013017446 0.19493392
0.059581846 0.01434657 0.19472221
0.059748873 0.015679538 0.19450992
0.059916392 0.017016441 0.19429699
0.060084388 0.018357307 0.19408345
0.060252875 0.019702062 0.19386926
0.060421884 0.021050766 0.19365454
0.06059137 0.022403471 0.19343901
0.060761377 0.023760147 0.193223
0.060931846 0.025120854 0.19300628
0.061102852 0.026485577 0.19278887
0.061274365 0.027854331 0.19257098
0.061446369 0.029227182 0.19235229
0.061618879 0.030604079 0.19213304
0.06122914 0.032901928 0.19071862
0.060403734 0.035931781 0.1883719
0.059564769 0.039011478 0.18598652
0.058711872 0.042142257 0.18356153
0.057844713 0.045325391 0.18109605
0.056962952 0.048562169 0.17858899
0.0560662 0.051854022 0.17603937
0.055154011 0.055202387 0.17344588
0.0542261 0.058608606 0.17080757
0.053282186 0.062073961 0.16812363
0.052321643 0.065600298 0.16539249
0.051344067 0.069189288 0.16261286
-0.098744549 -0.33418316 0.070587754
-0.097122543 -0.33261585 0.072552413
-0.095512941 -0.33106065 0.074502021
-0.093915708 -0.32951725 0.076436609
-0.093697704 -0.3285073 0.076415777
-0.093697801 -0.32757866 0.076084584
-0.093697906 -0.3266474 0.075752467
-0.093697995 -0.32571363 0.075419486
-0.093698129 -0.32477719 0.075085521
-0.093698241 -0.32383814 0.074750602
-0.093698338 -0.32289648 0.074414819
-0.093698449 -0.32195216 0.074078053
-0.093698584 -0.32100523 0.073740304
-0.09369868 -0.3200556 0.07340163
-0.093698792 -0.31910336 0.073062032
-0.093698904 -0.3181484 0.072721511
-0.093699031 -0.31719074 0.072379947
-0.093699135 -0.31623039 0.072037429
-0.093699239 -0.31526732 0.071694016
-0.093699381 -0.31430155 0.071349531
-0.093699455 -0.31333303 0.071004182
-0.09369944 -0.31236169 0.070657939
-0.093699478 -0.3113876 0.070310682
-0.09369947 -0.31041077 0.069962531
-0.0936995 -0.30943114 0.069613248
-0.093699537 -0.30844873 0.069263011
-0.093699567 -0.30746347 0.068911821
-0.11301104 -0.31245035 0.040647388
-0.11404837 -0.31171438 0.038771361
-0.11509542 -0.31097156 0.036877722
-0.1161522 -0.31022176 0.034966469
-0.11657769 -0.30927491 0.033967018
-0.11685961 -0.30828005 0.033173889
-0.11714279 -0.3072806 0.032377064
-0.1174273 -0.3062765 0.031576574
-0.11771328 -0.30526787 0.030772209
-0.11800066 -0.3042545 0.029963881
-0.11828943 -0.30323648 0.029151797
-0.11857954 -0.30221367 0.02833584
-0.118871 -0.30118605 0.027516246
-0.11916382 -0.30015358 0.026692688
-0.11935668 -0.29908967 0.026013434
-0.11920369 -0.29793137 0.025838494
-0.11905043 -0.29677069 0.025663197
-0.11889684 -0.29560772 0.025487632
-0.11874299 -0.29444247 0.02531153
-0.11858873 -0.29327479 0.025135338
-0.11843412 -0.29210475 0.024958819
-0.11827926 -0.29093242 0.024781793
-0.11812403 -0.28975767 0.024604589
-0.11796853 -0.2885806 0.024426907
-0.11781273 -0.28740114 0.024248868
-0.11765654 -0.2862193 0.024070531
-0.11720844 -0.28497034 0.02432248
-0.11658918 -0.28368375 0.024827242
-0.11597034 -0.28239813 0.025331676
-0.11535205 -0.28111356 0.025835633
-0.11473425 -0.27983004 0.026339233
-0.11411702 -0.27854747 0.026842237
-0.1135003 -0.27726603 0.027344823
-0.11288407 -0.27598554 0.027847081
-0.11226835 -0.27470613 0.028348863
-0.1116531 -0.27342767 0.028850228
-0.11045358 -0.27204123 0.030222118
-0.10897066 -0.27060816 0.032018185
-0.10749698 -0.26918396 0.033803046
-0.1060323 -0.2677685 0.035577059
-0.10457648 -0.26636171 0.037340373
-0.10312914 -0.26496348 0.039093554
-0.093703657 -0.26225948 0.05279249
-0.093703419 -0.2611376 0.05239296
-0.093703158 -0.26001227 0.051992208
-0.09370292 -0.25888354 0.051590264
-0.093702622 -0.25775129 0.051187128
-0.093702376 -0.25661564 0.05078271
-0.093702123 -0.25547642 0.050377041
-0.093701862 -0.25433373 0.04997015
-0.093701586 -0.25318757 0.049562007
-0.093701348 -0.25203776 0.049152523
-0.093701109 -0.25088453 0.048741817
-0.093701139 -0.2497277 0.048329443
-0.093701266 -0.24856724 0.047915608
-0.093701392 -0.24740323 0.047500461
-0.093701527 -0.24623561 0.047084093
-0.093701668 -0.24506432 0.046666354
-0.093701795 -0.24388939 0.046247303
-0.093701944 -0.24271075 0.045826972
-0.093702063 -0.24152845 0.045405388
-0.093704134 -0.2403426 0.044979453
-0.093704171 -0.23915285 0.044555277
-0.093704201 -0.23795936 0.044129878
-0.093704171 -0.23676206 0.043703139
-0.093704224 -0.23556103 0.043274909
-0.093704246 -0.23435616 0.042845428
-0.093704239 -0.23314749 0.042414606
-0.093704298 -0.23193502 0.041982353
-0.093704313 -0.23071869 0.041548729
-0.09370435 -0.22949845 0.041113704
-0.093704358 -0.22827433 0.040677369
-0.093704365 -0.22704633 0.040239662
-0.093704373 -0.22581437 0.039800465
-0.093704425 -0.22457848 0.039359897
-0.093704417 -0.22333863 0.038917989
-0.093704447 -0.2220948 0.0384745
-0.093704462 -0.22084697 0.03802973
-0.093704484 -0.21959512 0.037583411
-0.093704499 -0.21833919 0.03713575
-0.093704589 -0.21707925 0.03668651
-0.093704678 -0.21581519 0.03623578
-0.093704864 -0.21454705 0.03578347
-0.093705073 -0.21327478 0.0353297
-0.093705259 -0.2119984 0.03487438
-0.033944637 -0.10779592 0.090698242
-0.031573042 -0.10741822 0.094253033
-0.02923812 -0.10704631 0.09775278
-0.026938885 -0.10668012 0.10119903
-0.024674624 -0.10631953 0.10459289
-0.022444576 -0.10596435 0.10793552
-0.020247877 -0.1056145 0.11122805
-0.018083841 -0.10526983 0.1144717
-0.015951738 -0.10493025 0.11766753
-0.013850853 -0.10459566 0.1208165
-0.011780515 -0.1042659 0.12391964
-0.0097400397 -0.10394093 0.12697804
-0.00772883 -0.10362063 0.12999269
-0.0057462454 -0.10330486 0.13296434
-0.0037916601 -0.10299355 0.13589403
-0.0018645078 -0.10268661 0.13878262
2.9832125e-05 -0.10238086 0.14162049
0.0012744218 -0.1017523 0.14333266
0.0020926893 -0.10090776 0.14430451
0.0029078126 -0.10006644 0.14527273
0.0037197769 -0.099228412 0.14623719
0.0045286417 -0.098393574 0.14719787
0.0053344071 -0.09756197 0.14815491
0.0061370283 -0.096733555 0.14910826
0.0069366246 -0.095908299 0.15005797
0.0077331662 -0.095086202 0.15100414
0.0085266232 -0.094267234 0.15194654
0.0093171149 -0.093451381 0.15288544
0.010104552 -0.092638627 0.15382069
0.010889068 -0.091828987 0.15475252
0.01167056 -0.091022357 0.15568078
0.012449116 -0.090218812 0.15660554
0.013224736 -0.089418277 0.15752673
0.013997465 -0.088620782 0.15844452
0.014767259 -0.087826252 0.15935889
0.015534163 -0.087034717 0.1602698
0.01629822 -0.086246133 0.16117734
0.01705943 -0.085460499 0.16208142
0.017817765 -0.084677786 0.16298217
0.018573299 -0.083897978 0.16387957
0.019326046 -0.083121076 0.16477364
0.020075992 -0.08234708 0.16566437
0.020823151 -0.081575915 0.16655177
0.021567568 -0.080807626 0.16743597
0.022309214 -0.080042139 0.1683169
0.023048133 -0.079279482 0.16919458
0.023784369 -0.078519627 0.17006904
0.024517909 -0.077762559 0.17094028
0.025248706 -0.077008262 0.1718083
0.025976866 -0.076256707 0.1726732
0.026702419 -0.075507909 0.17353496
0.027425259 -0.074761838 0.17439356
0.028145507 -0.074018478 0.17524898
0.028863132 -0.073277801 0.17610142
0.029578149 -0.072539791 0.1769506
0.030290559 -0.071804434 0.17779681
0.03100042 -0.071071744 0.17863995
0.031707704 -0.070341676 0.17947999
0.059119374 0.0006441623 0.19682011
0.059283063 0.001936093 0.19661424
0.059447244 0.0032317191 0.19640782
0.059611887 0.0045311153 0.19620076
0.059776992 0.0058342814 0.1959931
0.059942588 0.0071411878 0.1957849
0.060108647 0.0084519237 0.19557601
0.060275227 0.0097664148 0.19536659
0.060442269 0.01108475 0.19515651
0.060609773 0.012406945 0.19494581
0.060777783 0.013732985 0.19473457
0.060946286 0.015062898 0.19452256
0.061115265 0.016396701 0.19431004
0.061284751 0.017734423 0.19409686
0.061454743 0.019076064 0.19388306
0.061625212 0.020421669 0.19366863
0.061796188 0.021771193 0.19345358
0.061967671 0.023124702 0.1932379
0.062139675 0.024482206 0.19302157
0.062312171 0.025843725 0.1928046
0.062485158 0.027209289 0.19258702
0.062658697 0.02857887 0.19236875
0.062832743 0.029952511 0.19214991
0.062888712 0.031524487 0.19167659
0.062080607 0.034529097 0.18934846
0.0612593 0.037582859 0.18698227
0.060424417 0.040687054 0.18457702
0.059575662 0.043842927 0.18213171
0.058712646 0.04705172 0.17964539
0.057835028 0.050314866 0.17711699
0.056942403 0.05363372 0.17454541
0.056034461 0.057009675 0.17192957
0.055110887 0.06044399 0.16926864
0.054171175 0.063938402 0.16656116
0.053214863 0.067494549 0.16380593
0.052241504 0.071114071 0.16100153
-0.097465113 -0.3343581 0.07036823
-0.095849246 -0.33279133 0.072332263
-0.094245791 -0.33123657 0.074281156
-0.093698278 -0.33009741 0.074727803
-0.093698367 -0.32916909 0.0743936
-0.093698502 -0.32823822 0.074058443
-0.093698591 -0.32730475 0.073722422
-0.093698703 -0.32636866 0.073385358
-0.093698829 -0.32542998 0.073047459
-0.093698919 -0.32448858 0.072708577
-0.093699045 -0.32354462 0.072368711
-0.09369915 -0.32259801 0.072027951
-0.093699276 -0.32164872 0.071686149
-0.093699425 -0.32069677 0.071343362
-0.093699493 -0.31974211 0.070999742
-0.093699545 -0.31878471 0.070655197
-0.093699552 -0.31782463 0.070309669
-0.093699582 -0.31686187 0.069963217
-0.093699604 -0.31589633 0.069615752
-0.093699634 -0.31492805 0.069267273
-0.093699649 -0.31395704 0.068917871
-0.093699656 -0.31298321 0.068567425
-0.093699686 -0.31200665 0.068215996
-0.093699716 -0.31102726 0.067863554
-0.093699723 -0.31004506 0.067510098
-0.093699776 -0.30906013 0.067155659
-0.11026081 -0.31328291 0.042768002
-0.11127843 -0.31255537 0.040914297
-0.11230572 -0.31182125 0.039043069
-0.11334267 -0.31108028 0.037154347
-0.11438935 -0.31033242 0.035247862
-0.11492405 -0.30942187 0.034083784
-0.11520172 -0.30842888 0.033292085
-0.11548068 -0.30743128 0.03249678
-0.11576091 -0.30642915 0.03169781
-0.11604243 -0.30542231 0.030895114
-0.11632552 -0.3044109 0.030088305
-0.11660992 -0.30339479 0.029277772
-0.11689563 -0.30237395 0.028463483
-0.11718272 -0.30134833 0.027645379
-0.11747113 -0.30031788 0.026823431
-0.11773135 -0.2992748 0.026041031
-0.11757696 -0.29811823 0.025866389
-0.11742225 -0.29695934 0.02569139
-0.11726727 -0.29579812 0.025515974
-0.11711196 -0.29463458 0.025340319
-0.11695632 -0.29346871 0.025164276
-0.11680034 -0.29230052 0.024987906
-0.11664402 -0.29112995 0.024811238
-0.11648738 -0.28995702 0.024634242
-0.11633042 -0.28878176 0.024456918
-0.11617316 -0.28760403 0.024279177
-0.11601557 -0.28642404 0.024101079
-0.11564776 -0.28519469 0.024234086
-0.11502979 -0.28390944 0.024738312
-0.11441233 -0.28262523 0.02524212
-0.11379533 -0.281342 0.02574563
-0.11317883 -0.28005975 0.026248634
-0.11256282 -0.27877861 0.02675128
-0.11194742 -0.27749845 0.02725336
-0.1113325 -0.27621934 0.027755052
-0.11071807 -0.27494121 0.028256327
-0.11010414 -0.27366406 0.028757155
-0.10907072 -0.27230901 0.029886246
-0.10759301 -0.27087599 0.031682193
-0.10612444 -0.26945183 0.033467144
-0.1046649 -0.26803643 0.035241067
-0.10321434 -0.26662973 0.037004054
-0.10177217 -0.26523152 0.038757026
-0.093703508 -0.26273954 0.050482422
-0.093703233 -0.2616142 0.050077945
-0.093702987 -0.26048541 0.049672097
-0.093702741 -0.2593531 0.049265146
-0.093702517 -0.25821739 0.048856765
-0.093702182 -0.25707811 0.04844743
-0.093701929 -0.25593537 0.048036575
-0.093701676 -0.25478911 0.047624558
-0.093701437 -0.25363928 0.04721114
-0.093701385 -0.25248593 0.046796232
-0.093701527 -0.251329 0.046379745
-0.093701653 -0.25016844 0.045961916
-0.093701795 -0.2490043 0.045542836
-0.093701959 -0.24783656 0.045122415
-0.093702048 -0.24666512 0.044700742
-0.09370219 -0.24549004 0.044277698
-0.093702331 -0.24431129 0.043853372
-0.09370248 -0.24312884 0.043427616
-0.093702622 -0.24194264 0.043000549
-0.093704678 -0.24075291 0.04256925
-0.093704678 -0.2395592 0.042139739
-0.093704708 -0.23836172 0.041708797
-0.09370473 -0.23716047 0.041276515
-0.093704745 -0.23595539 0.040842891
-0.093704812 -0.23474652 0.040407807
-0.09370482 -0.23353377 0.039971381
-0.093704842 -0.23231719 0.039533556
-0.093704849 -0.23109668 0.039094388
-0.093704872 -0.22987235 0.038653821
-0.093704909 -0.22864404 0.038211763
-0.093704931 -0.22741181 0.037768364
-0.093704976 -0.22617562 0.037323534
-0.093704984 -0.22493547 0.036877215
-0.093704998 -0.2236913 0.036429495
-0.093705013 -0.22244315 0.035980374
-0.093705021 -0.22119096 0.035529792
-0.093705036 -0.2199347 0.035077691
-0.093705066 -0.21867438 0.034624219
-0.093705103 -0.21740995 0.034169197
-0.030644521 -0.10762212 0.093312949
-0.028314829 -0.10724838 0.096822917
-0.02602084 -0.10688035 0.10027906
-0.023761779 -0.10651791 0.10368258
-0.021536782 -0.10616097 0.1070348
-0.019345194 -0.10580936 0.11033675
-0.017186165 -0.10546297 0.11358953
-0.015059009 -0.10512172 0.11679435
-0.012963057 -0.10478544 0.11995214
-0.010897577 -0.10445409 0.12306398
-0.0088619292 -0.10412748 0.12613088
-0.0068555176 -0.1038056 0.12915385
-0.0048776269 -0.1034883 0.13213372
-0.0029277205 -0.10317546 0.13507149
-0.0010052174 -0.10286702 0.137968
0.00075003505 -0.10248989 0.14057806
0.0023208261 -0.10203211 0.14287058
0.003136903 -0.1011872 0.1438432
0.0039498359 -0.10034551 0.14481208
0.0047596395 -0.099507064 0.14577717
0.0055663586 -0.098671883 0.14673868
0.0063699335 -0.097839892 0.14769638
0.0071704537 -0.097011104 0.14865041
0.007967934 -0.09618549 0.14960089
0.0087623149 -0.095363021 0.15054762
0.0095536709 -0.094543666 0.15149078
0.010342047 -0.093727455 0.1524303
0.011127427 -0.092914343 0.15336633
0.011909828 -0.092104316 0.15429875
0.012689233 -0.091297328 0.15522772
0.013465732 -0.090493396 0.15615311
0.014239296 -0.089692533 0.15707511
0.01500994 -0.088894621 0.15799353
0.015777692 -0.088099733 0.15890855
0.016542599 -0.087307855 0.15982017
0.017304614 -0.086518899 0.16072834
0.018063769 -0.085732907 0.1616331
0.018820137 -0.084949851 0.16253453
0.019573644 -0.084169686 0.1634326
0.020324379 -0.083392426 0.16432729
0.021072328 -0.082618058 0.16521865
0.02181752 -0.081846535 0.16610679
0.022559941 -0.081077889 0.16699165
0.02329962 -0.080312043 0.1678732
0.024036601 -0.079549029 0.16875154
0.024770886 -0.078788832 0.16962662
0.025502458 -0.078031406 0.17049852
0.026231349 -0.077276751 0.17136717
0.026957586 -0.076524854 0.17223275
0.027681187 -0.075775713 0.17309511
0.028402105 -0.075029269 0.1739544
0.02912046 -0.074285552 0.17481047
0.029836193 -0.073544547 0.17566347
0.030549318 -0.07280618 0.17651334
0.03125985 -0.072070494 0.17736021
0.031967834 -0.071337461 0.17820397
0.032673255 -0.070607051 0.17904463
0.060462087 0.001351431 0.19662333
0.060627669 0.0026441664 0.19641721
0.060793757 0.0039406121 0.19621053
0.060960308 0.005240798 0.19600329
0.06112735 0.006544739 0.19579533
0.061294883 0.00785245 0.19558683
0.061462864 0.0091639608 0.19537774
0.061631367 0.010479271 0.19516802
0.061800346 0.011798412 0.19495773
0.061969817 0.013121396 0.19474679
0.062139764 0.01444827 0.19453517
0.062310219 0.015778989 0.19432303
0.062481165 0.017113611 0.19411024
0.062652618 0.018452153 0.19389677
0.062824577 0.019794598 0.19368276
0.062997028 0.021141 0.19346803
0.063169986 0.022491358 0.19325274
0.06334348 0.02384568 0.19303679
0.063517451 0.025204003 0.19282019
0.063691959 0.026566342 0.19260299
0.063867003 0.027932703 0.19238511
0.064042509 0.029303133 0.1921666
0.064218581 0.030677602 0.19194743
0.063741997 0.033139348 0.19031611
0.062938035 0.036167584 0.18796876
0.062120885 0.039245568 0.18558291
0.06129019 0.042374492 0.18315759
0.060445637 0.045555726 0.18069172
0.059586823 0.048790529 0.17818427
0.058713451 0.052080274 0.17563426
0.057825089 0.055426389 0.17304063
0.056921497 0.058830142 0.17040229
0.056002244 0.062293053 0.1677182
0.055066854 0.065816835 0.164987
0.054114863 0.069403119 0.16220728
-0.094577916 -0.33296657 0.072112411
-0.093698837 -0.33169389 0.073033005
-0.093698949 -0.33076596 0.072695792
-0.093699083 -0.32983544 0.072357565
-0.093699165 -0.3289023 0.072018474
-0.093699321 -0.32796657 0.07167837
-0.093699381 -0.32702816 0.071337372
-0.093699522 -0.32608724 0.07099542
-0.093699612 -0.32514358 0.070652515
-0.093699656 -0.32419723 0.070308685
-0.093699664 -0.32324824 0.069963992
-0.093699701 -0.32229653 0.069618225
-0.093699738 -0.32134223 0.069271505
-0.093699716 -0.3203851 0.06892392
-0.093699768 -0.31942534 0.068575233
-0.093699776 -0.31846285 0.068225592
-0.093699798 -0.31749758 0.067874908
-0.093699843 -0.31652966 0.067523271
-0.093699813 -0.31555891 0.06717065
-0.093699865 -0.31458536 0.066816986
-0.09369988 -0.31360906 0.066462308
-0.09369991 -0.31262994 0.066106647
-0.093699962 -0.31164807 0.065749943
-0.093699969 -0.31066337 0.065392226
-0.10754575 -0.31410483 0.044861436
-0.10854442 -0.31338575 0.043029189
-0.10955224 -0.31266001 0.041180164
-0.11056955 -0.31192765 0.039313793
-0.1115965 -0.31118858 0.037429869
-0.11263306 -0.3104426 0.035528272
-0.11327544 -0.30956838 0.034200191
-0.11354892 -0.3085773 0.033409983
-0.11382362 -0.30758154 0.032616168
-0.11409961 -0.30658123 0.031818688
-0.11437689 -0.30557635 0.031017512
-0.11465551 -0.3045668 0.030212462
-0.1149356 -0.30355263 0.029403478
-0.11521698 -0.30253375 0.028590739
-0.11549971 -0.3015101 0.027774185
-0.11578373 -0.30048165 0.026953757
-0.11606909 -0.29944837 0.026129574
-0.11595461 -0.29830456 0.025894165
-0.11579849 -0.29714742 0.025719464
-0.11564208 -0.29598802 0.025544375
-0.11548537 -0.29482624 0.025368929
-0.11532833 -0.29366213 0.025193125
-0.11517092 -0.29249567 0.025017053
-0.11501319 -0.29132691 0.024840623
-0.11485513 -0.2901558 0.024663895
-0.11469676 -0.2889823 0.02448675
-0.11453806 -0.28780648 0.024309337
-0.11437902 -0.28662825 0.024131566
-0.11409061 -0.28541857 0.024145842
-0.11347397 -0.28413469 0.024649531
-0.1128578 -0.28285176 0.025152892
-0.11224211 -0.2815699 0.025655806
-0.11162689 -0.28028902 0.026158392
-0.11101214 -0.27900916 0.026660502
-0.11039801 -0.27773038 0.027162105
-0.10978439 -0.2764526 0.027663261
-0.10917125 -0.27517578 0.028164029
-0.10855861 -0.27390003 0.028664351
-0.10768957 -0.27257651 0.029550731
-0.10621705 -0.27114356 0.031346679
-0.1047536 -0.26971942 0.03313154
-0.10329918 -0.26830402 0.034905404
-0.10185368 -0.26689732 0.03666836
-0.10041686 -0.26549923 0.038420796
-0.094477482 -0.26335302 0.046984464
-0.093703084 -0.26209438 0.047745526
-0.093702853 -0.26096207 0.047334582
-0.093702555 -0.25982627 0.046922535
-0.093702309 -0.25868699 0.046509057
-0.093702026 -0.25754419 0.046094418
-0.093701772 -0.25639784 0.045678437
-0.093701661 -0.25524795 0.045260936
-0.09370178 -0.25409448 0.044841737
-0.093701921 -0.2529375 0.044421285
-0.093702078 -0.25177687 0.043999493
-0.093702227 -0.25061262 0.04357636
-0.093702361 -0.24944477 0.043151915
-0.093702443 -0.24827321 0.042726219
-0.093702555 -0.24709798 0.042299211
-0.093702763 -0.24591908 0.041870683
-0.09370289 -0.24473648 0.041440874
-0.093703024 -0.24355012 0.041009784
-0.093703181 -0.24236003 0.040577173
-0.093705222 -0.24116632 0.04014045
-0.093705237 -0.23996867 0.039705336
-0.093705259 -0.23876722 0.03926897
-0.093705282 -0.23756196 0.038831055
-0.093705311 -0.23635286 0.038391858
-0.093705341 -0.23513986 0.037951261
-0.093705364 -0.23392303 0.037509203
-0.093705393 -0.23270233 0.037065744
-0.093705408 -0.23147769 0.036620885
-0.093705438 -0.23024914 0.036174595
-0.093705468 -0.22901663 0.035726845
-0.09370546 -0.22778013 0.035277724
-0.093705468 -0.2265397 0.034827143
-0.093705498 -0.22529522 0.034375131
-0.093705527 -0.22404674 0.033921599
-0.093705565 -0.22279425 0.033466518
-0.093705595 -0.22153765 0.033010066
-0.093705632 -0.22027697 0.032552093
-0.02971442 -0.10782641 0.092371494
-0.027390033 -0.10745075 0.095891535
-0.025101304 -0.10708089 0.099357605
-0.022847429 -0.10671663 0.10277095
-0.020627558 -0.1063579 0.10613272
