# .PCD v0.7 - Point Cloud Data file format
VERSION 0.7
FIELDS x y z
SIZE 4 4 4
TYPE F F F
COUNT 1 1 1
WIDTH 1356
HEIGHT 1
VIEWPOINT 0 0 0 1 0 0 0
POINTS 1356
DATA ascii
0.10419872 -0.14051241 0.16016993
0.10672336 -0.053645458 0.084925942
0.12482607 -0.26232842 0.023424538
0.097182497 -0.13511842 0.16244172
0.1436591 0.061352298 0.16108309
0.12538517 -0.31314191 0.043887455
0.041841194 -0.028405152 0.19498084
-0.024916505 0.091793343 0.11705984
0.12628953 -0.24498905 0.065188624
0.12568203 -0.21098772 0.070590183
0.12544559 -0.17517883 0.085215606
0.025136324 0.065516919 0.16646808
0.12461079 -0.106451 0.10491028
0.12703399 -0.13505018 0.14271651
0.088483542 -0.27071372 0.10019045
0.1247652 -0.25528055 0.025683455
0.12516902 -0.25472382 0.034956176
0.12714343 -0.33183822 0.035903513
0.12460445 -0.30968532 0.047552988
0.12634245 -0.2627438 0.056471195
0.11714306 0.079391599 0.12855954
0.12559728 -0.2045422 0.0722863
0.12548968 -0.19523977 0.075062431
0.12518106 -0.16456681 0.085247114
0.095151268 0.08233428 0.12484527
0.12528709 -0.11511222 0.11508178
-0.099789418 -0.33371627 0.066054232
0.035288393 -0.046270605 0.18846802
0.12434797 -0.2658574 0.01552379
0.0485528 -0.038977277 0.18977778
-0.095024616 0.074529678 0.14540039
0.12523288 -0.18487927 0.075119644
0.12494353 -0.15496212 0.085318193
0.10127372 -0.10818866 0.16961539
0.11813739 -0.31072474 0.036226202
0.12497484 -0.17490348 0.074936807
0.10507188 -0.27503729 0.096729107
0.025235388 0.080395974 0.14070834
0.12668715 -0.13488533 0.13512009
0.11658054 -0.062600285 0.085488424
0.12406547 -0.26442978 0.0050963988
0.12472761 -0.16481443 0.075061359
0.095070824 0.086395256 0.11490854
0.12432251 -0.27530527 0.0047637536
0.12427878 -0.25511011 0.014993921
-0.04745166 -0.10127114 0.1430572
0.12448779 -0.15475753 0.075332269
0.074904315 0.08749523 0.11541884
0.11209775 -0.058108475 0.084056534
0.10160214 -0.015191986 0.051229265
0.055042624 0.076637432 0.14517906
-0.10265671 -0.18514429 0.085058689
-0.0040660719 -0.089316346 0.15904419
0.02493299 0.054947291 0.17469396
0.12423456 -0.1083074 0.095539063
0.12630214 -0.12460842 0.1322988
0.11279996 -0.1265185 0.16461797
0.12471946 -0.31300288 0.035867926
-0.01409592 0.084995821 0.13510738
0.10666462 -0.014887031 0.04645703
0.024966968 0.078263476 0.14597633
0.024941524 0.082746223 0.13499616
0.12582472 -0.12440579 0.12183017
0.12693463 -0.32505056 0.035047531
-0.014979453 -0.0050465758 0.20167169
0.044894386 -0.080685005 0.16113299
0.12668043 -0.33061534 0.026320256
0.12640537 -0.32504591 0.025249612
0.095101014 -0.15496941 0.15558617
0.10604207 -0.034187108 0.055950738
-0.10310546 -0.18490607 0.075241357
-0.0040596286 -0.10150196 0.14316152
0.12621637 -0.13465382 0.12481488
0.11866078 -0.061323233 0.076828532
0.11396109 -0.056344636 0.074620955
0.045072794 -0.08549767 0.15482908
0.12384127 -0.255445 0.0051090783
0.1092167 -0.031080052 0.049691666
0.10286725 -0.025583457 0.052943401
-0.1043219 -0.15534118 0.064701155
0.12752199 -0.072042838 0.084962681
0.11497485 -0.15488614 0.15454391
0.12622778 -0.3149496 0.024971617
0.12343198 -0.30916181 0.032258142
0.051207285 -0.036302656 0.1905396
-0.014796027 0.088433504 0.12674767
0.10768335 -0.024749331 0.047463987
0.10511097 -0.15508384 0.15500617
0.10815678 -0.051704992 0.076057613
-0.10382611 -0.17515902 0.064677201
0.12915848 -0.07078144 0.077173464
0.11942425 -0.062393576 0.11160803
0.052581787 -0.038657639 0.18939598
-0.0051349532 0.084718421 0.13494541
0.025310792 0.086786427 0.1250378
0.13818377 -0.093138359 0.085625559
0.12457354 -0.065840848 0.074789345
0.054939538 -0.045148604 0.1864261
0.10515499 -0.14539243 0.15840547
0.10451245 -0.2855252 0.091226339
0.12553243 -0.12515217 0.11493742
-0.15458269 0.046353269 0.17691398
-0.10168873 -0.33109853 0.025505997
0.025028765 -0.005086293 0.19824454
0.12493228 -0.098708719 0.11633381
-0.0051890681 0.088353083 0.12604792
-0.0048716697 0.05612972 0.17704456
0.10518157 -0.29129925 0.090267137
0.12727275 -0.12553091 0.15329866
0.12602106 -0.32318044 0.015827009
0.13782747 -0.084637135 0.084824048
0.13748208 -0.084560931 0.074859388
-0.15505753 0.077564001 0.12685107
0.094940983 -0.21208267 0.13108648
-0.15517993 0.053002156 0.1717853
-0.084987141 0.075276114 0.14548954
0.10953967 -0.050497457 0.069334924
0.10524037 -0.29618666 0.088576607
0.13776626 -0.091762088 0.077135563
0.12955585 -0.070459016 0.11222819
0.12520026 -0.066496827 0.11490832
0.12642446 -0.095137671 0.15137319
-0.15238877 -0.019302158 0.20013915
-0.0032845086 0.0072457572 0.19964145
0.10610613 -0.28802323 0.089867771
0.12126088 -0.058913089 0.063803218
0.12688588 -0.12481021 0.14512469
0.12866634 -0.07122054 0.10342246
-0.0047946037 0.090340093 0.12111636
0.13410006 -0.074587308 0.075284131
0.12483957 -0.11519145 0.10511981
0.12595734 -0.063672632 0.065414421
0.12616982 -0.085835278 0.15089643
-0.004710692 0.067711912 0.16803749
0.13558047 -0.07365264 0.065778829
-0.074845754 0.076332547 0.14485325
-0.004098956 0.091767661 0.11750793
-0.045345161 0.082750224 0.13496289
0.13737479 -0.090177909 0.069336638
0.12381831 -0.066995248 0.10530465
-0.0048188949 0.024864674 0.19740488
0.13703577 -0.084198542 0.065160446
0.13178167 -0.068342805 0.064012945
-0.10170827 -0.11489442 0.14509721
-0.1012904 -0.11499785 0.15430008
0.13904165 -0.09148775 0.10556967
-0.074426591 0.04459022 0.18286864
0.022568008 -0.017936422 0.20026425
0.13663198 -0.083149858 0.056788735
0.095031716 -0.21702531 0.12868631
0.10490234 -0.20502655 0.13393538
0.10433016 -0.19112705 0.14070316
-0.10145985 -0.088714957 0.15863732
0.13633749 -0.075336695 0.055104304
0.13884637 -0.085134156 0.10478266
0.12613998 -0.095027216 0.14512505
0.10449203 -0.21158159 0.13078256
0.13312563 -0.066121951 0.054571539
0.13467066 -0.075779252 0.10540786
0.10523047 -0.21658218 0.12831724
0.10515173 -0.18481407 0.14371507
0.13859679 -0.092348509 0.095222734
0.10494059 -0.24469374 0.11410879
0.10501697 -0.23665293 0.11858068
0.10488717 -0.23194075 0.12089493
0.10505964 -0.22513434 0.12418311
0.10516755 -0.19619876 0.13819769
0.13460867 -0.063847445 0.046062883
0.13834946 -0.084552318 0.095050924
0.13370776 -0.076630816 0.095412448
-0.074760981 0.084577672 0.12505323
0.13239759 -0.055954315 0.043840189
0.1347879 -0.082139008 0.14242534
-0.004681366 -0.045104478 0.19400336
0.13064532 -0.049269345 0.040279459
-0.0060591176 -0.080745257 0.17042494
0.1336104 -0.09018971 0.13215639
0.13131645 -0.07962589 0.14634892
-0.0046149758 -0.03534548 0.19801085
0.13340716 -0.076897442 0.084281184
0.13548227 -0.086890593 0.13565305
-0.10295327 -0.11682043 0.1164351
-0.0047362298 -0.08510416 0.16461743
0.13988267 -0.074837677 0.13348123
0.12294568 0.015379715 0.032982621
0.12769438 -0.067171484 0.12168347
0.12496968 0.025123868 0.034881469
0.12124434 0.0058671576 0.031084714
0.12080733 0.028692447 0.040551141
0.12712735 0.034522742 0.036516342
0.12118302 -0.0053430437 0.031367302
0.13072808 -0.069775008 0.12193011
0.12912053 0.041449025 0.038413778
0.06650085 -0.07931871 0.15887201
-0.10140899 -0.14499475 0.13500966
0.13080412 0.02852056 0.030340556
0.12681593 -0.014843409 0.027650667
0.13528565 -0.074685074 0.11534996
-0.014768294 -0.044922922 0.19434625
0.13929535 -0.085043304 0.11478845
0.13146703 0.035424899 0.032238699
-0.014910001 -0.035465859 0.19824204
0.12823308 -0.024746511 0.027932143
0.13198596 0.044829573 0.03555591
0.13181438 -0.014818846 0.022898855
0.074368663 -0.073115021 0.16548318
0.072751865 -0.078570142 0.15867816
0.076279543 -0.069660842 0.16962619
0.13221304 0.055226535 0.03571526
0.13203537 -0.024930226 0.02421291
0.070967145 -0.081571311 0.15510178
0.11453485 -0.23166788 0.12047497
0.053359717 -0.060809482 0.18018667
0.13947062 -0.091105424 0.11529832
-0.1253237 -0.31500974 0.093611829
0.1149599 -0.22536072 0.12350679
0.13207246 0.061064824 0.035852838
0.054935299 -0.0549943 0.18237753
0.13420072 -0.044881798 0.025026564
0.13253304 -0.034905773 0.026028238
0.1027806 0.075113609 0.14132348
0.1151887 -0.2160493 0.12800553
-0.10261085 -0.20463322 0.075250469
0.13479295 -0.060886048 0.028403305
0.13451071 -0.05426386 0.025826341
-0.035267722 0.055496104 0.17676178
0.0058163488 -0.1010766 0.14187317
0.034910724 0.082006454 0.13522391
0.034979943 0.054743502 0.17375034
0.10505444 0.077516161 0.13507576
0.12383673 -0.16488522 0.05527918
-0.102589 -0.22514242 0.064327799
0.10881887 0.046029575 0.08113268
-0.035047658 -0.0050900471 0.20117848
-0.061790392 -0.10009531 0.1441415
-0.035031892 0.083576687 0.13491155
0.12336749 -0.16485834 0.044895262
0.12358219 -0.15495569 0.055153314
0.0051264651 -0.044989124 0.19283737
-0.10486489 0.082410462 0.12461633
0.12365432 -0.17502017 0.045608371
0.12310978 -0.1545482 0.044910964
-0.10051241 -0.14486298 0.15496126
0.06444227 -0.053696506 0.18170021
-0.10229342 -0.23497058 0.06541916
-0.099543624 -0.27445298 0.10444143
0.1238788 -0.18525456 0.044905048
0.12286355 -0.14511555 0.044693124
0.0050432561 -0.034962401 0.19697154
0.12080891 0.049041361 0.06166935
-0.10250828 -0.24477686 0.05521756
0.11577852 -0.29557088 0.016865959
0.12264117 -0.13530181 0.045215826
0.12296273 0.046174638 0.054429971
0.11667321 -0.28578293 0.014680199
0.12442414 -0.22494122 0.034983244
0.12415017 -0.2144552 0.034726985
0.1239375 -0.20471773 0.035414595
0.12366604 -0.1947103 0.034948606
0.12412518 -0.19531444 0.044786464
-0.1022914 -0.25495127 0.054416835
0.11719252 -0.3001712 0.019730192
0.11188612 0.049044698 0.083605953
0.11668076 0.053568795 0.085513391
0.11736519 0.054850399 0.092371292
0.12491342 -0.24486898 0.034759235
0.12469498 -0.23530084 0.035234902
-0.14001575 -0.16889058 0.16316751
-0.10182438 -0.25510833 0.06467326
-0.10206515 -0.24503165 0.064898476
0.12238431 -0.12531275 0.045074195
0.090473339 -0.0073903333 0.060348161
-0.099315509 -0.3046467 0.093267538
0.12802942 -0.3149935 0.06484367
-0.10203517 -0.26249659 0.055910848
0.071034648 -0.054043379 0.18071772
-0.099396944 -0.31511652 0.085145921
-0.099656843 -0.30512315 0.084935427
0.12820067 -0.3241469 0.063566126
-0.10492975 -0.31479746 0.092568927
-0.14038597 -0.15362673 0.1685811
-0.10276587 -0.23468457 0.055109669
0.12216442 -0.1168981 0.044880591
0.0058098724 -0.02860426 0.19948874
0.062861711 -0.047515478 0.18444352
0.12333858 -0.29542166 0.015812969
0.12300762 -0.28506374 0.013882152
0.1274806 0.05257798 0.055993754
-0.055029981 -0.10623506 0.10538597
-0.099284671 -0.32246801 0.083542712
0.096970484 -0.034034289 0.066263728
0.093674503 -0.025934797 0.063269161
-0.10711775 -0.32009378 0.090509534
0.099835046 0.031151036 0.070376553
-0.10146017 -0.1250972 0.1449306
0.12509717 -0.30450472 0.016075801
-0.015110789 -0.015045588 0.20299017
0.12203237 0.058331501 0.084670253
0.12668924 0.063518763 0.09473864
-0.013128034 0.056999084 0.17687337
0.055717219 0.079338558 0.13845314
0.099769384 -0.041601032 0.069466144
0.11599411 -0.30485669 0.024144424
-0.0994078 -0.28410417 0.10209868
0.088930048 -0.20461284 0.13505006
0.13578632 0.068057552 0.12205567
0.12536888 -0.31458718 0.0061260331
0.12574457 -0.31424251 0.014653198
-0.084902346 0.083918862 0.12473475
-0.13481782 -0.17323484 0.16135336
-0.13487254 -0.16474183 0.16435739
0.024364505 -0.0431519 0.19114219
0.12468804 -0.14545976 0.084935553
0.094921611 -0.20484608 0.13459408
0.10898489 -0.041820295 0.058963973
0.12559903 -0.32040355 0.0080089895
0.095202684 -0.1967206 0.13851525
-0.13388811 -0.14930178 0.16976054
0.025019571 -0.034996133 0.19441293
0.12423064 -0.14507711 0.075010642
0.08906386 -0.31256256 0.0827334
0.11749835 -0.062104441 0.10408226
-0.15420218 0.015050807 0.19554707
-0.15424238 0.024591887 0.19302599
0.12715378 0.062990621 0.084912494
-0.099312611 -0.31353748 0.091617145
0.13170812 0.056528471 0.054178968
-0.12488221 -0.14347769 0.17133555
0.1333518 0.081134133 0.075321004
-0.15389845 0.0051876721 0.19683708
-0.13484272 -0.14426531 0.17159151
0.10403559 0.037200466 0.071959831
-0.12527063 -0.26500046 0.116173
-0.11731767 -0.14251725 0.17126988
0.13348414 0.075280018 0.075017713
0.11182259 -0.037395194 0.051987529
0.11644698 -0.062785156 0.094980337
-0.15389477 -0.0051142974 0.19817643
-0.15891674 0.060824104 0.16543588
-0.004889817 -0.015021863 0.20282365
-0.0049165259 -0.0050417101 0.20147319
0.13217472 0.067561939 0.084944807
0.13185097 0.068218462 0.095023155
0.1343313 0.074503332 0.094917737
0.13419954 0.082651667 0.094948031
0.10587168 -0.044585392 0.065287985
0.10225448 -0.037158836 0.06280186
-0.13551883 -0.19517149 0.15225245
0.12334066 -0.30537301 0.024304099
-0.11390463 -0.14341438 0.17076993
0.13375498 0.082113147 0.08479742
0.1264676 -0.084954016 0.14517054
-0.15796132 0.061112475 0.16467829
0.13238423 0.071141437 0.048344351
-0.12509878 -0.17325845 0.16082324
-0.12496083 -0.16523619 0.16365057
-0.16041608 0.056836635 0.1683896
0.1077472 0.043202389 0.074562028
0.13234101 0.054294229 0.045350358
-0.1116091 -0.14186239 0.17119552
0.13216494 0.064796761 0.064119302
0.11487917 -0.045179714 0.054996695
0.12945472 0.022430332 0.029239357
-0.15673496 0.061506603 0.16416998
0.13241157 0.064306319 0.045150757
0.025445396 -0.025592169 0.1982234
-0.10419559 -0.1953394 0.045276646
0.12397723 -0.13515726 0.074907586
-0.11011788 -0.14404944 0.17034267
0.12781203 0.014388771 0.027644247
-0.14515874 0.015028176 0.19578117
-0.1447857 0.025134163 0.19313079
0.11949565 0.022086497 0.039202567
-0.16069849 0.061470106 0.16346245
-0.12424162 -0.14823726 0.16961904
0.035043392 -0.0350518 0.19311313
-0.12504637 -0.25885841 0.11967566
-0.11439511 -0.14767863 0.16928899
-0.099461116 -0.00690566 0.19980057
0.13065077 0.059468608 0.060324997
0.089016058 -0.27521914 0.097579494
-0.14497173 0.0049384213 0.19709761
0.11794969 0.014575038 0.037724309
-0.16067249 0.063927494 0.15785402
0.1234997 -0.13463104 0.064615965
-0.1072821 -0.14169392 0.17102332
0.08881326 -0.28589651 0.091866933
0.12745461 -0.071762651 0.094375879
0.12251687 -0.067668341 0.095047399
-0.14482285 -0.0050420915 0.1983989
-0.14894861 0.060907502 0.16595556
-0.12526906 -0.19415839 0.15216044
0.1234706 -0.27481875 0.015222046
-0.1038277 -0.14189309 0.17076792
-0.097859733 -0.0038233926 0.19944078
-0.14499913 0.046347704 0.17729239
0.11839234 -0.041832455 0.048146542
0.1209537 -0.048885025 0.051111959
0.13193652 0.025025817 0.026066456
0.1322366 0.035056993 0.025038628
-0.14753543 0.061380334 0.16564161
0.13393465 0.075098626 0.084902309
0.088887617 -0.25203252 0.11086154
0.12651977 0.044027075 0.045963574
-0.1550512 0.057659242 0.16807611
-0.16054951 0.065201215 0.15483503
0.11256244 0.047636721 0.073175721
-0.10183246 -0.14159432 0.17076665
-0.095132455 -0.0036467724 0.19948749
0.088906214 -0.29827484 0.088623211
0.1152733 -0.19563125 0.1378943
-0.064812399 0.085546412 0.12459072
-0.13350067 -0.22002897 0.14002629
-0.13505736 -0.21480519 0.1426602
-0.11534134 -0.17231321 0.16063339
-0.16155662 0.066132367 0.15242076
0.03449342 -0.025730232 0.19701698
0.10489359 -0.31264549 0.081820421
0.11477381 -0.2050721 0.13334829
-0.093367614 -0.0035320225 0.19951768
0.066150017 -0.058436118 0.17953338
-0.14496303 0.052918989 0.17228216
0.12756173 -0.053275406 0.047187582
0.13174351 0.015496875 0.023799134
-0.13492721 0.015029742 0.19604248
-0.13498388 0.025459992 0.19341585
-0.15398996 -0.014762868 0.19942832
-0.15376183 0.062290508 0.16289341
-0.16042542 0.0664858 0.15179031
0.11746186 0.052918304 0.074379794
-0.10495362 0.07369066 0.1455543
0.12326871 -0.12481539 0.06495247
-0.10383653 -0.14589335 0.16907585
0.12459221 -0.28542489 0.005109916
-0.10174503 -0.13461271 0.13333012
0.089052372 -0.30635875 0.085287616
-0.064730406 0.04462871 0.18339592
0.12418503 -0.045419976 0.044487391
0.13230078 0.014985666 0.015306996
-0.13505055 0.0049399333 0.19735099
-0.14885587 0.063977398 0.15996778
-0.070930324 0.016970679 0.19736986
-0.11503665 -0.16490526 0.16323482
-0.1561888 0.064857624 0.15647976
-0.099947631 -0.14141001 0.17065433
-0.10005796 -0.14446963 0.16639064
-0.089256056 -0.0050346185 0.19981818
-0.14437775 -0.018676663 0.20018278
0.12377306 -0.10930186 0.084757723
0.1324681 0.0048605464 0.016065242
-0.14877273 0.06460543 0.15848348
-0.072254606 0.026095007 0.19581579
0.13238284 0.067090176 0.074776553
-0.11571942 -0.19367389 0.15185057
-0.15381408 -0.028040228 0.19922654
-0.1550032 0.066321991 0.15320615
-0.10210956 -0.22532544 0.074851409
-0.10014112 -0.14458995 0.16445164
-0.088106923 -0.0031907111 0.19960782
-0.15443833 0.029318813 0.18972906
-0.1453412 -0.023029884 0.20056991
-0.1351161 0.046836231 0.17749815
-0.1349857 0.053436242 0.17247148
0.12348855 -0.11516746 0.075190172
0.13278735 -0.0043158499 0.015571829
0.11514864 -0.23627277 0.11817621
0.14032796 -0.081824638 0.14063883
0.14022453 -0.075168863 0.14086378
-0.1476635 0.064952135 0.15786499
-0.13543323 -0.23498726 0.1328485
0.12598084 0.0049388078 0.026120186
0.13138312 0.047805008 0.043444902
-0.15282865 0.066382185 0.15347338
-0.12623812 -0.25934383 0.11909827
-0.10020673 -0.14566523 0.1623504
-0.08656399 -0.0025029774 0.19955784
-0.14472841 -0.034898911 0.1965301
0.073310636 -0.057837017 0.17886762
0.12601601 -0.1446116 0.1148395
0.13248032 -0.0053240978 0.0080026938
0.13198449 0.045194738 0.025091393
0.13187493 0.052598272 0.02678195
-0.14697295 0.029861655 0.18975189
-0.14656308 0.065301217 0.1572392
-0.1350752 -0.22496587 0.13771075
-0.10575263 -0.17106515 0.16056001
-0.10498948 -0.1649978 0.16266365
-0.14528081 0.05798373 0.16840035
-0.15274692 0.067021742 0.15196131
0.12406137 -0.24482328 0.015873827
0.12283602 -0.12518479 0.055156797
-0.10032734 -0.14386736 0.16068879
-0.084627889 -0.002965193 0.19966742
0.11146571 0.038376223 0.061912078
-0.14531711 -0.044996463 0.19238071
-0.13017277 0.056420557 0.17047682
0.12372294 -0.12528169 0.074760586
0.13274631 -0.015125406 0.0084592775
0.11494656 -0.24470887 0.11350547
-0.14504357 0.034961328 0.18597493
-0.15162343 0.067372791 0.151335
0.11521335 -0.31292942 0.081130572
-0.10236885 -0.21500248 0.074848101
-0.13471487 -0.017546803 0.20028289
-0.13477044 0.07876192 0.12777641
-0.12591864 0.052911922 0.17340201
0.13300379 -0.02463074 0.0088911327
0.005124364 -0.075628333 0.17515972
-0.14461832 0.041486941 0.1810223
-0.14535595 -0.013724875 0.19951406
-0.14402913 0.062491417 0.16380727
0.1229054 0.058136512 0.074614689
0.1238488 -0.24900714 0.0088409949
-0.11958534 -0.25954002 0.11859091
0.12263914 -0.11661709 0.055558238
-0.099945873 -0.14699297 0.16743717
-0.15469517 0.035004549 0.18537715
0.11417761 0.035987999 0.054444339
-0.1350527 -0.022985877 0.20078674
-0.12506653 0.047019765 0.17794622
0.13549756 -0.073085554 0.037236918
0.11514593 -0.25497109 0.1076184
0.14015816 -0.084506385 0.1342141
0.13189977 0.034475122 0.017258881
-0.1354001 -0.25435889 0.12250894
-0.14475109 -0.028237155 0.19929296
-0.1449956 0.066224821 0.15532939
-0.079252094 -0.0032004414 0.19983542
-0.10046559 -0.14499058 0.15692692
-0.14144868 -0.053811949 0.19066311
-0.13497439 -0.034919869 0.19668072
-0.13521782 -0.028445998 0.1993621
-0.12234031 0.055235855 0.17183879
0.10478771 0.081810169 0.12459777
0.13179976 0.042350981 0.019423904
-0.14928879 0.068719767 0.14855912
-0.13481075 -0.24449913 0.12806617
-0.10570669 -0.19315828 0.15152937
-0.14415471 0.067263037 0.15300858
-0.10038944 -0.1347978 0.16442099
-0.099457979 -0.26400799 0.11292648
-0.11440958 -0.25775868 0.11930864
-0.07793542 -0.0019480884 0.19970626
-0.10065194 -0.14531365 0.15255062
-0.13533394 -0.045284033 0.19248003
0.12331454 -0.1447089 0.054913338
0.12377267 -0.1448935 0.064963162
-0.12072777 0.056539156 0.17093903
0.1352056 -0.064847536 0.035340179
0.1049087 0.085699588 0.11504929
0.13203846 0.024611605 0.014844389
0.13909796 -0.067331716 0.13733287
-0.14712995 0.068776928 0.1488305
0.13305181 0.074583888 0.065050222
0.13117896 0.0053026625 0.021238074
0.11488179 -0.21107025 0.13043569
-0.14202259 0.067320667 0.15327382
-0.076226227 -0.001838049 0.19973564
-0.1007571 -0.14446244 0.15068427
-0.10077348 -0.13534909 0.15563205
0.10525683 -0.304737 0.085055545
0.11511473 -0.27478388 0.096276909
0.0048380559 -0.083510846 0.16494298
0.065107405 -0.064499237 0.17660151
-0.13520943 -0.27254951 0.11203271
-0.14911675 0.070018999 0.1454884
-0.13489637 -0.0049406509 0.19863936
-0.13541496 0.058355197 0.16869436
-0.14191896 0.067956634 0.15177444
-0.10062148 -0.12474785 0.16522382
0.12766987 0.062535845 0.0753631
0.12449427 -0.31195313 0.080964804
-0.10279296 -0.21481659 0.065551549
-0.074721128 -0.001160371 0.19968601
-0.10105846 -0.13297743 0.15060836
-0.13538466 -0.052827626 0.19053389
-0.12488324 -0.016816484 0.20043923
-0.11624414 0.053250849 0.17370965
0.11478835 -0.28285632 0.091674633
0.13199158 0.01441229 0.0081249205
0.13979751 -0.090417117 0.12293293
-0.13477686 -0.2647813 0.11647607
-0.13529386 -0.012601641 0.19962522
-0.1418163 0.068595693 0.15026753
-0.099573292 -0.25470454 0.11473884
-0.10784991 -0.25795829 0.1188048
-0.10307531 -0.20494775 0.064778
-0.12500714 -0.034912236 0.19684672
-0.12555173 -0.028447917 0.19951917
-0.11497147 0.047503326 0.1781681
-0.11319213 0.054817289 0.17269342
0.11526032 -0.29508755 0.088392496
0.11551868 -0.28813854 0.089555159
0.13975483 -0.084656157 0.12519579
-0.13293485 -0.2591475 0.11960808
-0.09975712 -0.16438112 0.16165552
-0.13472682 0.062658124 0.16455087
-0.10088512 -0.1148008 0.16508345
0.12821783 0.06137621 0.066880763
-0.10640751 -0.25992867 0.11758581
-0.12499951 0.025317524 0.19393061
-0.094753936 -0.10343893 0.11466795
-0.10112766 -0.13560662 0.14752069
0.11738776 0.033081885 0.04644011
-0.12499085 -0.044932574 0.19269061
-0.14024384 -0.14491729 0.17165102
-0.11280254 0.056185193 0.17167279
-0.034558021 0.050499097 0.18063098
0.10574813 0.087790415 0.10979337
0.13219008 0.0047745407 0.0071690371
0.13751534 -0.075476862 0.12381693
-0.13512108 -0.29541785 0.10042752
-0.14990838 0.072294883 0.13990307
0.13280837 0.065437071 0.055097494
-0.099487297 -0.19312733 0.15083469
-0.12360767 -0.29574612 0.099707671
-0.13579345 0.066719525 0.15588693
-0.10277683 -0.25619969 0.11951558
-0.069641806 -0.00083650398 0.19977376
-0.10128905 -0.13516445 0.14414975
0.12242343 0.036101695 0.042695425
-0.1260436 -0.051745187 0.19029891
-0.11144262 0.056655984 0.17139328
0.11499567 -0.30493271 0.084434599
0.13254109 -0.045347635 0.034616191
0.13099863 -0.038916524 0.031192228
-0.13480698 -0.28547814 0.10457102
-0.14876811 0.072651021 0.13926785
0.11444567 -0.25020793 0.11038698
-0.13349327 0.068187848 0.15281436
-0.13550302 0.030273978 0.19010855
0.12825364 -0.31436795 0.074693486
-0.10133205 -0.25815666 0.1183041
-0.067761049 -0.0012937766 0.19988132
-0.13503055 0.035243846 0.18634537
-0.1013964 -0.13428219 0.14224979
-0.1245952 -0.023197871 0.20102058
-0.11493072 -0.015739292 0.20055357
-0.10184347 -0.23495425 0.075398095
-0.1053134 0.047895733 0.17843398
-0.10701755 0.052555583 0.17477991
-0.13532586 -0.11244182 0.18042199
0.13070473 -0.069624804 0.070190579
-0.13502465 -0.27852145 0.1085861
-0.1486823 0.073316827 0.13769384
0.12305168 -0.13466869 0.0546657
-0.12526245 0.058697391 0.16902746
-0.13238126 0.068530433 0.15220629
-0.10113151 -0.10521059 0.16512345
-0.099881642 -0.26012111 0.11708801
-0.099328734 -0.2543501 0.11874329
-0.06628228 -0.00062239781 0.19983178
-0.1015218 -0.13241713 0.14051521
-0.11486369 -0.035003573 0.19697453
-0.11533111 -0.028858315 0.19951592
-0.10017409 0.049623247 0.17741707
-0.1053895 0.054482151 0.17340563
-0.13450088 -0.10503801 0.18163723
0.13450937 -0.05390365 0.036085434
-0.13259804 -0.32100579 0.090974778
-0.13470891 -0.31520733 0.093493968
-0.075207233 -0.024022158 0.20181213
-0.12494458 -0.0048918854 0.19888742
-0.13127762 0.068875425 0.15159076
-0.10224534 -0.32337734 0.017446199
0.12823898 -0.30491456 0.075104393
-0.099421419 -0.25489768 0.11633702
-0.13516764 -0.12493001 0.17813252
-0.064610489 -0.00051576027 0.1998606
-0.12478152 -0.056335468 0.1894211
-0.11492223 -0.044823669 0.19290026
-0.1050672 0.078042701 0.13507448
-0.10404511 0.05494865 0.17312846
-0.1347886 -0.094911329 0.18336855
-0.14011753 -0.09794426 0.18311432
-0.13473952 -0.30488136 0.097774245
-0.075031504 -0.015032399 0.20148157
-0.12517469 -0.011778397 0.19977678
-0.12496783 0.063168101 0.16479816
-0.13115372 0.069510892 0.15009652
-0.099536404 -0.25423944 0.11413329
-0.1349331 -0.11742083 0.1795585
-0.11497436 0.025270924 0.1943936
-0.11476354 -0.023319069 0.20115624
-0.1022442 -0.0094898799 0.20006539
-0.13475288 -0.1350399 0.17484678
-0.10318009 0.055861019 0.17248318
-0.14045471 -0.10525361 0.18189128
-0.14135085 -0.082936212 0.18571956
-0.075479999 -0.051537931 0.19075984
-0.074567199 -0.0067651989 0.20041862
-0.11483335 -0.29569456 0.09940856
0.0074090036 -0.0021147295 0.19975632
-0.10158364 -0.10487431 0.15515184
-0.099609226 -0.25600007 0.11147089
-0.12506554 0.035589837 0.1866646
-0.12631592 -0.27325779 0.11109827
-0.094819233 -0.034969222 0.19731621
-0.10503633 -0.015143385 0.20072907
-0.10699743 0.059435345 0.1695334
-0.14097311 -0.075079396 0.18703344
-0.14455388 -0.06456887 0.18660878
-0.074750945 -0.0449186 0.19351721
0.12296677 -0.16410401 0.036433764
-0.12444064 0.030615924 0.19049492
-0.099725798 -0.25534022 0.10923681
-0.10167148 -0.13537335 0.13542892
-0.11524503 -0.056178227 0.18900107
-0.10471053 -0.029194001 0.19955015
-0.1033477 0.059471611 0.16971935
-0.10762941 0.062166564 0.16741316
-0.11516787 0.063470282 0.16534147
-0.044962723 0.087044388 0.12471326
-0.14644633 -0.054941654 0.1887497
-0.075208038 -0.034978334 0.19763279
-0.14823374 0.076685168 0.1297335
0.12324256 -0.17460658 0.036713656
-0.12524195 0.067738108 0.15544841
0.095050372 -0.18507306 0.1441678
-0.099843107 -0.25467679 0.10699023
-0.099971108 -0.24740177 0.10835844
-0.10005446 -0.24260126 0.10926235
-0.057975452 -9.2875096e-05 0.19997524
-0.1020173 -0.1308555 0.13028221
-0.10506544 -0.035202432 0.19705211
-0.13523452 -0.15500991 0.16781576
-0.10200763 0.059937924 0.16944203
-0.11505258 0.059125371 0.16929847
-0.11165041 0.066334911 0.16137052
0.13412404 -0.050974708 0.019091038
0.13146438 -0.0055834693 0.021814695
-0.075179361 -0.029577747 0.19987343
-0.11493864 -0.0049331808 0.19914852
-0.14035231 -0.13343713 0.1757136
-0.10002515 -0.25034955 0.1054265
0.088674761 -0.29256693 0.090770118
-0.10175736 -0.096295707 0.15623784
-0.12508728 -0.12463094 0.17769581
-0.10013018 -0.24431276 0.10657434
-0.058572076 0.0041267956 0.19941141
-0.085060149 -0.034769807 0.19755834
-0.13487312 -0.18475384 0.15711088
-0.10481682 -0.045062523 0.19296628
-0.10535777 -0.0047856453 0.1993742
-0.10499544 0.0048897183 0.19812568
-0.049579084 -0.019050293 0.20265457
-0.11058147 0.066669285 0.1607738
0.13384423 -0.044255409 0.016627578
-0.074909203 -0.064898916 0.18522759
-0.10426828 -0.15449916 0.1655619
-0.10005838 -0.25456157 0.10222447
0.12514342 -0.14562663 0.094935656
-0.12176981 0.070067719 0.1505398
0.12442687 -0.13498764 0.084967345
0.095194221 -0.17533912 0.14842145
-0.12503064 -0.11598333 0.17931895
-0.10490646 -0.056652244 0.18850602
-0.13430116 -0.17815083 0.15958849
-0.11508451 0.0051713469 0.1978312
-0.11502637 0.01511247 0.19654034
-0.048937425 -0.016106743 0.20228827
0.13355842 -0.035394367 0.015230371
-0.075300008 -0.056787137 0.18858565
-0.1156372 -0.010770516 0.19988954
-0.10550047 -0.27607724 0.10824255
-0.10022034 -0.25143212 0.10041363
-0.10027064 -0.24505846 0.10298324
-0.10506729 0.025419068 0.19472231
-0.11433741 0.031000976 0.19079232
-0.11512425 0.035957538 0.18696579
-0.084973872 -0.023950128 0.20158993
-0.11578445 0.06810534 0.15635924
-0.049688928 -0.0092589259 0.20137873
0.13328752 -0.025236113 0.014865426
-0.10514147 -0.18421111 0.15571442
-0.1042868 -0.17579801 0.15815829
0.091646492 0.0068029435 0.061254494
-0.10530855 -0.29536012 0.098933876
-0.10050638 -0.241007 0.10003042
0.12417933 -0.12479328 0.085146941
-0.12477289 -0.24564075 0.12683579
-0.10042397 -0.24586321 0.09907756
-0.11489431 -0.27217355 0.11104523
-0.10234518 -0.1253296 0.12612323
-0.12492384 -0.17789648 0.15917489
-0.047579866 -0.034698319 0.19820033
-0.11286444 0.06936428 0.15390374
-0.11713769 0.070342556 0.15075868
0.13303323 -0.015021662 0.014896591
-0.10011395 -0.16458194 0.15339904
-0.14943434 0.080254704 0.11998056
-0.14015956 -0.17811504 0.1599157
-0.10007364 -0.27262256 0.091347076
-0.10043257 -0.23512912 0.10510785
-0.10056436 -0.24394977 0.097023986
-0.10072888 -0.23428214 0.098939016
-0.12454698 -0.27736744 0.10862923
-0.10195898 -0.12492243 0.13504492
0.13559377 0.074048415 0.12110426
0.13306685 0.081231155 0.12120987
0.094660111 0.0158928 0.061884068
0.098001219 0.024477417 0.064292163
0.025093179 -0.055069778 0.18614797
-0.11177715 0.06970115 0.15330464
-0.11363113 0.070275389 0.15158221
-0.042355683 0.090540372 0.11680076
0.13617374 -0.080825575 0.04792276
-0.10493284 -0.2129048 0.14186601
-0.10464182 -0.20443873 0.14597344
-0.1008082 -0.23596536 0.096176177
0.13266869 0.074476957 0.056490138
-0.049162343 0.0032983343 0.19975966
-0.13456811 -0.20460415 0.14760248
0.10077224 -0.0074462644 0.050749253
0.025675569 -0.047871895 0.18903404
-0.11161978 0.070327364 0.15183832
0.13588904 -0.07443168 0.045160793
-0.10403534 -0.19685151 0.14768898
-0.099653468 -0.26479682 0.10535814
-0.099947937 -0.25629365 0.10369419
-0.10092922 -0.23524231 0.093876183
-0.10103569 -0.22540542 0.097210594
0.12392783 -0.11491138 0.085067973
-0.12283108 -0.23981549 0.12977736
0.10494188 -0.17497344 0.14802203
-0.11558314 -0.11498281 0.17902745
-0.10437647 0.031418808 0.19105637
-0.048333172 0.0056037712 0.19948113
-0.11508117 -0.17713225 0.15891653
0.10142642 0.0066601569 0.051328868
0.095980957 0.0044092853 0.055886753
-0.10399991 -0.20478889 0.044366781
-0.11145789 0.070954964 0.15036961
-0.049905028 0.010013283 0.19886771
-0.10514757 -0.23358482 0.13180429
-0.10010046 -0.18371055 0.1425411
-0.099823579 -0.27535874 0.09538497
-0.10105091 -0.23451518 0.091563314
-0.10121264 -0.22490093 0.093525559
0.1215283 0.058710199 0.093319021
-0.09517289 0.02534534 0.19517888
-0.065051511 -0.024119556 0.20192765
-0.10257894 -0.1262586 0.12032534
0.13555758 0.068901569 0.11745218
0.13528118 0.075514339 0.11498266
0.095442712 -0.004929848 0.055320825
0.097921327 0.013830717 0.057739504
-0.11633787 0.072101258 0.14670925
-0.049077038 0.012298218 0.19859174
-0.10475214 -0.22458456 0.13616611
-0.10022673 -0.17503822 0.1447645
-0.099584833 -0.28508505 0.09511409
-0.099491991 -0.27455285 0.104169
-0.10405071 0.064793944 0.16466258
-0.10133449 -0.22414869 0.091223754
-0.10510524 0.03636232 0.18724324
-0.10115294 -0.23500307 0.088986002
-0.10213735 -0.13499592 0.12517235
0.1333086 0.083264656 0.11471593
0.12509824 0.08443629 0.11493555
0.11595985 0.0873399 0.1092741
0.099046409 0.020744162 0.05940219
0.091170587 -0.088315949 0.17344058
-0.11490035 0.073408529 0.14385854
-0.11498887 0.042469319 0.18200687
-0.10537273 -0.25270432 0.12168022
-0.10509398 -0.218346 0.13922463
-0.099797145 -0.29529369 0.086096369
-0.099419013 -0.29525703 0.094967835
-0.10141045 -0.21496239 0.094867893
-0.11533682 -0.24437019 0.12701735
-0.10125586 -0.23548728 0.086390406
-0.10425112 -0.27175635 0.11065411
-0.1156409 -0.27795637 0.10776275
0.12672837 -0.087742217 0.13752426
0.099119149 -0.045609772 0.081408635
0.12544706 0.086837381 0.10899743
-0.12494504 -0.084865063 0.18459167
-0.13531269 -0.085364893 0.185013
-0.10403519 -0.21465291 0.038105905
-0.11285323 0.073451966 0.1441417
-0.10582688 -0.24420762 0.126506
-0.10010616 -0.20237696 0.1315295
0.091125153 -0.016002981 0.061134666
-0.09952005 -0.30503258 0.084919609
-0.035391465 0.087563537 0.12526096
-0.094637156 0.03176241 0.19136406
-0.10137977 -0.23475318 0.08403188
-0.065290071 -0.029862352 0.19991693
-0.10255398 -0.13530123 0.11562587
0.14411227 0.054996077 0.16610996
0.13170283 0.068789028 0.10232212
0.094662085 -0.14120165 0.16044238
-0.10421541 -0.2074431 0.038114138
-0.11268908 0.074093111 0.14264126
-0.1027559 -0.238207 0.12941593
-0.10019682 -0.19432616 0.13418135
-0.10039201 -0.18499103 0.13524142
-0.10567467 0.070696004 0.15208185
-0.10166537 -0.20477237 0.095072746
0.11491478 -0.18502575 0.14305374
-0.039738186 0.0044336389 0.199853
-0.10150436 -0.23401488 0.081659906
-0.054800302 -0.024447644 0.20203389
0.11103235 -0.0057898872 0.040909268
0.12854604 0.06589815 0.1019754
0.095093235 -0.14602304 0.15872681
-0.032429289 0.068059891 0.16729894
-0.11769166 0.07579013 0.13764273
-0.10008471 -0.22059298 0.12139897
-0.12468375 -0.13505842 0.17430073
-0.099059045 0.059740234 0.16976541
-0.10150047 0.071203277 0.15165927
-0.11392176 -0.23932955 0.12950598
0.11496213 -0.17497577 0.14746945
0.10656504 -0.16959013 0.14983632
-0.038936 0.006715212 0.19957684
-0.10158948 -0.2357375 0.078745387
-0.11487847 -0.085095935 0.18406089
0.12400868 -0.22492914 0.02576806
-0.10389689 -0.23643661 0.02907606
-0.11522164 0.076305829 0.13687779
-0.10466196 -0.26610485 0.11392944
-0.11057024 0.057576373 0.1707423
-0.10014351 -0.21405472 0.12388589
-0.099246144 -0.31492117 0.085334569
-0.091175333 -0.0027263046 0.199469
-0.093733974 -0.0085996203 0.20016718
-0.10131942 0.071827374 0.1502025
-0.034430012 0.091109812 0.11691851
-0.10320072 -0.11495657 0.17654823
-0.085065298 0.025302403 0.19556127
-0.10171565 -0.23499629 0.076339751
0.035395063 0.086206675 0.12485535
-0.10428837 -0.29013127 0.10008593
-0.1150712 0.076964639 0.13533261
-0.14083917 -0.11358699 0.18049689
-0.10032554 -0.20513704 0.12498817
-0.12518904 -0.15500796 0.16727717
-0.095144734 0.036710467 0.18756042
-0.10184257 -0.23425078 0.073920272
-0.044026479 -0.03030882 0.20007905
-0.11544666 -0.10459505 0.18078232
-0.10465812 -0.28493503 0.10309711
-0.11395687 0.077312909 0.13471146
-0.10010793 -0.23423167 0.1129306
-0.10058521 -0.1950517 0.12502579
0.1250807 -0.3049753 0.0050625531
-0.094616726 -0.029364891 0.19964416
-0.094815321 0.064414948 0.16586639
0.031977348 -0.0050678491 0.19748607
-0.099255256 -0.27011865 0.11123619
-0.1019303 -0.23599316 0.070936002
0.093681693 -0.18551518 0.05565479
-0.1151586 -0.095097601 0.18237869
0.12386163 -0.21622266 0.027353318
0.11214103 -0.29111961 0.090030901
-0.11918014 0.079372138 0.12880602
-0.044760007 -0.024364144 0.20225094
-0.10026062 -0.22467907 0.1150627
-0.16222191 0.07716094 0.10566433
-0.10210966 -0.20510517 0.084889948
-0.084655195 0.03217674 0.19163197
-0.10205884 -0.23524472 0.068481736
-0.10215797 -0.22901312 0.069872662
-0.099888213 -0.16583033 0.15774287
-0.1028281 -0.1375455 0.10815537
-0.014665593 0.06803304 0.16831698
-0.10487971 -0.30511859 0.096027441
-0.11651626 0.079582214 0.12880762
-0.11944535 0.080544502 0.12595578
-0.044268299 -0.014625506 0.20221505
-0.10050473 -0.214803 0.11532731
0.1244785 -0.24534966 0.024829213
-0.10236339 -0.19488999 0.085155025
0.12559171 -0.14544046 0.10497463
-0.10218811 -0.23449188 0.066013232
-0.10234574 -0.22454032 0.068255931
-0.12512474 0.0049208165 0.19760719
-0.099784188 -0.17497873 0.15474366
0.11582224 -0.0048597381 0.03633875
0.12610744 -0.25501674 0.055570174
-0.099324301 -0.23249021 0.13156669
-0.044685002 -0.052045681 0.19105265
-0.11442172 0.079614431 0.12912643
-0.11733498 0.080576219 0.12627882
-0.044933289 -0.0048326869 0.20092489
-0.10076252 -0.20514761 0.11515575
-0.11501797 -0.13508041 0.17377527
-0.11522005 -0.12487841 0.17713012
-0.094962761 0.071132876 0.15306363
-0.12230714 -0.3033728 0.027785325
0.12533732 -0.13485183 0.10522162
0.11551812 -0.16885565 0.14961156
-0.029321576 0.0067238864 0.19982147
-0.10229841 -0.23499013 0.063244589
-0.10245559 -0.2250021 0.065517589
-0.11252767 -0.10926776 0.17984746
-0.01566671 0.090811193 0.12098687
-0.045002278 -0.044920899 0.19400249
-0.042553809 -0.035494797 0.19795211
-0.11329801 0.079965554 0.12850009
-0.11718377 0.081254654 0.12468693
-0.044438001 0.0011923109 0.20015423
-0.12478726 -0.18456939 0.15665142
-0.081901848 -0.002333638 0.199655
-0.084464312 -0.0078090117 0.20030136
-0.091350228 0.072685227 0.15003817
0.12389991 -0.23545612 0.017504415
0.0043359692 -0.0058752107 0.20060335
-0.10242928 -0.23423135 0.060743656
-0.10256642 -0.2254598 0.062759362
-0.099970192 -0.17707357 0.149342
0.055005345 0.084781505 0.12523018
0.12582923 -0.24499038 0.054989874
-0.10016205 -0.26399809 0.094394594
-0.11606152 0.081612542 0.12404422
-0.1006934 -0.22528678 0.10497681
-0.11533087 -0.15481634 0.16681623
-0.074930228 0.025260286 0.19594388
-0.085040808 0.037229393 0.18775575
0.088649549 -0.19223312 0.14106475
-0.034872163 -0.024548961 0.2023892
-0.10273633 -0.22218233 0.060846686
-0.10265863 -0.2271708 0.059689403
0.055319693 0.088422075 0.11626074
-0.045101784 -0.064823851 0.18574594
-0.045250311 -0.057017844 0.18898116
-0.1193156 0.083095744 0.11898821
-0.10036536 -0.25494856 0.095107384
-0.10095365 -0.21500467 0.10511536
0.12709275 -0.078724682 0.14862362
-0.082817867 -0.029299961 0.19986385
-0.084926568 0.065049849 0.16596749
0.12377578 -0.22742383 0.01922304
-0.074668892 0.032532886 0.19194454
-0.10065976 -0.17478964 0.1351788
-0.15381259 -0.045077138 0.19215983
-0.085412659 0.071331218 0.15439562
0.12556975 -0.2348683 0.054855321
-0.10012677 -0.2849769 0.082969554
-0.10073188 -0.24481593 0.092761904
-0.11477667 -0.18498784 0.15589304
-0.15463802 0.077762462 0.10452548
-0.099467598 -0.24389154 0.12300939
-0.10127924 -0.33250594 0.029365197
-0.081981294 0.072297327 0.1527364
-0.014583196 0.092380419 0.11716174
-0.10031555 -0.27488711 0.084587537
-0.043983579 0.006472386 0.19947937
-0.10100115 -0.33353189 0.035009418
-0.10144279 -0.33049038 0.026870243
-0.10293657 -0.22477059 0.054838214
0.12228456 -0.13521121 0.037363186
0.058775119 0.090005532 0.11183202
0.11567106 0.085104078 0.11479782
-0.10006464 -0.30542982 0.072482936
-0.10053274 -0.26494339 0.085510492
-0.11345161 0.08368279 0.11959285
-0.044571456 0.015290276 0.19831792
-0.10367776 -0.13432637 0.17288245
-0.11503208 -0.30326977 0.027497457
-0.099550255 -0.23467767 0.12521112
-0.10307375 -0.18483935 0.075066835
0.12508062 -0.12479284 0.10512283
-0.099363223 -0.2631819 0.1128336
-0.1032487 -0.22023362 0.050460368
-0.10110337 -0.17475682 0.12522994
-0.10008436 -0.32303542 0.06183653
-0.1013836 -0.31489626 0.063829795
-0.10012094 -0.29433104 0.077621743
-0.10081916 -0.25509852 0.084830351
-0.07214684 -0.0015757788 0.19980581
-0.10220435 -0.10959534 0.13844685
-0.10317538 -0.12462752 0.17533009
-0.081763566 0.07291168 0.15130991
-0.10167167 -0.32503912 0.024911918
-0.10262327 -0.18492778 0.085138217
0.12463352 -0.12490145 0.095153235
-0.025057971 -0.024472792 0.20259847
-0.084918372 0.043784995 0.18276285
0.12459843 0.081184678 0.12298155
-0.100371 -0.2846925 0.077628747
-0.10107034 -0.24505174 0.085018069
-0.10241005 -0.11923607 0.12821068
0.0046244608 0.088155419 0.12497202
-0.064663954 0.032965761 0.19219971
-0.07511536 0.037440836 0.1881751
0.094861194 -0.19191898 0.14086139
-0.095137514 0.048233744 0.17877163
-0.09988074 -0.26788515 0.098444797
-0.10330615 -0.22533731 0.046199966
0.12477928 -0.18493031 0.065039568
0.093863234 -0.17050235 0.1502008
-0.10076429 -0.2744585 0.074742734
-0.11683816 0.082124479 0.10949832
-0.11184484 0.074751355 0.14122863
-0.10260979 -0.12829565 0.11844685
-0.1423765 0.080262631 0.11461166
-0.074946135 0.065804727 0.16600738
-0.10356139 -0.22415379 0.041150086
0.094991893 -0.16519007 0.1520045
-0.100132 -0.33461347 0.05395294
-0.1001572 -0.30884013 0.068447217
0.095027752 -0.11517044 0.16875218
-0.10099032 -0.26484898 0.075272419
-0.10126205 -0.25498548 0.074949995
-0.10233529 -0.14481257 0.11500773
-0.14497545 0.078737512 0.10470352
-0.10205369 -0.31502086 0.024786048
-0.1003408 -0.32511839 0.054821979
0.096007355 -0.10882321 0.16976893
-0.10150824 -0.24501705 0.075194381
-0.10177492 -0.10584392 0.17620413
0.125636 -0.25461453 0.045374773
0.1245249 -0.17518274 0.064810961
-0.084936388 0.055032354 0.17418291
-0.1042408 -0.31617728 0.054874942
-0.10111356 -0.27198702 0.068326049
-0.1127756 0.078353666 0.13244885
-0.10479797 -0.30443725 0.026437398
0.12535936 -0.24477297 0.04471568
-0.099782988 -0.22514455 0.12553188
-0.10332984 -0.17491354 0.075107768
-0.085170493 0.048812091 0.17891376
-0.083854273 0.060223296 0.17028669
0.098286897 -0.042687472 0.075396053
-0.099983811 -0.13953656 0.17093527
-0.099977858 -0.22941819 0.11865991
0.12437558 -0.1146206 0.095153481
-0.015211796 -0.024701836 0.20271394
-0.12488152 -0.31577426 0.092716448
-0.10080748 -0.32436821 0.044717554
0.095074646 -0.037746165 0.071841136
-0.0620142 -0.00063750916 0.19994284
-0.1013872 -0.095327534 0.16512518
-0.10369021 -0.17671743 0.06595736
-0.065324411 0.037875019 0.18841675
-0.10196173 -0.1060738 0.14595157
-0.094950616 0.0050635622 0.19835976
-0.10378272 -0.22552811 0.035376754
0.12432042 -0.18498161 0.054842453
-0.099903375 -0.15519013 0.16360995
-0.064990871 0.0050934381 0.19912168
-0.074807264 0.071988583 0.15483053
-0.054886974 0.033316068 0.19250448
0.10563543 0.034218442 0.06543231
-0.13552503 0.079505734 0.10343003
-0.13265508 0.080378607 0.10803686
-0.13566992 0.081086919 0.11588722
-0.065029614 0.066184975 0.16653106
-0.10154511 -0.087168217 0.16632269
-0.10357435 -0.23454183 0.034824677
-0.11466593 -0.31477165 0.092567764
-0.074891992 0.049078513 0.17931193
-0.10375066 -0.23735283 0.02922876
-0.099666938 -0.18450049 0.15275455
-0.10261612 -0.30535018 0.015205192
-0.10289942 -0.29532531 0.014672351
0.12513682 -0.23510961 0.045136169
-0.12189192 -0.31547755 0.042460065
-0.10121077 -0.20484667 0.10525177
-0.1611532 0.070490502 0.14208779
0.10849562 0.031928618 0.057865128
-0.063963622 0.070316292 0.16087599
-0.064980328 0.07270465 0.15497804
0.065078951 0.087953024 0.11585883
-0.12463949 -0.095083572 0.18284394
-0.0049415096 -0.024438951 0.20253733
-0.12234611 -0.31235194 0.03562345
-0.045065559 0.033660471 0.19281639
0.11433918 -0.19071536 0.14032978
-0.084941894 0.0050408542 0.19861463
-0.10167859 -0.26436675 0.065572239
-0.12191194 0.069436528 0.15202059
-0.053724974 0.0056519471 0.19933704
-0.053055972 0.00022066699 0.20006026
0.12488437 -0.13528995 0.09493921
-0.064902268 0.025372209 0.19627519
-0.12504584 -0.23450333 0.13249183
-0.055249147 0.038322266 0.188665
-0.12488925 0.014923362 0.19631286
-0.065535903 0.049423896 0.17959583
0.12254114 -0.14600056 0.037056576
-0.12478866 0.080694735 0.10445237
-0.12510107 -0.22498862 0.13713077
-0.10454354 -0.31475574 0.092015348
-0.055144235 0.066466086 0.16712628
-0.10314343 -0.28526896 0.015051087
-0.11490942 -0.31603464 0.044255897
-0.12336844 -0.30806583 0.031340934
-0.099519894 -0.30038741 0.10051147
0.12200105 -0.12412452 0.037240669
-0.054900028 0.025223767 0.19663572
-0.099921815 -0.33526683 0.058312867
-0.10326182 -0.28986514 0.0096944999
0.0047946693 -0.023541985 0.20174742
-0.074944116 0.0050044702 0.19887885
-0.15419236 0.070959471 0.14228304
-0.16135214 0.073530868 0.13478841
0.10948339 0.02192218 0.049323171
-0.054917049 0.073533744 0.15490016
-0.12234426 -0.2190647 0.13985983
0.10485499 -0.16448116 0.15172166
-0.045272816 0.038628764 0.18901487
0.12305949 -0.11555968 0.065462716
-0.099031426 -0.31373093 0.090861119
-0.11494228 -0.31253168 0.036003772
-0.0349783 0.034033563 0.19312191
-0.058944352 0.049770549 0.17971709
-0.16178116 0.077607632 0.12495997
-0.10369948 -0.19544879 0.054803971
-0.10325415 -0.19526547 0.064918697
-0.055013184 0.015066908 0.19808008
-0.10317221 -0.21504271 0.055205859
-0.10342753 -0.20536825 0.055117033
-0.10349657 -0.18552446 0.065165013
-0.11519848 -0.23452744 0.1319185
-0.1030945 -0.2353843 0.045121003
-0.11558636 0.081625119 0.104636
-0.10362707 -0.21476245 0.045143802
-0.10389924 -0.18612571 0.055764962
-0.1045677 -0.31643134 0.044799045
-0.11518497 -0.30817065 0.031220205
-0.044963006 0.025189776 0.19696032
-0.1147701 -0.22499709 0.13653739
0.13475491 0.075076245 0.10475694
-0.054911163 0.044892974 0.1836732
0.014561453 -0.022308905 0.2010065
0.0064096409 -0.028769756 0.19951618
-0.1551507 0.073854707 0.13532299
0.11497666 -0.16387902 0.15138745
0.11891188 -0.031314097 0.038729064
-0.10282061 -0.19476829 0.074951701
-0.14413185 0.071371898 0.14319907
-0.1046972 -0.094924651 0.18175325
-0.10446779 -0.31361249 0.035417717
-0.035422847 0.039009601 0.18930064
-0.045062874 0.044925891 0.18422422
-0.16323954 0.078572929 0.1174719
-0.044907436 0.074198723 0.15520421
-0.11367395 -0.21870244 0.13954146
-0.024948746 0.034457762 0.19338511
-0.15498248 0.077857837 0.12565733
-0.094860882 -0.045019187 0.19314688
-0.14475259 0.074882306 0.13469738
-0.105269 0.068763152 0.15677612
-0.034134779 0.0074642398 0.19960219
-0.034956601 0.015045012 0.1985956
-0.1019179 -0.19470587 0.095273681
-0.10553443 -0.30846268 0.031157987
0.10160711 0.0277032 0.062951118
-0.10419824 0.082743272 0.10460385
0.10907264 0.040691108 0.068781644
-0.1050922 0.014964633 0.19681342
-0.10432301 -0.084867388 0.18311319
-0.035032932 0.045016468 0.18474193
0.015389426 -0.0277187 0.19880863
0.12813006 -0.042991068 0.037910216
0.11745426 -0.024534859 0.037956901
0.023596723 -0.020834617 0.20042391
-0.034976568 0.025163582 0.19725481
-0.10219064 -0.18482071 0.094922967
-0.099845514 -0.23622625 0.11766961
-0.13457967 0.071712494 0.1441907
0.10533431 0.024547927 0.054861147
0.12493701 -0.035102021 0.035040755
-0.10121691 -0.084807448 0.17507684
-0.014942795 0.034736086 0.19375297
-0.025020802 0.039444156 0.18957773
-0.15551029 0.078997746 0.11484132
-0.035071023 0.075015552 0.15511273
-0.13521828 0.07541392 0.13522929
-0.14467865 0.078454614 0.12617908
-0.10244379 -0.17472562 0.095127843
-0.1249145 0.072126649 0.14502785
-0.017350568 -0.070526592 0.18383437
-0.024563268 0.008186195 0.199753
-0.10132951 -0.077477455 0.17681082
-0.024827 0.045015637 0.18533961
-0.14657146 0.079531625 0.1121317
-0.095995672 0.083640173 0.10529539
0.11499052 0.044668552 0.064880982
-0.095442131 0.069036439 0.15798138
-0.02507481 0.014968287 0.1988582
-0.1212471 -0.29621407 0.025382083
0.11562491 -0.054434352 0.065315045
-0.034619782 0.0021036356 0.20028672
0.025329415 -0.025717724 0.19836268
0.11065608 0.029054424 0.051094215
-0.16080645 0.068256974 0.14748798
-0.095006846 0.015057411 0.19705915
-0.10288542 -0.17488106 0.085113198
-0.12480472 -0.10498926 0.18117224
-0.024911158 0.025036721 0.19755302
-0.15370812 -0.064431988 0.18413332
-0.01594118 0.03981318 0.18982743
-0.09949334 -0.22459491 0.13289057
-0.1031299 -0.16502017 0.085371807
0.11802448 -0.052450128 0.057485078
-0.0051005431 0.034786426 0.19352388
-0.13488531 0.078874134 0.12702768
0.11869115 0.051158614 0.067841269
-0.014966466 0.044954721 0.18596214
-0.12494468 0.076333284 0.13497487
-0.025095476 0.075932086 0.15480945
0.12887244 -0.03282211 0.028937642
0.025666902 -0.014002165 0.19942224
-0.10410389 -0.19534263 0.045778587
-0.0048768041 -0.064906053 0.18596536
-0.12540036 -0.2147885 0.14211757
0.035079166 -0.014900199 0.19852562
-0.064994678 -0.034872595 0.19784351
-0.085981421 0.069474556 0.15872362
-0.015361532 0.009031334 0.19987832
-0.099626407 -0.21469219 0.13514292
-0.024788514 0.0031742379 0.20039885
0.035184324 -0.024837313 0.19746189
-0.12515147 0.079142883 0.12822516
-0.1548415 0.068824217 0.14726034
-0.086527735 0.084527895 0.10494173
-0.15482648 0.040981807 0.18081026
0.1244549 0.05542862 0.064576559
-0.015145699 0.01502331 0.19910482
-0.11472549 -0.29505813 0.024961693
-0.099901818 -0.21693392 0.12764333
-0.15361683 -0.055145189 0.18798691
-0.10347192 -0.16640733 0.076876782
-0.0032272157 0.039495893 0.18969178
-0.10054468 -0.33426684 0.044841886
-0.014868473 0.024883216 0.19782996
-0.10103785 -0.19507776 0.11483559
0.12390934 -0.055998452 0.053904094
0.0048252312 0.034030885 0.1930299
-0.0049946853 0.045014508 0.18561876
-0.10497878 0.073762774 0.14488745
-0.10432798 -0.19774753 0.039337296
0.12420936 -0.23447241 0.024904851
0.0048786202 -0.064595506 0.1848903
-0.014890285 0.076540865 0.15517648
0.045173161 -0.014959451 0.19744276
-0.055041239 -0.035060111 0.19792837
-0.11534796 -0.21386681 0.14199269
-0.014813053 0.004118721 0.20053101
-0.1102641 0.079679862 0.12975587
-0.10101352 -0.14489691 0.14466889
-0.074575745 0.085688435 0.10480678
-0.10105206 -0.12517388 0.15529273
-0.10131496 -0.11510681 0.15523888
-0.07774049 0.069846928 0.15939224
-0.0029524462 0.0075183176 0.19962609
-0.005032226 0.014984381 0.19884132
-0.10128327 -0.18529433 0.11503634
-0.10584639 -0.1032299 0.18052796
-0.10489087 0.042985212 0.18220428
0.01491753 -0.064521834 0.1836437
