ply
format ascii 1.0
comment PCL generated
element vertex 1355
property float x
property float y
property float z
element face 0
element camera 0
property float view_px
property float view_py
property float view_pz
property float x_axisx
property float x_axisy
property float x_axisz
property float y_axisx
property float y_axisy
property float y_axisz
property float z_axisx
property float z_axisy
property float z_axisz
property float focal
property float scalex
property float scaley
property float centerx
property float centery
property int viewportx
property int viewporty
property float k1
property float k2
end_header
0.023351543 0.031059187 0.19457194
0.024594141 0.031094166 0.1944837
0.025838127 0.031129232 0.19439539
0.027083512 0.031164344 0.19430685
0.028330276 0.031199472 0.19421831
0.029578431 0.031234628 0.19412965
0.030827984 0.031269815 0.19404092
0.032078933 0.03130503 0.19395202
0.033331297 0.031340353 0.19386309
0.03458504 0.031375658 0.1937741
0.035840198 0.031411026 0.19368497
0.037096769 0.031446431 0.19359562
0.038354736 0.031481829 0.19350633
0.039614134 0.031517372 0.19341683
0.040874939 0.031552888 0.19332728
0.042137146 0.031588431 0.1932376
0.043400779 0.031624008 0.19314793
0.044698652 0.031745587 0.19297329
0.046077605 0.032071903 0.19259658
0.047460604 0.032399192 0.19221887
0.04884769 0.032727432 0.1918399
0.05023884 0.033056621 0.19146001
0.051634125 0.033386827 0.19107884
0.053033531 0.03371799 0.1906966
0.054437082 0.034050118 0.19031322
0.055844795 0.034383211 0.18992868
0.057256699 0.03471734 0.18954301
0.058672808 0.035052463 0.1891562
0.060093131 0.035388567 0.18876824
0.061517693 0.035725687 0.18837914
0.062946521 0.036063809 0.18798882
0.06437964 0.036402952 0.18759733
0.065817021 0.036743067 0.18720475
0.067258745 0.037084237 0.18681097
0.068704806 0.037426442 0.18641594
0.070155226 0.037769698 0.18601978
0.071609981 0.038113926 0.18562242
0.07306917 0.038459223 0.18522385
0.07453277 0.038805582 0.18482402
0.07600081 0.039152984 0.18442306
0.077473298 0.039501414 0.18402085
0.078950271 0.039850928 0.18361741
0.08043173 0.040201515 0.18321273
0.081917696 0.040553104 0.18280685
0.083408222 0.04090587 0.18239969
0.0849033 0.041259661 0.18199134
0.08640296 0.04161454 0.18158171
0.087907203 0.041970495 0.18117082
0.089416072 0.042327549 0.18075866
0.09092959 0.042685721 0.18034524
0.092447788 0.043044984 0.17993051
0.093970634 0.043405347 0.17951462
0.095498234 0.043766826 0.17909732
0.097030543 0.044129457 0.17867878
0.09856762 0.044493202 0.17825884
0.10010952 0.044858199 0.17783764
0.10165624 0.045224342 0.17741501
0.10320776 0.045591619 0.17699111
0.10476412 0.045960013 0.17656592
0.10632534 0.046329558 0.1761393
0.10789147 0.046700303 0.17571145
0.10946249 0.047072198 0.17528215
0.11103845 0.047445212 0.17485166
0.11261936 0.047819432 0.1744197
0.1142053 0.048194874 0.17398635
0.11579619 0.048571464 0.17355168
0.11739212 0.048949227 0.17311561
0.11899311 0.049328201 0.17267826
0.12059917 0.049708366 0.17223942
0.12221033 0.050089765 0.17179921
0.12382661 0.05047233 0.1713576
0.12544805 0.050856147 0.17091459
0.12707467 0.051241167 0.17047015
0.1287065 0.051627487 0.17002431
0.13034354 0.052014995 0.16957703
0.13198583 0.052403759 0.16912836
0.13363335 0.052793726 0.16867819
0.13528623 0.053184979 0.16822663
0.1369444 0.053577479 0.16777354
0.13860795 0.053971265 0.167319
0.14027685 0.054366313 0.16686308
0.14195117 0.054762643 0.16640556
0.14363091 0.055160288 0.1659466
0.14531611 0.055559181 0.16548622
0.14700679 0.055959385 0.16502425
0.14870301 0.056360915 0.16456085
-0.0787488 0.069716729 0.15981323
-0.077466384 0.068783462 0.16066575
-0.076189525 0.067854211 0.16151473
-0.074918173 0.066928916 0.16235998
-0.07365232 0.066007651 0.1632016
-0.072391905 0.065090336 0.16403958
-0.071136877 0.064176917 0.16487405
-0.069887251 0.063267469 0.16570479
-0.068642959 0.062361915 0.1665321
-0.06740395 0.061460175 0.16735581
-0.066170223 0.060562316 0.16817605
-0.064941734 0.059668243 0.16899285
-0.063718446 0.058777932 0.16980618
-0.062500335 0.057891414 0.17061606
-0.061287355 0.057008632 0.17142245
-0.060079489 0.056129593 0.17222545
-0.058876701 0.055254035 0.17302534
-0.05767896 0.054382194 0.17382181
-0.05648623 0.053513985 0.17461494
-0.055298485 0.052649431 0.17540476
-0.054115668 0.051788464 0.17619127
-0.05293778 0.050931077 0.17697459
-0.051764775 0.050077263 0.17775458
-0.050596636 0.049226951 0.17853129
-0.049433317 0.048380155 0.17930493
-0.048274804 0.047536861 0.18007532
-0.047121044 0.046697047 0.18084252
-0.045972027 0.045860652 0.18160662
-0.044827718 0.045027759 0.18236753
-0.043688092 0.044198208 0.18312535
-0.042553116 0.04337205 0.18388009
-0.041422766 0.042549245 0.18463168
-0.040297005 0.041729778 0.18538034
-0.03917582 0.040913668 0.18612587
-0.038059156 0.040100835 0.18686837
-0.036947019 0.039291307 0.18760797
-0.035839364 0.038485043 0.18834451
-0.034736156 0.037682001 0.18907812
-0.033637397 0.036882233 0.18980873
-0.032543026 0.036085598 0.19053647
-0.031453039 0.035292212 0.19126132
-0.030367399 0.034501966 0.19198328
-0.029286085 0.03371485 0.19270226
-0.028209068 0.032930881 0.1934185
-0.02713633 0.032150023 0.19413182
-0.025971338 0.031969417 0.19425622
-0.024802865 0.031811595 0.1943582
-0.023634503 0.031653799 0.19446018
-0.022466272 0.031495977 0.19456226
-0.021298151 0.0313382 0.19466424
-0.020130154 0.031180393 0.19476628
-0.018962255 0.031022659 0.19486818
-0.017794495 0.030864941 0.19497016
-0.016626844 0.030707208 0.19507208
-0.015459307 0.030549519 0.19517404
-0.014291902 0.030391771 0.19527602
-0.013124604 0.030234097 0.19537795
-0.011957421 0.030076468 0.19547987
-0.010790362 0.029918781 0.19558179
-0.0096234102 0.029761208 0.19568366
-0.0084565813 0.029603565 0.19578555
-0.00728988 0.029445952 0.19588748
-0.0061232857 0.029288337 0.19598934
-0.0049568187 0.029130723 0.19609126
-0.0037904668 0.02897317 0.19619313
-0.0026242267 0.028815614 0.19629493
-0.0014581098 0.02865806 0.1963968
-0.00029210071 0.028500549 0.1964986
0.0009096135 0.02848752 0.19645807
0.0021239347 0.028520679 0.19637194
0.0033395973 0.028553899 0.19628572
0.0045565935 0.028587136 0.19619945
0.0057749189 0.028620385 0.19611305
0.0069946051 0.028653696 0.19602656
0.0082156314 0.028687049 0.19593996
0.0094380146 0.028720463 0.19585332
0.010661738 0.028753849 0.19576651
0.011886821 0.02878732 0.19567963
0.013113257 0.028820809 0.19559264
0.014341038 0.028854314 0.19550559
0.015570181 0.02888786 0.19541851
0.016800696 0.028921468 0.19533119
0.018032568 0.028955093 0.19524384
0.019265814 0.028988773 0.1951564
0.020500407 0.029022455 0.1950689
0.021736389 0.029056152 0.19498131
0.022973731 0.029089954 0.19489357
0.024212467 0.029123785 0.19480574
0.025452562 0.029157586 0.19471782
0.026694044 0.02919146 0.19462988
0.0279369 0.029225381 0.19454169
0.029181167 0.029259376 0.19445348
0.030426798 0.029293371 0.19436514
0.031673823 0.029327411 0.19427675
0.032922238 0.029361481 0.19418827
0.034172043 0.029395578 0.19409969
0.035423271 0.029429767 0.19401085
0.036675863 0.029463924 0.1939221
0.037929866 0.029498143 0.19383317
0.039185278 0.029532421 0.19374421
0.040442098 0.029566728 0.19365507
0.041700315 0.02960108 0.19356588
0.042959951 0.029635448 0.19347653
0.044220984 0.029669859 0.19338718
0.045483455 0.02970433 0.19329768
0.046747342 0.029738832 0.1932081
0.048012633 0.029773362 0.19311836
0.049279358 0.029807923 0.19302851
0.050547495 0.029842559 0.19293866
0.051817074 0.029877206 0.19284859
0.05308808 0.029911902 0.19275853
0.054360498 0.029946625 0.19266832
0.055634383 0.029981425 0.19257793
0.05690968 0.03001621 0.1924876
0.05818643 0.030051097 0.192397
0.059464607 0.030085955 0.19230643
0.060744241 0.030120889 0.19221568
0.062025312 0.030155836 0.19212487
0.063307837 0.030190829 0.19203395
0.064591818 0.03022591 0.19194293
0.065877244 0.030260991 0.19185174
0.067164116 0.030296089 0.19176057
0.06845247 0.030331273 0.19166917
0.069742262 0.030366475 0.19157773
0.071033545 0.030401707 0.19148618
0.07232628 0.030437009 0.19139448
0.073620483 0.030472331 0.19130281
0.074916147 0.030507697 0.1912109
0.076213315 0.030543104 0.1911189
0.077511929 0.030578544 0.19102687
0.078812033 0.030614058 0.19093472
0.08011362 0.030649556 0.19084248
0.081524499 0.030901652 0.19053429
0.082977496 0.031231245 0.19014874
0.084434822 0.031561796 0.18976209
0.085896507 0.031893399 0.18937424
0.087362595 0.032225989 0.18898517
0.088833019 0.032559533 0.18859503
0.090307891 0.032894101 0.18820375
0.091787197 0.033229657 0.18781117
0.093270943 0.033566255 0.18741745
0.094759159 0.033903833 0.1870226
0.096251868 0.034242459 0.18662652
0.097749099 0.034582093 0.18622923
0.099250868 0.03492279 0.18583068
0.10075717 0.035264436 0.18543106
0.10226806 0.035607185 0.18503019
0.10378356 0.035950966 0.18462801
0.10530364 0.036295801 0.18422469
0.10682838 0.036641669 0.18382013
0.10835779 0.03698862 0.18341431
0.10989186 0.037336629 0.18300724
0.11143062 0.037685666 0.18259898
0.11297413 0.038035806 0.1821894
0.11452238 0.038387053 0.18177861
0.1160754 0.038739324 0.1813665
0.11763326 0.039092787 0.18095309
0.11919595 0.039447412 0.18053833
0.12076346 0.03980305 0.18012232
0.12233584 0.040159851 0.17970499
0.1239131 0.040517773 0.17928633
0.12549525 0.040876761 0.17886645
0.12708238 0.041236959 0.17844516
0.12867442 0.041598186 0.17802259
0.13027142 0.04196056 0.17759874
0.13187344 0.042324092 0.17717355
0.13348046 0.042688746 0.17674702
0.13509251 0.043054532 0.17631924
0.13670962 0.043421466 0.17589006
0.13833186 0.043789577 0.17545944
0.13995919 0.044158865 0.17502755
0.1415917 0.044529311 0.17459425
0.14322934 0.044900924 0.17415959
0.14487214 0.045273665 0.17372358
0.1465202 0.045647603 0.1732862
0.14817347 0.046022773 0.17284739
-0.091633476 0.069259629 0.1590867
-0.090326399 0.068329647 0.15993875
-0.089024961 0.067403629 0.16078711
-0.087729126 0.066481628 0.16163185
-0.086438864 0.065563589 0.16247299
-0.085154131 0.0646495 0.16331041
-0.083874896 0.06373933 0.16414434
-0.082601123 0.062833048 0.16497466
-0.081332788 0.061930627 0.1658015
-0.080069833 0.061031993 0.16662481
-0.078812264 0.060137227 0.16744453
-0.077560008 0.059246238 0.16826087
-0.076313034 0.058359012 0.16907376
-0.075071312 0.057475518 0.16988319
-0.073834829 0.05659578 0.1706892
-0.072603539 0.055719655 0.17149189
-0.071377411 0.054847263 0.17229119
-0.070156403 0.053978518 0.17308712
-0.068940498 0.053113334 0.17387977
-0.067729637 0.052251652 0.17466924
-0.066523843 0.051393576 0.17545548
-0.065323025 0.05053908 0.17623833
-0.064127184 0.049688093 0.17701799
-0.062936284 0.048840616 0.17779446
-0.061750297 0.047996636 0.17856777
-0.060569178 0.047156144 0.17933777
-0.059392918 0.046319038 0.18010473
-0.058221478 0.045485415 0.18086854
-0.057054821 0.044655204 0.18162918
-0.055892922 0.043828361 0.18238673
-0.054735757 0.043004904 0.18314117
-0.053583298 0.042184796 0.18389252
-0.052435506 0.041368011 0.18464091
-0.051292356 0.04055452 0.18538621
-0.050153833 0.03974431 0.18612856
-0.049019899 0.03893736 0.18686786
-0.047890522 0.038133662 0.18760419
-0.046765685 0.037333209 0.18833762
-0.045645341 0.036535945 0.18906802
-0.044529494 0.035741869 0.18979558
-0.043418091 0.034950968 0.1905202
-0.042311102 0.034163229 0.19124195
-0.041208535 0.03337859 0.19196081
-0.040110335 0.032597091 0.19267687
-0.039016478 0.031818666 0.19339004
-0.037852079 0.03164342 0.19350937
-0.036685664 0.031485941 0.19361126
-0.035519347 0.031328522 0.1937131
-0.034353159 0.0311711 0.19381487
-0.033187088 0.031013664 0.19391668
-0.032021131 0.030856274 0.19401845
-0.030855291 0.030698884 0.19412026
-0.029689567 0.030541537 0.19422203
-0.028523957 0.030384192 0.19432375
-0.02735847 0.030226847 0.19442552
-0.026193094 0.030069545 0.19452727
-0.025027841 0.029912245 0.19462898
-0.023862703 0.029754927 0.19473073
-0.022697678 0.029597687 0.19483247
-0.02153278 0.029440416 0.19493416
-0.020367984 0.029283188 0.19503585
-0.019203315 0.029125961 0.1951375
-0.018038766 0.02896872 0.19523922
-0.016874328 0.028811552 0.19534084
-0.015710007 0.028654356 0.1954425
-0.0145458 0.028497202 0.19554412
-0.013381713 0.028340081 0.19564575
-0.012217741 0.028182929 0.19574741
-0.011053897 0.028025746 0.19584906
-0.0098901615 0.027868625 0.19595066
-0.0087265475 0.027711518 0.19605225
-0.0075630452 0.027554424 0.19615391
-0.0063996585 0.027397392 0.19625548
-0.0052363914 0.027240328 0.19635707
-0.004073251 0.027083267 0.19645861
-0.0029102145 0.026926234 0.1965602
-0.0017472976 0.026769215 0.19666174
-0.00058450346 0.026612243 0.19676331
0.00060193281 0.026550829 0.19677016
0.0018125474 0.026582811 0.19668451
0.0030244885 0.026614871 0.19659871
0.0042377668 0.026646944 0.19651279
0.0054523824 0.026679061 0.19642684
0.0066683237 0.026711224 0.1963408
0.0078856107 0.026743416 0.19625461
0.0091042314 0.026775638 0.19616827
0.010324203 0.026807889 0.19608197
0.011545502 0.026840143 0.19599551
0.012768168 0.026872482 0.19590902
0.013992167 0.026904808 0.19582233
0.01521753 0.026937226 0.19573563
0.016444238 0.026969669 0.19564876
0.0176723 0.027002115 0.19556186
0.018901724 0.027034592 0.19547486
0.020132512 0.027067155 0.19538772
0.02136465 0.027099704 0.19530055
0.022598151 0.027132269 0.19521329
0.023833027 0.027164923 0.19512591
0.025069281 0.027197607 0.19503832
0.026306888 0.027230291 0.19495079
0.027545879 0.027263017 0.19486311
0.028786231 0.027295761 0.19477534
0.030027978 0.027328581 0.19468746
0.031271104 0.027361441 0.19459951
0.032515608 0.027394304 0.19451138
0.033761501 0.027427226 0.19442326
0.035008773 0.027460176 0.19433504
0.036257446 0.027493143 0.19424665
0.037507515 0.027526198 0.1941582
0.038758967 0.027559254 0.19406962
0.040011816 0.027592355 0.19398093
0.041266073 0.027625484 0.19389224
0.042521734 0.027658705 0.19380331
0.043778788 0.027691895 0.19371432
0.045037247 0.027725128 0.19362536
0.046297118 0.027758393 0.19353619
0.047558401 0.027791733 0.19344696
0.048821107 0.0278251 0.19335753
0.050085213 0.027858485 0.19326806
0.051350754 0.027891943 0.1931785
0.052617699 0.0279254 0.19308892
0.053886067 0.027958903 0.19299915
0.055155881 0.027992466 0.19290921
0.056427103 0.028026043 0.19281933
0.057699766 0.028059695 0.19272923
0.058973856 0.028093345 0.19263905
0.060249392 0.028127071 0.19254875
0.061526354 0.028160797 0.19245842
0.062804759 0.028194569 0.19236791
0.064084597 0.028228384 0.19227737
0.065365881 0.028262228 0.19218671
0.066648647 0.028296148 0.19209585
0.067932814 0.028330037 0.1920051
0.069218442 0.028364018 0.19191405
0.070505537 0.028398009 0.19182298
0.071794085 0.028432064 0.19173181
0.073084123 0.028466163 0.19164047
0.0743756 0.028500289 0.19154909
0.075668521 0.028534418 0.19145763
0.076962925 0.028568637 0.19136599
0.078258812 0.028602881 0.19127432
0.079556152 0.02863716 0.19118252
0.08085496 0.028671451 0.19109058
0.082155272 0.028705802 0.19099855
0.083457045 0.028740212 0.19090647
0.084760316 0.028774684 0.1908142
0.086065054 0.028809138 0.1907219
0.08737129 0.028843639 0.19062939
0.088679001 0.028878167 0.19053692
0.089988202 0.028912758 0.19044429
0.091298945 0.028947422 0.19035149
0.092611134 0.028982071 0.19025862
0.093924835 0.02901678 0.19016564
0.095240034 0.029051505 0.1900726
0.09655676 0.029086316 0.18997943
0.097874969 0.029121144 0.18988612
0.099194713 0.029156018 0.18979275
0.10051594 0.029190904 0.18969923
0.1018387 0.02922585 0.18960568
0.10316299 0.029260859 0.1895119
0.10448879 0.029295893 0.18941811
0.10581612 0.02933096 0.18932417
0.10714495 0.029366056 0.18923014
0.10847531 0.029401196 0.189136
0.10980724 0.029436411 0.18904176
0.11114068 0.029471625 0.18894732
0.11247565 0.029506899 0.18885285
0.11381216 0.029542206 0.18875828
0.11515024 0.029577568 0.18866357
0.11648983 0.029612947 0.18856883
0.11786377 0.029701849 0.18842009
0.1193899 0.030033812 0.18802646
0.12092064 0.030366756 0.1876317
0.12245598 0.030700715 0.18723571
0.12399597 0.031035686 0.1868386
0.12554069 0.031371687 0.1864402
0.12709005 0.031708699 0.18604055
0.12864411 0.032046709 0.1856398
0.13020295 0.032385781 0.18523774
0.13176651 0.032725908 0.18483451
0.13333489 0.033067062 0.18442997
0.13490807 0.033409245 0.18402424
0.13648613 0.033752594 0.18361717
0.13806903 0.034097008 0.18320888
0.13965686 0.034442514 0.18279922
0.14124952 0.034789048 0.1823884
0.14284711 0.03513667 0.18197626
0.14444964 0.03548532 0.18156284
0.14605711 0.035835072 0.18114814
0.14766961 0.036185928 0.18073219
-0.10312252 0.067878045 0.15921536
-0.10179675 0.066955328 0.16006312
-0.10047666 0.066036589 0.16090739
-0.099162266 0.06512177 0.16174787
-0.097853489 0.064210884 0.16258487
-0.096550286 0.063303836 0.16341835
-0.095252655 0.062400706 0.16424814
-0.093960501 0.061501399 0.16507447
-0.092673883 0.060605921 0.16589728
-0.091392681 0.059714254 0.16671667
-0.090116881 0.05882632 0.1675325
-0.088846475 0.057942092 0.16834491
-0.087581411 0.057061635 0.16915396
-0.086321652 0.056184858 0.16995955
-0.08506716 0.055311762 0.17076182
-0.083817929 0.054442316 0.17156067
-0.082573913 0.053576462 0.17235631
-0.081335068 0.052714258 0.17314851
-0.080101378 0.051855631 0.17393744
-0.078872792 0.05100055 0.17472315
-0.077649288 0.050148927 0.17550573
-0.07643085 0.04930076 0.176285
-0.075217433 0.048456084 0.17706108
-0.074008979 0.047614932 0.17783403
-0.072805487 0.046777181 0.17860383
-0.071606956 0.045942876 0.1793704
-0.070413299 0.04511198 0.18013391
-0.069224529 0.044284452 0.18089426
-0.06804058 0.043460306 0.1816515
-0.066861443 0.042639516 0.18240577
-0.06568709 0.041822013 0.18315691
-0.064517491 0.041007865 0.18390495
-0.063352615 0.040196981 0.18465009
-0.062192436 0.03938942 0.18539208
-0.061036918 0.038585067 0.18613118
-0.05988602 0.037783917 0.1868673
-0.058739755 0.036985997 0.18760052
-0.057598062 0.036191281 0.18833074
-0.056460932 0.035399739 0.1890581
-0.055328317 0.034611281 0.18978253
-0.054200206 0.033825997 0.1905041
-0.05307658 0.033043843 0.19122279
-0.051957395 0.032264747 0.19193864
-0.050842613 0.031488791 0.19265166
-0.04967919 0.031318899 0.19276592
-0.048514813 0.031161806 0.19286764
-0.047350548 0.031004744 0.1929692
-0.046186399 0.030847665 0.19307086
-0.045022354 0.030690633 0.19317243
-0.043858442 0.030533599 0.19327411
-0.042694647 0.030376596 0.19337562
-0.041530952 0.030219624 0.19347721
-0.040367384 0.030062634 0.19357878
-0.039203931 0.029905692 0.19368032
-0.038040601 0.029748719 0.19378185
-0.036877375 0.029591804 0.19388342
-0.035714276 0.029434906 0.19398496
-0.034551289 0.029277962 0.19408649
-0.033388413 0.029121108 0.194188
-0.032225661 0.02896424 0.19428948
-0.03106303 0.028807385 0.19439098
-0.029900504 0.028650546 0.19449243
-0.0287381 0.028493721 0.19459394
-0.027575813 0.028336912 0.19469538
-0.026413634 0.028180148 0.19479677
-0.02525158 0.028023353 0.19489831
-0.024089644 0.027866604 0.19499967
-0.022927815 0.02770984 0.19510111
-0.021766108 0.027553104 0.1952025
-0.02060451 0.0273964 0.19530389
-0.019443041 0.027239708 0.19540533
-0.018281681 0.027083049 0.19550669
-0.017120434 0.026926359 0.19560808
-0.015959315 0.026769683 0.19570944
-0.014798313 0.026613008 0.19581085
-0.013637411 0.026456378 0.19591215
-0.012476636 0.026299747 0.19601354
-0.011315981 0.026143147 0.1961149
-0.010155444 0.025986515 0.1962162
-0.0089950189 0.025829945 0.19631758
-0.0078347055 0.025673404 0.19641879
-0.0066745081 0.025516862 0.19652012
-0.0055144331 0.025360322 0.19662136
-0.0043544741 0.025203809 0.19672269
-0.0031946304 0.025047284 0.19682401
-0.0020348984 0.024890818 0.19692525
-0.00087528169 0.024734335 0.19702649
0.00029604783 0.024625387 0.19708046
0.0015029747 0.024656253 0.19699514
0.0027112311 0.02468715 0.19690979
0.0039208066 0.024718076 0.19682431
0.0051317154 0.024749061 0.19673878
0.0063439435 0.024780031 0.1966531
0.0075574899 0.024811033 0.19656745
0.0087723853 0.024842106 0.19648156
0.0099886209 0.024873212 0.19639564
0.011206179 0.024904361 0.19630957
0.012425086 0.024935525 0.19622347
0.01364533 0.024966719 0.19613728
0.01486692 0.024997972 0.19605094
0.01608984 0.02502921 0.19596455
0.017314125 0.025060508 0.19587806
0.018539747 0.025091851 0.19579148
0.019766741 0.025123224 0.19570479
0.020995075 0.025154626 0.19561797
0.022224765 0.025186073 0.19553113
0.023455827 0.025217565 0.19544417
0.024688222 0.025249027 0.19535705
0.025921991 0.025280563 0.19526991
0.027157133 0.025312142 0.19518259
0.028393632 0.025343725 0.19509536
0.029631503 0.025375366 0.19500792
0.030870751 0.02540702 0.19492039
0.032111373 0.02543872 0.19483271
0.033353377 0.025470465 0.19474497
0.034596745 0.025502238 0.19465712
0.03584151 0.025534045 0.19456923
0.03708763 0.025565835 0.19448122
0.038335163 0.025597727 0.19439316
0.039584085 0.025629651 0.19430491
0.04083439 0.025661575 0.19421658
0.042086091 0.025693556 0.19412819
0.043339185 0.02572557 0.19403961
0.044593684 0.025757642 0.19395101
0.045849577 0.025789758 0.19386226
0.047106873 0.025821861 0.19377354
0.048365571 0.025854023 0.19368455
0.049625684 0.025886213 0.19359556
0.050887208 0.02591848 0.19350645
0.052150134 0.025950732 0.19341722
0.053414468 0.025983026 0.19332796
0.054680228 0.026015367 0.19323856
0.055947401 0.026047723 0.19314906
0.057216015 0.026080182 0.19305944
0.058486037 0.026112625 0.19296968
0.059757475 0.026145101 0.19287989
0.061030358 0.026177619 0.19278997
0.062304683 0.026210228 0.1927
0.063580431 0.026242822 0.19260988
0.064857617 0.026275445 0.19251961
0.066136219 0.026308082 0.1924293
0.067416273 0.026340796 0.19233891
0.06869778 0.026373567 0.1922484
0.069980741 0.026406355 0.19215775
0.071265116 0.026439156 0.19206703
0.072550967 0.026472002 0.19197625
0.073838264 0.026504895 0.19188529
0.075127028 0.026537845 0.19179425
0.076417252 0.026570795 0.19170311
0.0777089 0.026603792 0.19161186
0.079002045 0.026636846 0.19152051
0.080296665 0.02666996 0.19142905
0.081592709 0.026703047 0.19133756
0.082890257 0.026736205 0.19124588
0.084189251 0.026769379 0.19115415
0.085489742 0.026802598 0.1910623
0.086791717 0.026835892 0.19097027
0.088095166 0.026869198 0.19087821
0.089400075 0.026902523 0.19078609
0.090706512 0.026935905 0.19069374
0.092014402 0.026969347 0.19060138
0.093323804 0.027002789 0.1905089
0.094634674 0.027036292 0.19041631
0.095947057 0.027069822 0.19032362
0.09726093 0.02710337 0.19023082
0.098576315 0.027137004 0.19013789
0.099893197 0.027170639 0.19004482
0.10121159 0.027204337 0.18995172
0.10253147 0.02723806 0.1898585
0.10385288 0.027271817 0.18976519
0.10517582 0.027305631 0.1896717
0.10650025 0.027339473 0.18957818
0.1078262 0.027373333 0.18948454
0.10915369 0.027407253 0.18939072
0.1104827 0.02744123 0.18929681
0.11181322 0.027475238 0.18920287
0.11314529 0.027509263 0.18910876
0.11447886 0.027543314 0.18901461
0.11581399 0.027577426 0.18892023
0.11715066 0.027611628 0.18882585
0.11848886 0.027645798 0.18873131
0.11982858 0.027680015 0.18863666
0.12116987 0.027714264 0.18854198
0.12251271 0.027748583 0.18844712
0.12385711 0.027782949 0.18835217
0.12520304 0.027817328 0.18825704
0.12655054 0.027851783 0.18816188
0.12789959 0.027886223 0.1880666
0.12925023 0.027920766 0.18797117
0.1306024 0.027955325 0.18787566
0.13195616 0.0279899 0.18778005
0.13331147 0.028024502 0.1876843
0.13466834 0.028059166 0.18758851
0.13602683 0.028093904 0.18749249
0.13738686 0.028128671 0.18739647
0.13874848 0.028163439 0.18730026
0.1401117 0.028198266 0.187204
0.14147647 0.028233137 0.18710759
0.14284287 0.028268084 0.18701106
0.14421086 0.028303027 0.18691444
0.14558043 0.028338004 0.18681768
0.14695157 0.02837304 0.18672088
0.14832437 0.028408164 0.18662378
-0.11585521 0.067428716 0.15849546
-0.11450535 0.066509277 0.15934271
-0.11316132 0.065593712 0.16018644
-0.11182302 0.064682096 0.16102645
-0.11049042 0.063774385 0.16186294
-0.10916352 0.062870532 0.16269577
-0.10784224 0.061970521 0.16352519
-0.10652656 0.061074357 0.16435096
-0.10521646 0.060181919 0.16517335
-0.1039119 0.059293266 0.16599226
-0.10261282 0.05840838 0.16680765
-0.10131922 0.057527225 0.16761968
-0.10003105 0.056649759 0.16842821
-0.098748252 0.055775918 0.16923344
-0.09747082 0.054905787 0.17003527
-0.096198723 0.054039292 0.17083374
-0.09493193 0.053176373 0.17162889
-0.093670383 0.052317061 0.17242077
-0.092414074 0.051461294 0.17320931
-0.091162942 0.050609026 0.17399463
-0.089916997 0.049760327 0.17477676
-0.088676177 0.048915137 0.17555562
-0.087440446 0.048073396 0.17633125
-0.086209796 0.047235005 0.17710388
-0.084984168 0.046399992 0.17787334
-0.083763555 0.045568414 0.17863962
-0.08254794 0.044740245 0.1794028
-0.081337236 0.043915424 0.18016279
-0.080131471 0.043093961 0.18091983
-0.078930594 0.042275824 0.18167377
-0.077734567 0.041460991 0.18242463
-0.076543361 0.040649451 0.18317243
-0.075356975 0.039841171 0.18391731
-0.074175321 0.039036158 0.18465912
-0.072998434 0.038234349 0.18539801
-0.071826257 0.037435777 0.18613389
-0.070658758 0.036640406 0.18686682
-0.069495924 0.035848193 0.18759683
-0.068337716 0.035059109 0.18832392
-0.067184106 0.034273185 0.18904817
-0.06603507 0.033490375 0.18976954
-0.064890578 0.032710649 0.19048804
-0.06375061 0.031933993 0.19120377
-0.062615134 0.031160409 0.19191661
-0.061453044 0.030995836 0.19202587
-0.060290698 0.03083913 0.19212729
-0.059128456 0.030682396 0.19222876
-0.057966329 0.030525735 0.19233012
-0.056804337 0.03036906 0.19243166
-0.055642448 0.030212415 0.19253299
-0.054480676 0.030055769 0.19263437
-0.05331903 0.029899124 0.19273579
-0.052157488 0.029742524 0.19283721
-0.050996065 0.029585922 0.19293851
-0.049834765 0.029429367 0.19303986
-0.04867357 0.02927281 0.19314116
-0.047512505 0.029116269 0.19324261
-0.046351537 0.028959729 0.19334391
-0.045190703 0.028803216 0.19344524
-0.044029977 0.028646706 0.1935465
-0.042869363 0.02849024 0.1936478
-0.041708872 0.028333742 0.19374913
-0.040548488 0.028177321 0.19385034
-0.039388221 0.028020913 0.19395167
-0.03822808 0.027864462 0.19405293
-0.037068043 0.02770807 0.19415414
-0.035908133 0.027551632 0.19425541
-0.034748323 0.027395286 0.19435662
-0.033588637 0.027238922 0.19445783
-0.032429073 0.027082575 0.19455907
-0.031269625 0.026926259 0.19466022
-0.030110285 0.02676991 0.19476137
-0.02895106 0.026613638 0.19486257
-0.027791955 0.026457366 0.19496372
-0.026632966 0.026301047 0.19506493
-0.025474088 0.026144819 0.19516605
-0.024315339 0.025988575 0.19526723
-0.023156695 0.025832362 0.19536832
-0.02199816 0.025676165 0.19546944
-0.020839745 0.02551998 0.19557056
-0.019681456 0.025363782 0.19567165
-0.018523276 0.025207583 0.19577283
-0.017365221 0.025051415 0.19587392
-0.016207268 0.024895264 0.19597501
-0.015049437 0.024739139 0.1960761
-0.013891724 0.024583045 0.19617712
-0.012734119 0.024426922 0.19627818
-0.011576629 0.024270857 0.19637927
-0.01041927 0.024114763 0.19648033
-0.0092620123 0.023958698 0.1965813
-0.0081048757 0.023802679 0.19668233
-0.0069478522 0.023646645 0.19678336
-0.0057909479 0.023490639 0.19688433
-0.004634147 0.023334665 0.19698533
-0.0034774772 0.023178644 0.19708633
-0.0023209192 0.02302267 0.19718724
-0.0011644728 0.022866741 0.19728824
-8.0711498e-06 0.022711093 0.19738886
0.0011951973 0.022740828 0.19730407
0.0023997885 0.022770606 0.19721907
0.0036056794 0.022800369 0.19713405
0.0048129004 0.022830192 0.1970489
0.0060214363 0.022860046 0.19696364
0.0072312984 0.022889942 0.19687837
0.0084424829 0.022919886 0.19679293
0.0096549932 0.022949828 0.1967074
0.010868831 0.0229798 0.19662184
0.012084002 0.023009831 0.19653606
0.013300498 0.023039864 0.19645038
0.014518333 0.023069955 0.19636449
0.015737511 0.023100074 0.19627848
0.016958036 0.023130242 0.19619235
0.018179895 0.023160437 0.1961062
0.019403094 0.023190646 0.19601998
0.020627653 0.023220917 0.19593361
0.021853536 0.023251172 0.19584712
0.023080774 0.023281485 0.19576061
0.024309386 0.023311861 0.19567394
0.02553934 0.023342235 0.19558722
0.026770653 0.023372637 0.19550037
0.028003326 0.023403088 0.19541347
0.02923736 0.023433581 0.19532639
0.030472752 0.023464072 0.19523931
0.031709496 0.023494581 0.19515219
0.03294763 0.023525149 0.19506487
0.034187127 0.023555748 0.19497743
0.03542801 0.023586418 0.19488996
0.036670245 0.023617061 0.19480234
0.037913866 0.023647763 0.1947147
0.039158873 0.023678493 0.19462696
0.040405273 0.023709299 0.19453904
0.041653041 0.02374009 0.19445106
0.04290219 0.023770897 0.19436297
0.044152729 0.023801763 0.19427484
0.045404661 0.023832688 0.19418657
0.046658006 0.023863627 0.19409814
0.047912732 0.023894627 0.19400969
0.049168866 0.023925627 0.19392115
0.05042639 0.023956625 0.19383249
0.051685318 0.023987729 0.19374377
0.052945659 0.024018863 0.19365487
0.054207411 0.02405001 0.19356591
0.055470556 0.024081204 0.1934768
0.056735117 0.024112398 0.19338769
0.058001116 0.024143662 0.1932984
0.059268519 0.024174975 0.19320899
0.060537335 0.024206273 0.19311965
0.061807569 0.024237599 0.19303009
0.063079238 0.024269016 0.19294038
0.064352341 0.024300478 0.19285053
0.065626852 0.024331924 0.19276077
0.066902816 0.024363428 0.19267073
0.068180211 0.024394965 0.19258076
0.069459036 0.024426531 0.19249058
0.070739314 0.024458155 0.19240031
0.07202103 0.024489796 0.19230989
0.073304161 0.024521464 0.19221947
0.074588746 0.024553163 0.19212887
0.07587482 0.024584968 0.19203824
0.077162318 0.024616711 0.19194737
0.078451253 0.024648529 0.19185656
0.079741657 0.024680378 0.19176558
0.08103352 0.024712255 0.19167453
0.082326867 0.024744222 0.19158325
0.083621651 0.024776191 0.19149199
0.08491791 0.024808202 0.19140059
0.086215638 0.024840228 0.19130909
0.087514818 0.024872284 0.19121751
0.088815495 0.024904417 0.19112578
0.090117633 0.024936562 0.19103402
0.091421269 0.024968708 0.19094211
0.092726365 0.025000945 0.19085002
0.094032966 0.025033223 0.19075796
0.095341049 0.025065519 0.19066566
0.096650593 0.025097813 0.19057336
0.097961649 0.025130196 0.19048089
0.099274188 0.025162566 0.19038841
0.10058827 0.025195055 0.1902957
0.1019038 0.025227513 0.19020301
0.10322084 0.025260031 0.19011015
0.10453939 0.025292579 0.19001716
0.10585942 0.025325142 0.18992412
0.10718103 0.025357779 0.18983093
0.1085041 0.025390461 0.18973762
0.10982868 0.025423143 0.18964425
0.11115479 0.025455885 0.18955079
0.11248243 0.025488671 0.18945712
0.11381158 0.025521472 0.18936342
0.11514225 0.025554318 0.1892696
0.11647446 0.025587223 0.18917567
0.11780819 0.025620127 0.18908161
0.11914347 0.025653124 0.18898746
0.12048027 0.025686117 0.18889323
0.1218186 0.025719142 0.18879884
0.12315848 0.025752211 0.1887044
0.12449989 0.025785323 0.18860984
0.12584287 0.025818497 0.18851513
0.12718739 0.025851686 0.18842036
0.12853345 0.025884917 0.18832541
0.12988107 0.025918167 0.18823045
0.13123028 0.025951505 0.1881353
0.13258103 0.02598487 0.18804005
0.13393332 0.026018223 0.18794474
0.13528718 0.026051635 0.18784925
0.13664259 0.02608509 0.18775371
0.13799964 0.026118636 0.18765798
0.13935819 0.026152138 0.18756223
0.14071834 0.026185727 0.18746632
0.14208007 0.026219331 0.18737039
0.14344339 0.026252966 0.18727422
0.14480831 0.026286704 0.18717796
0.1461748 0.02632043 0.18708161
0.14754285 0.026354184 0.18698519
0.14891252 0.026388012 0.18688861
-0.12852491 0.066981591 0.15777919
-0.12715127 0.066065356 0.1586259
-0.12578349 0.065153055 0.15946898
-0.12442154 0.064244598 0.16030857
-0.1230654 0.063340038 0.16114447
-0.12171502 0.062439285 0.16197696
-0.12037037 0.061542407 0.16280574
-0.11903141 0.060649298 0.16363108
-0.1176981 0.059759941 0.16445291
-0.11637039 0.058874387 0.16527131
-0.11504829 0.057992484 0.16608632
-0.11373171 0.057114337 0.1668978
-0.11242065 0.056239821 0.16770601
-0.11111508 0.055369005 0.16851079
-0.10981494 0.054501809 0.16931218
-0.10852022 0.053638205 0.17011023
-0.10723086 0.052778158 0.17090505
-0.10594685 0.051921725 0.17169654
-0.10466814 0.051068816 0.17248464
-0.10339472 0.050219424 0.17326963
-0.10212653 0.049373526 0.17405131
-0.10086356 0.048531123 0.17482984
-0.099605776 0.047692124 0.17560518
-0.09835314 0.046856605 0.1763773
-0.097105592 0.046024516 0.17714632
-0.095863156 0.045195777 0.17791215
-0.094625741 0.044370249 0.17867509
-0.093393378 0.043548115 0.17943481
-0.092165999 0.0427293 0.18019155
-0.090943582 0.041913811 0.18094513
-0.089726105 0.041101635 0.18169576
-0.088513501 0.040292684 0.18244329
-0.087305784 0.039487001 0.18318784
-0.08610294 0.038684521 0.18392947
-0.084904872 0.03788529 0.18466809
-0.083711617 0.037089247 0.1854037
-0.0825231 0.03629636 0.18613648
-0.081339322 0.035506625 0.18686628
-0.080160238 0.034720074 0.18759316
-0.07898584 0.033936609 0.18831721
-0.077816077 0.033156242 0.18903834
-0.076650918 0.03237896 0.18975672
-0.075490378 0.031604718 0.19047216
-0.074334383 0.030833559 0.19118488
-0.073173985 0.030674247 0.19128904
-0.072013654 0.030517885 0.19139031
-0.070853457 0.030361567 0.19149151
-0.069693364 0.030205205 0.19159284
-0.068533383 0.030048931 0.19169402
-0.067373529 0.029892659 0.19179523
-0.066213779 0.029736372 0.1918965
-0.065054163 0.029580113 0.19199765
-0.063894637 0.02942384 0.19209892
-0.06273523 0.029267626 0.19220006
-0.06157596 0.029111428 0.19230121
-0.060416795 0.028955216 0.19240239
-0.059257746 0.028799077 0.19250348
-0.058098808 0.02864288 0.19260466
-0.056939986 0.028486727 0.19270575
-0.055781271 0.028330632 0.1928069
-0.054622684 0.028174479 0.19290802
-0.053464223 0.028018398 0.19300908
-0.052305859 0.02786229 0.19311023
-0.051147614 0.027706241 0.19321129
-0.049989488 0.027550191 0.19331232
-0.048831467 0.027394142 0.19341341
-0.047673564 0.027238136 0.19351441
-0.046515781 0.027082132 0.19361544
-0.045358121 0.026926128 0.19371647
-0.044200569 0.026770152 0.19381747
-0.043043129 0.026614178 0.19391853
-0.041885804 0.026458263 0.19401944
-0.040728599 0.026302347 0.19412047
-0.039571509 0.026146388 0.19422144
-0.038414527 0.025990516 0.19432238
-0.037257668 0.025834601 0.19442335
-0.036100917 0.025678732 0.19452429
-0.034944288 0.025522875 0.19462523
-0.03378778 0.025367035 0.19472626
-0.032631379 0.025211237 0.19482711
-0.031475093 0.025055412 0.19492802
-0.03031892 0.024899602 0.19502896
-0.02916286 0.02474382 0.19512984
-0.028006928 0.024588069 0.19523072
-0.026851093 0.024432348 0.19533151
-0.025695382 0.024276597 0.19543239
-0.024539785 0.024120891 0.19553322
-0.023384307 0.023965139 0.19563413
-0.022228945 0.023809433 0.19573498
-0.021073703 0.023653757 0.1958358
-0.019918567 0.023498094 0.19593668
-0.018763555 0.023342418 0.1960375
-0.017608643 0.023186799 0.19613826
-0.016453866 0.023031138 0.19623911
-0.015299193 0.022875536 0.19633991
-0.014144631 0.022719933 0.19644064
-0.012990189 0.022564346 0.1965414
-0.011835858 0.022408787 0.19664213
-0.010681639 0.022253245 0.19674289
-0.0095275547 0.022097673 0.19684368
-0.0083735669 0.021942146 0.19694439
-0.0072196946 0.021786679 0.19704512
-0.0060659382 0.021631179 0.19714585
-0.0049123005 0.021475712 0.19724655
-0.0037587783 0.021320244 0.19734722
-0.0026053756 0.021164775 0.1974479
-0.0014520768 0.021009367 0.19754857
-0.0002989012 0.020853942 0.19764918
0.00088918989 0.020836428 0.19761115
0.0020901263 0.020865072 0.19752657
0.0032923743 0.020893764 0.197442
0.0044959332 0.020922471 0.19735727
0.0057007959 0.020951204 0.19727239
0.0069069848 0.020979956 0.19718754
0.0081144851 0.021008765 0.19710249
0.0093232896 0.021037547 0.19701749
0.010533431 0.021066384 0.19693226
0.011744891 0.0210953 0.19684696
0.012957678 0.021124214 0.19676158
0.014171802 0.021153172 0.19667616
0.015387245 0.021182176 0.19659057
0.016604016 0.021211194 0.19650492
0.017822132 0.021240242 0.19641915
0.019041555 0.021269275 0.19633335
0.020262348 0.021298384 0.1962474
0.021484468 0.021327537 0.19616133
0.022707939 0.021356732 0.19607526
0.023932751 0.02138593 0.19598901
0.02515891 0.021415157 0.19590271
0.026386416 0.021444442 0.19581625
0.027615262 0.0214737 0.19572982
0.028845478 0.021503046 0.19564325
0.030077051 0.021532435 0.19555649
0.031309981 0.021561855 0.19546974
0.032544266 0.021591263 0.19538283
0.033779915 0.021620728 0.19529584
0.03501692 0.021650191 0.19520876
0.0362553 0.021679686 0.19512168
0.037495043 0.021709256 0.19503435
0.038736153 0.02173881 0.19494709
0.039978649 0.021768425 0.19485956
0.041222513 0.021798039 0.19477212
0.042467769 0.021827741 0.19468442
0.043714393 0.021857444 0.19459668
0.044962391 0.021887178 0.19450888
0.046211794 0.021916939 0.19442096
0.047462564 0.021946732 0.19433287
0.048714753 0.021976599 0.19424477
0.049968306 0.022006454 0.19415659
0.051223263 0.022036349 0.19406825
0.05247961 0.022066277 0.19397983
0.053737368 0.022096233 0.19389138
0.054996543 0.022126278 0.19380271
0.056257091 0.022156294 0.19371393
0.057519063 0.022186369 0.19362515
0.058782436 0.022216443 0.19353628
0.060047235 0.022246623 0.19344723
0.061313435 0.022276804 0.19335815
0.06258104 0.022306997 0.1932689
0.063850082 0.022337222 0.19317961
0.065120533 0.022367463 0.19309026
0.066392422 0.022397805 0.19300073
0.067665711 0.02242812 0.19291106
0.068940446 0.022458507 0.19282138
0.070216618 0.022488926 0.19273153
0.071494199 0.022519358 0.19264165
0.072773248 0.022549881 0.19255155
0.074053712 0.022580374 0.19246152
0.075335607 0.022610908 0.19237131
0.076618962 0.022641476 0.19228098
0.07790377 0.022672119 0.19219053
0.079190016 0.022702742 0.19210002
0.080477692 0.022733444 0.19200936
0.081766829 0.022764131 0.19191864
0.083057418 0.022794906 0.19182786
0.084349491 0.02282571 0.19173691
0.085643008 0.022856517 0.19164589
0.086937979 0.022887379 0.19155478
0.088234402 0.02291826 0.1914635
0.089532308 0.02294917 0.19137216
0.090831697 0.022980152 0.19128069
0.092132553 0.023011152 0.19118914
0.093434863 0.02304218 0.19109753
0.094738662 0.023073237 0.19100574
0.096043959 0.02310437 0.19091386
0.097350717 0.023135504 0.19082192
0.098658942 0.023166636 0.19072986
0.099968672 0.023197858 0.19063765
0.10127988 0.023229079 0.19054544
0.10259262 0.023260377 0.19045305
0.10390683 0.023291701 0.19036052
0.10522253 0.023323042 0.19026795
0.10653973 0.02335443 0.19017521
0.10785843 0.023385843 0.19008246
0.10917866 0.02341732 0.18998951
0.11050039 0.023448825 0.18989646
0.1118236 0.023480328 0.18980333
0.11314834 0.023511892 0.18971014
0.1144746 0.023543503 0.18961683
0.11580238 0.02357514 0.18952331
0.11713167 0.023606809 0.18942979
0.11846248 0.023638509 0.18933612
0.11979482 0.023670265 0.18924245
0.12112869 0.023702053 0.18914849
0.12246411 0.023733871 0.18905452
0.12380105 0.023765717 0.1889604
0.1251395 0.023797626 0.1888662
0.12647955 0.023829577 0.1887719
0.12782112 0.023861542 0.18867752
0.12916419 0.023893524 0.18858299
0.13050881 0.02392555 0.18848839
0.13185503 0.023957619 0.18839362
0.13320279 0.023989765 0.18829876
0.13455205 0.024021896 0.18820378
0.13590293 0.024054069 0.18810871
0.13725534 0.024086319 0.18801358
0.13860931 0.024118554 0.18791831
0.13996488 0.024150891 0.18782288
0.14132199 0.024183216 0.18772736
0.14268066 0.024215585 0.18763173
0.14404091 0.024247982 0.18753597
0.14540277 0.02428044 0.18744013
0.14676617 0.024312958 0.18734419
0.14813119 0.024345459 0.18724814
-0.14113215 0.066536702 0.15706646
-0.13973492 0.065623678 0.15791261
-0.13834365 0.064714491 0.15875518
-0.13695835 0.063809238 0.15959418
-0.1355789 0.062907793 0.1604296
-0.1342053 0.062010221 0.16126141
-0.13283749 0.061116409 0.16208977
-0.13147548 0.060226336 0.16291466
-0.13011917 0.059340049 0.16373602
-0.12876861 0.05845749 0.16455394
-0.12742369 0.057578642 0.16536844
-0.1260844 0.056703445 0.16617951
-0.1247507 0.055831924 0.16698721
-0.12342254 0.054963998 0.16779158
-0.12209995 0.05409972 0.16859254
-0.12078281 0.053239021 0.16939017
-0.11947115 0.052381866 0.17018455
-0.11816489 0.051528309 0.17097569
-0.11686402 0.050678231 0.17176348
-0.11556851 0.049831625 0.17254806
-0.11427835 0.048988543 0.17332935
-0.11299343 0.048148897 0.17410758
-0.11171379 0.047312677 0.17488253
-0.11043938 0.046479907 0.17565429
-0.10917015 0.045650482 0.17642298
-0.10790608 0.044824444 0.17718855
-0.10664715 0.044001773 0.17795095
-0.10539332 0.04318244 0.17871028
-0.10414454 0.042366322 0.17946661
-0.1029008 0.041553486 0.18021995
-0.10166206 0.04074388 0.18097028
-0.10042829 0.039937545 0.18171754
-0.099199489 0.039134454 0.18246186
-0.097975597 0.038334548 0.18320313
-0.096756585 0.037537836 0.18394151
-0.095542431 0.036744297 0.18467695
-0.094333105 0.035953917 0.18540946
-0.093128599 0.035166677 0.18613905
-0.091928855 0.034382556 0.18686575
-0.090733849 0.033601534 0.18758962
-0.089543566 0.032823596 0.18831053
-0.088357963 0.032048743 0.18902859
-0.087177038 0.031276945 0.18974391
-0.086000778 0.030510079 0.19045457
-0.084842362 0.030354073 0.19055566
-0.083684057 0.030198084 0.19065666
-0.082525872 0.030042108 0.19075775
-0.081367813 0.029886164 0.19085884
-0.080209851 0.029730219 0.19095981
-0.079052016 0.029574288 0.19106084
-0.077894293 0.029418403 0.19116187
-0.076736674 0.029262489 0.19126287
-0.075579174 0.029106632 0.1913639
-0.074421801 0.028950792 0.19146487
-0.073264532 0.02879492 0.19156581
-0.07210739 0.02863908 0.19166684
-0.070950352 0.028483255 0.19176781
-0.069793433 0.028327473 0.19186869
-0.068636626 0.028171707 0.19196963
-0.067479938 0.02801591 0.19207063
-0.066323355 0.027860176 0.19217145
-0.065166891 0.027704425 0.19227239
-0.064010561 0.027548732 0.19237328
-0.062854312 0.027393026 0.19247422
-0.061698202 0.027237318 0.19257507
-0.060542203 0.027081672 0.19267595
-0.059386313 0.026925981 0.19277677
-0.058230545 0.026770348 0.19287759
-0.057074882 0.026614746 0.19297844
-0.055919342 0.026459115 0.19307929
-0.054763913 0.026303541 0.19318008
-0.053608593 0.026147969 0.19328091
-0.05245341 0.02599238 0.19338167
-0.051298317 0.025836824 0.19348249
-0.050143354 0.025681281 0.19358331
-0.048988499 0.025525782 0.19368404
-0.047833756 0.02537027 0.19378477
-0.046679135 0.025214786 0.19388551
-0.04552462 0.02505932 0.19398627
-0.044370223 0.024903838 0.194087
-0.043215953 0.024748413 0.19418773
-0.042061783 0.02459299 0.1942884
-0.040907729 0.02443755 0.1943891
-0.039753787 0.024282187 0.19448975
-0.038599968 0.024126764 0.19459051
-0.037446253 0.023971429 0.19469118
-0.036292654 0.023816096 0.19479176
-0.035139184 0.023660731 0.19489247
-0.03398582 0.023505412 0.19499308
-0.032832567 0.023350079 0.19509375
-0.031679425 0.023194833 0.19519433
-0.030526407 0.023039561 0.19529498
-0.029373499 0.022884255 0.19539556
-0.028220708 0.022728996 0.19549617
-0.027068039 0.022573752 0.19559678
-0.025915477 0.022418521 0.19569734
-0.024763022 0.022263322 0.19579795
-0.023610698 0.022108106 0.1958985
-0.022458477 0.021952907 0.19599909
-0.021306371 0.021797737 0.19609964
-0.02015439 0.021642581 0.19620019
-0.019002516 0.021487456 0.19630066
-0.017850751 0.021332318 0.19640121
-0.016699102 0.021177221 0.19650167
-0.015547581 0.021022096 0.1966022
-0.01439616 0.020866999 0.19670269
-0.013244854 0.020711949 0.19680321
-0.012093668 0.020556914 0.19690368
-0.010942597 0.020401891 0.19700411
-0.009791634 0.020246871 0.19710457
-0.0086407904 0.020091804 0.19720504
-0.0074900622 0.019936828 0.19730544
-0.006339442 0.019781854 0.1974059
-0.0051889336 0.019626921 0.19750628
-0.0040385444 0.019471975 0.19760668
-0.0028882781 0.019317057 0.19770712
-0.0017381198 0.019162126 0.19780749
-0.00058806583 0.019007239 0.19790787
0.00058495585 0.018943053 0.19791648
0.0017822676 0.018970583 0.19783229
0.0029808909 0.018998155 0.19774809
0.0041807992 0.019025743 0.19766378
0.0053820261 0.01905336 0.19757938
0.0065845386 0.019080965 0.19749498
0.0077883732 0.019108642 0.19741035
0.0089935157 0.019136349 0.19732562
0.01019998 0.019164117 0.19724089
0.011407767 0.019191898 0.19715601
0.012616854 0.01921968 0.19707102
0.013827264 0.019247536 0.19698596
0.015038985 0.019275349 0.19690087
0.016252045 0.019303232 0.19681564
0.017466424 0.019331148 0.19673032
0.018682135 0.019359125 0.19664487
0.019899182 0.0193871 0.19655937
0.021117555 0.019415105 0.19647372
0.022337265 0.019443154 0.19638804
0.0235583 0.019471206 0.19630229
0.024780683 0.019499283 0.19621634
0.026004406 0.019527437 0.19613042
0.027229475 0.019555608 0.1960443
0.028455887 0.019583806 0.19595811
0.02968365 0.019612018 0.19587192
0.030912766 0.019640306 0.19578546
0.032143235 0.019668596 0.19569901
0.033375047 0.019696882 0.19561252
0.034608223 0.01972523 0.19552583
0.035842758 0.019753609 0.1954391
0.037078649 0.019782031 0.19535226
0.038315915 0.019810466 0.19526532
0.039554544 0.019838948 0.1951783
0.040794525 0.01986743 0.19509119
0.042035878 0.019895941 0.19500402
0.043278597 0.019924482 0.19491673
0.044522718 0.019953083 0.19482926
0.04576819 0.019981697 0.19474182
0.047015049 0.020010328 0.19465423
0.048263296 0.020039018 0.19456655
0.049512908 0.020067709 0.19447875
0.050763935 0.020096472 0.1943908
0.052016336 0.020125251 0.19430283
0.053270124 0.020154016 0.19421482
0.054525297 0.020182854 0.19412664
0.055781864 0.020211708 0.19403842
0.057039864 0.020240637 0.19394994
0.058299236 0.020269549 0.19386148
0.059560008 0.020298522 0.19377294
0.060822193 0.020327495 0.19368431
0.062085796 0.020356558 0.1935955
0.063350797 0.020385619 0.19350669
0.064617209 0.020414712 0.19341773
0.06588503 0.020443834 0.19332862
0.067154266 0.02047297 0.19323945
0.068424948 0.020502197 0.19315022
0.06969703 0.020531408 0.19306085
0.070970535 0.020560661 0.19297135
0.072245464 0.020589948 0.19288182
0.07352183 0.020619279 0.19279215
0.074799627 0.02064864 0.19270238
0.076078847 0.020678014 0.19261253
0.07735952 0.020707432 0.19252259
0.078641616 0.020736882 0.19243249
0.079925172 0.020766405 0.19234228
0.081210159 0.0207959 0.19225201
0.082496591 0.020825468 0.19216168
0.083784468 0.020855051 0.19207117
0.085073784 0.02088465 0.1919806
0.086364575 0.020914337 0.19188994
0.087656803 0.020944025 0.19179916
0.088950492 0.020973727 0.1917083
0.090245657 0.021003474 0.19161734
0.091542281 0.021033311 0.19152617
0.092840359 0.021063101 0.19143504
0.094139919 0.021092953 0.19134375
0.095440939 0.021122836 0.19125235
0.096743427 0.021152744 0.19116092
0.098047405 0.021182716 0.19106922
0.099352852 0.021212701 0.19097754
0.10065977 0.021242745 0.19088575
0.10196818 0.02127279 0.19079384
0.10327806 0.021302866 0.19070181
0.10458945 0.021332998 0.19060972
0.10590232 0.021363162 0.19051746
0.10721669 0.021393342 0.19042516
0.10853255 0.02142358 0.19033271
0.10984991 0.021453878 0.19024014
0.11116879 0.021484176 0.19014752
0.11248911 0.021514473 0.19005477
0.11381099 0.021544846 0.18996188
0.11513436 0.021575248 0.1898689
0.11645927 0.02160571 0.18977585
0.11778565 0.021636171 0.18968272
0.11911356 0.021666663 0.18958938
0.12044299 0.021697184 0.18949604
0.12177395 0.021727763 0.18940255
0.12310643 0.021758376 0.18930894
0.12444043 0.021789046 0.18921518
0.12577595 0.021819714 0.18912143
0.12711303 0.021850429 0.18902749
0.12845165 0.021881189 0.1889334
0.12979178 0.021911992 0.18883929
0.13113347 0.021942813 0.18874505
0.13247667 0.021973647 0.1886507
0.13382143 0.022004541 0.18855622
0.13516776 0.022035463 0.18846163
0.13651563 0.022066446 0.18836698
0.13786504 0.022097444 0.18827218
0.13921599 0.02212847 0.18817723
0.14056852 0.022159528 0.18808225
0.14192262 0.02219066 0.18798709
0.14327829 0.022221806 0.18789193
0.14463547 0.022252982 0.18779653
0.14599428 0.022284174 0.18770114
0.14735465 0.022315439 0.1876055
0.14871658 0.02234672 0.18750986
-0.14803132 0.062477686 0.15971816
-0.14663471 0.061583191 0.16054949
-0.14524406 0.060692448 0.16137734
-0.14385922 0.05980549 0.16220164
-0.14248022 0.058922198 0.16302252
-0.14110698 0.058042634 0.16384
-0.13973945 0.057166737 0.16465405
-0.13837767 0.056294501 0.1654647
-0.13702159 0.055425934 0.16627195
-0.13567112 0.054560956 0.16707587
-0.13432623 0.053699568 0.16787639
-0.13298695 0.052841775 0.16867355
-0.13165319 0.051987451 0.16946763
-0.13032493 0.05113671 0.17025825
-0.12900212 0.050289463 0.17104569
-0.12768474 0.049445689 0.17182985
-0.12637278 0.048605375 0.17261085
-0.12506616 0.047768455 0.17338866
-0.1237649 0.046934996 0.17416322
-0.12246894 0.046104919 0.17493469
-0.12117822 0.045278251 0.17570302
-0.11989277 0.04445491 0.17646819
-0.11861249 0.043634906 0.1772303
-0.11733741 0.042818192 0.17798939
-0.11606746 0.042004775 0.17874533
-0.11480262 0.041194648 0.17949829
-0.11354287 0.040387787 0.18024814
