# .PCD v0.7 - Point Cloud Data file format
VERSION 0.7
FIELDS x y z
SIZE 4 4 4
TYPE F F F
COUNT 1 1 1
WIDTH 1340
HEIGHT 1
VIEWPOINT 0 0 0 1 0 0 0
POINTS 1340
DATA ascii
-0.024683833 0.014839615 0.19690844
-0.023361005 0.015013588 0.19697097
-0.022040961 0.015187157 0.19703341
-0.020723751 0.015360398 0.19709563
-0.019409325 0.015533268 0.19715771
-0.01809763 0.015705736 0.19721979
-0.016788747 0.015877876 0.19728163
-0.015482608 0.016049657 0.19734338
-0.014179226 0.016221067 0.19740495
-0.012878555 0.016392119 0.19746646
-0.011580641 0.016562799 0.19752777
-0.010285438 0.016733119 0.19758898
-0.0089929635 0.016903099 0.1976501
-0.0077031846 0.017072722 0.19771102
-0.0064161038 0.017241985 0.19777194
-0.0051317196 0.017410891 0.19783267
-0.0038499879 0.01757944 0.1978932
-0.002570953 0.017747648 0.19795367
-0.0012946007 0.01791551 0.19801399
-2.0885598e-05 0.01808303 0.19807416
0.0011273071 0.018384319 0.19795316
0.0022737712 0.018686041 0.19783124
0.0034192221 0.018987538 0.19770941
0.0045636296 0.019288708 0.19758779
0.005706965 0.019589623 0.19746616
0.0068492866 0.019890269 0.19734472
0.0079905652 0.020190664 0.19722334
0.009130816 0.020490747 0.1971021
0.010270039 0.020790575 0.19698095
0.011408217 0.02109015 0.19685999
0.012545354 0.021389427 0.19673896
0.013681506 0.021688422 0.1966182
0.014816587 0.021987192 0.19649753
0.015950667 0.022285664 0.19637692
0.017083719 0.022583839 0.19625646
0.018215718 0.022881804 0.19613606
0.019346714 0.023179501 0.19601581
0.020476712 0.023476871 0.19589564
0.021605683 0.023774019 0.19577557
0.022733625 0.024070866 0.19565567
0.023860553 0.024367446 0.19553581
0.02498644 0.024663819 0.19541606
0.026111327 0.024959922 0.19529644
0.027235186 0.025255727 0.19517687
0.028358063 0.02555128 0.19505745
0.02947991 0.025846578 0.19493809
0.030600745 0.02614161 0.19481891
0.031720582 0.026436372 0.19469976
0.032839403 0.026730867 0.19458076
0.033957217 0.027025107 0.19446191
0.03507407 0.027319049 0.19434315
0.036189884 0.02761277 0.19422439
0.037304696 0.027906206 0.19410583
0.038418513 0.028199404 0.19398734
0.039531346 0.028492332 0.19386899
0.040643182 0.028784949 0.19375068
0.041754015 0.029077357 0.19363254
0.042863868 0.029369483 0.1935145
0.043972708 0.029661383 0.19339654
0.04508058 0.029952988 0.1932787
0.046187449 0.030244332 0.19316098
0.047293358 0.030535398 0.19304335
0.048398245 0.030826243 0.19292584
0.049502153 0.03111681 0.19280842
0.050605088 0.031407125 0.19269109
0.051516872 0.03198586 0.19219899
0.052375458 0.032648869 0.19159791
0.053235937 0.033313315 0.19099548
0.054098263 0.033979207 0.19039178
0.054962453 0.034646515 0.18978688
0.055828564 0.035315275 0.18918055
0.056696508 0.035985518 0.18857291
0.057566341 0.036657158 0.18796405
0.058438059 0.037330326 0.18735376
0.059311677 0.038004916 0.18674216
0.060187239 0.038680974 0.18612927
0.061064672 0.039358523 0.18551505
0.061944034 0.040037576 0.18489939
0.062825345 0.040718075 0.18428248
0.063708559 0.041400056 0.18366414
0.064593703 0.042083587 0.18304449
0.065480784 0.042768572 0.1824235
0.066369817 0.043455087 0.18180108
0.067260832 0.044143081 0.18117741
0.068153784 0.044832617 0.18055224
0.069048733 0.045523666 0.17992577
0.069945604 0.046216242 0.17929786
0.070844486 0.046910346 0.17866856
0.071745396 0.04760595 0.178038
0.072648235 0.048303153 0.17740589
0.073553123 0.049001861 0.17677242
0.074459985 0.049702145 0.17613763
0.075368874 0.050403964 0.17550135
0.076279782 0.051107325 0.17486367
0.07719285 0.051812049 0.17422485
0.078107968 0.052518312 0.17358464
0.07902509 0.053226192 0.17294297
0.079944253 0.053935632 0.17229986
0.080865487 0.054646686 0.17165533
0.081788778 0.0553593 0.17100933
0.082714133 0.056073528 0.170362
0.083641551 0.056789346 0.16971311
0.084571049 0.0575068 0.1690627
0.085502662 0.058225852 0.16841084
0.086436369 0.05894649 0.1677576
0.087372169 0.059668779 0.16710293
0.088310063 0.060392685 0.16644675
0.089250095 0.061118249 0.16578898
0.090192236 0.061845459 0.16512984
0.091136523 0.062574282 0.16446918
0.092082947 0.063304752 0.16380703
0.093031473 0.064036913 0.16314328
0.09398222 0.064770699 0.16247815
0.094935089 0.06550616 0.1618115
0.095890142 0.066243298 0.16114333
0.096847363 0.066982128 0.16047359
0.097806767 0.067722633 0.15980235
0.098768339 0.068464838 0.15912953
-0.14864178 -0.0033845541 0.19133794
-0.1470464 -0.0031725303 0.19141307
-0.14545473 -0.0029610132 0.19148797
-0.14386682 -0.0027499581 0.19156274
-0.14228253 -0.0025394096 0.19163722
-0.1407019 -0.0023293374 0.1917116
-0.13912493 -0.0021197721 0.19178587
-0.13755161 -0.0019106688 0.19185999
-0.13598193 -0.0017020568 0.19193381
-0.13441589 -0.0014939219 0.19200754
-0.1328534 -0.0012862785 0.19208103
-0.13129452 -0.0010790969 0.19215447
-0.12973922 -0.00087240705 0.19222766
-0.12818748 -0.0006661939 0.19230074
-0.12663935 -0.00046041282 0.19237351
-0.12509473 -0.00025512342 0.19244623
-0.12355361 -5.0340557e-05 0.19251877
-0.12201605 0.00015402513 0.19259116
-0.12048197 0.00035788427 0.19266343
-0.11895141 0.00056131132 0.19273543
-0.11742433 0.00076426164 0.19280732
-0.11590072 0.00096676499 0.19287905
-0.11438053 0.0011687767 0.19295061
-0.11286382 0.0013703563 0.19302192
-0.11135058 0.0015714889 0.19309315
-0.10984071 0.0017721597 0.19316423
-0.10833428 0.0019723389 0.19323513
-0.10683124 0.0021720862 0.19330591
-0.10533161 0.0023714011 0.19337645
-0.10383531 0.0025702543 0.19344693
-0.10234243 0.0027686753 0.19351718
-0.10085288 0.0029666196 0.19358724
-0.09936668 0.003164147 0.19365725
-0.097883806 0.0033611972 0.19372699
-0.096404277 0.0035578455 0.19379666
-0.094928034 0.0037540467 0.1938661
-0.093455099 0.0039497861 0.19393548
-0.091985442 0.0041451231 0.19400463
-0.090519063 0.0043399981 0.19407371
-0.08905597 0.0045344266 0.19414258
-0.087596148 0.0047284677 0.19421121
-0.08613953 0.0049220463 0.19427976
-0.08468616 0.0051151933 0.19434819
-0.083236001 0.0053079231 0.19441646
-0.081789076 0.0055002212 0.19448459
-0.08034534 0.0056921015 0.19455248
-0.078904808 0.0058835498 0.19462037
-0.077467449 0.0060745813 0.19468796
-0.076033294 0.0062651956 0.19475546
-0.074602246 0.0064553772 0.19482282
-0.07317441 0.006645157 0.19489005
-0.07174968 0.0068345345 0.19495705
-0.070328057 0.0070234509 0.19502392
-0.068909585 0.0072120088 0.19509071
-0.067494228 0.0074001201 0.19515729
-0.066081941 0.0075878436 0.19522378
-0.064672738 0.0077751209 0.19529006
-0.063266642 0.0079620099 0.19535622
-0.061863601 0.0081484979 0.19542217
-0.060463604 0.0083345529 0.19548813
-0.059066679 0.0085202204 0.19555384
-0.057672795 0.0087055005 0.19561943
-0.056281921 0.0088903485 0.19568491
-0.054894034 0.0090748249 0.19575024
-0.053509187 0.0092588691 0.19581535
-0.052127354 0.0094425557 0.19588035
-0.050748475 0.0096258093 0.19594526
-0.049372599 0.0098086912 0.19601002
-0.047999702 0.009991155 0.1960746
-0.046629734 0.010173248 0.19613907
-0.045262702 0.010354908 0.19620338
-0.043898653 0.010536225 0.19626758
-0.042537529 0.01071714 0.19633168
-0.041179303 0.010897653 0.19639558
-0.039824005 0.011077778 0.19645929
-0.038471621 0.011257561 0.19652298
-0.037122127 0.011436912 0.19658652
-0.035775471 0.011615891 0.19664982
-0.034431722 0.011794467 0.19671306
-0.033090863 0.011972715 0.19677615
-0.031752806 0.012150516 0.19683915
-0.030417664 0.012328004 0.19690195
-0.029085327 0.012505091 0.19696465
-0.027755823 0.012681805 0.19702724
-0.026429106 0.012858115 0.19708964
-0.025105234 0.013034085 0.19715196
-0.023784148 0.013209681 0.1972141
-0.022465851 0.013384889 0.19727612
-0.021150352 0.013559711 0.19733804
-0.019837672 0.01373422 0.1973998
-0.018527701 0.013908311 0.19746146
-0.017220505 0.014082045 0.19752294
-0.015916064 0.014255436 0.19758436
-0.014614336 0.014428426 0.1976456
-0.013315349 0.014601086 0.19770667
-0.012019104 0.014773375 0.19776773
-0.01072557 0.014945307 0.19782856
-0.0094347494 0.015116881 0.1978893
-0.008146625 0.015288066 0.19794998
-0.0068611675 0.01545891 0.19801041
-0.0055784225 0.015629426 0.19807073
-0.0042983149 0.015799554 0.19813105
-0.0030208896 0.01596934 0.19819111
-0.0017461164 0.016138768 0.1982511
-0.00047402555 0.016307853 0.198311
0.00071663369 0.016561788 0.19825482
0.0018612054 0.016863791 0.19813308
0.0030047193 0.017165527 0.19801131
0.0041472199 0.017467007 0.19788975
0.0052886624 0.017768206 0.19776815
0.0064290767 0.018069124 0.19764683
0.0075684777 0.018369757 0.19752559
0.0087068211 0.018670151 0.19740441
0.0098441364 0.018970277 0.19728333
0.010980467 0.019270077 0.19716239
0.012115727 0.019569652 0.19704154
0.013249972 0.019868959 0.19692084
0.014383204 0.020167952 0.1968002
0.015515408 0.020466723 0.19667971
0.016646584 0.02076521 0.19655934
0.017776746 0.021063413 0.19643903
0.018905897 0.021361366 0.19631886
0.020034002 0.021659063 0.19619879
0.021161124 0.021956448 0.19607878
0.022287235 0.02225361 0.19595894
0.0234123 0.022550488 0.19583917
0.024536368 0.022847097 0.19571957
0.025659453 0.023143426 0.19560003
0.026781509 0.023439514 0.19548061
0.027902508 0.02373535 0.19536123
0.029022552 0.024030901 0.19524199
0.030141568 0.0243262 0.19512287
0.0312596 0.024621246 0.19500387
0.032376595 0.024916051 0.1948849
0.033492584 0.025210561 0.19476607
0.034607608 0.025504801 0.19464737
0.03572163 0.025798775 0.19452882
0.036834661 0.026092494 0.19441029
0.037946671 0.026385976 0.19429183
0.039057702 0.026679188 0.19417357
0.040167715 0.026972134 0.19405541
0.041276798 0.027264765 0.1939373
0.042384859 0.027557189 0.19381934
0.043491926 0.027849358 0.19370148
0.044598009 0.028141245 0.1935837
0.045703109 0.02843288 0.19346601
0.046807207 0.028724259 0.19334847
0.047910355 0.029015357 0.19323102
0.049012519 0.029306207 0.19311368
0.050113671 0.029596806 0.19299644
0.051213849 0.029887144 0.19287929
0.052313052 0.030177249 0.19276223
0.053411309 0.03046705 0.19264537
0.054508556 0.030756613 0.19252852
0.055604864 0.031045936 0.19241175
0.056682903 0.031361979 0.19226009
0.057542711 0.032020926 0.19166207
0.058404353 0.03268135 0.19106278
0.059267886 0.033343129 0.19046232
0.060133237 0.034006368 0.18986046
0.061000466 0.034671023 0.18925735
0.061869573 0.035337124 0.18865293
0.062740542 0.036004663 0.1880472
0.063613422 0.036673646 0.18744019
0.064488158 0.037344091 0.18683177
0.06536483 0.038015954 0.18622211
0.066243388 0.038689315 0.1856111
0.067123853 0.039364114 0.18499884
0.06800621 0.040040404 0.18438506
0.068890549 0.040718153 0.18377009
0.069776781 0.041397359 0.18315381
0.070664957 0.042078063 0.18253613
0.071555056 0.042760279 0.18191704
0.072447129 0.043443967 0.18129665
0.073341131 0.044129137 0.180675
0.074237108 0.044815853 0.18005183
0.075135052 0.04550406 0.17942733
0.076034941 0.046193786 0.17880145
0.076936826 0.046885014 0.17817423
0.077840731 0.047577746 0.17754567
0.078746602 0.048272029 0.17691571
0.079654478 0.04896782 0.17628425
0.08056435 0.049665187 0.17565146
0.081476338 0.050363835 0.17501763
0.08239039 0.051064029 0.17438233
0.083306439 0.051765803 0.1737456
0.084224492 0.052469119 0.1731075
0.085144602 0.053173978 0.17246792
0.08606676 0.053880457 0.17182696
0.086990982 0.054588452 0.1711846
0.087917238 0.05529809 0.17054078
0.088845558 0.05600927 0.16989553
0.089775987 0.056722026 0.16924882
0.090708479 0.057436369 0.16860074
0.091643043 0.058152322 0.16795117
0.092579715 0.058869906 0.16730008
0.093518466 0.059589092 0.16664758
0.094459355 0.060309872 0.1659936
0.095402353 0.061032265 0.16533819
0.096347459 0.061756324 0.16468123
0.097294703 0.062481977 0.16402283
0.098244064 0.063209288 0.16336295
0.099195622 0.063938223 0.16270161
0.10014926 0.064668804 0.16203874
0.10110508 0.065401092 0.16137433
0.10206305 0.066134982 0.16070852
0.10302325 0.066870533 0.16004112
0.10398561 0.067607746 0.15937224
0.10495014 0.068346702 0.15870181
-0.14887869 -0.0053321533 0.19161525
-0.14728594 -0.005118222 0.19168988
-0.14569689 -0.0049048276 0.19176438
-0.14411156 -0.0046918951 0.19183862
-0.14252983 -0.0044794837 0.19191274
-0.1409518 -0.0042675636 0.19198674
-0.13937737 -0.0040561506 0.1920605
-0.13780659 -0.0038451848 0.19213411
-0.13623947 -0.0036346952 0.19220755
-0.13467591 -0.0034247276 0.19228077
-0.13311595 -0.0032152513 0.19235384
-0.13155957 -0.0030062366 0.1924268
-0.13000675 -0.0027976842 0.19249961
-0.12845752 -0.0025896085 0.19257218
-0.12691182 -0.0023820244 0.1926446
-0.12536962 -0.0021749169 0.19271687
-0.12383095 -0.0019683011 0.19278899
-0.1222958 -0.0017621325 0.19286096
-0.12076417 -0.0015564256 0.19293267
-0.119236 -0.0013511955 0.19300425
-0.11771131 -0.0011464272 0.19307569
-0.11619006 -0.00094212085 0.193147
-0.11467226 -0.00073829119 0.19321808
-0.11315789 -0.0005349383 0.19328907
-0.11164699 -0.00033200262 0.19335982
-0.11013947 -0.00012954365 0.19343051
-0.10863534 7.2438546e-05 0.19350094
-0.10713461 0.00027398867 0.1935713
-0.10563727 0.00047506206 0.19364148
-0.10414331 0.00067573314 0.19371149
-0.10265268 0.00087591261 0.19378126
-0.10116538 0.0010756451 0.19385099
-0.099681422 0.0012749305 0.19392052
-0.098200791 0.0014737692 0.19398996
-0.096723527 0.0016721906 0.19405916
-0.095249504 0.0018701352 0.19412816
-0.093778767 0.0020676628 0.19419709
-0.0923113 0.0022647134 0.19426587
-0.090847112 0.002461347 0.19433448
-0.08938621 0.0026575483 0.19440293
-0.087928541 0.0028533328 0.19447127
-0.086474098 0.0030486553 0.1945394
-0.085022867 0.0032435458 0.19460744
-0.083574891 0.0034380339 0.19467524
-0.082130104 0.0036320898 0.19474289
-0.080688499 0.003825699 0.19481039
-0.07925006 0.0040188762 0.1948778
-0.07781484 0.0042116358 0.19494501
-0.076382764 0.0044039786 0.19501212
-0.074953787 0.0045958892 0.19507915
-0.073528007 0.0047873976 0.19514585
-0.072105341 0.0049784589 0.19521251
-0.070685804 0.0051691476 0.195279
-0.069269337 0.0053593749 0.19534537
-0.067855991 0.0055491999 0.19541159
-0.066445746 0.0057386076 0.19547763
-0.065038554 0.0059275832 0.19554359
-0.063634425 0.0061161714 0.19560936
-0.0622334 0.0063043572 0.19567499
-0.060835414 0.0064921263 0.19574046
-0.059440404 0.0066794632 0.19580582
-0.058048476 0.0068664122 0.19587103
-0.056659561 0.0070529594 0.19593608
-0.055273611 0.0072390744 0.19600108
-0.053890701 0.0074248319 0.19606581
-0.052510783 0.0076101571 0.19613048
-0.051133864 0.0077951252 0.19619492
-0.04975985 0.0079796314 0.19625926
-0.048388839 0.008163779 0.19632348
-0.047020778 0.0083475253 0.19638759
-0.045655608 0.0085308403 0.1964516
-0.044293441 0.0087138116 0.19651541
-0.042934164 0.0088963807 0.1965791
-0.041577816 0.0090785623 0.19664255
-0.040224344 0.0092603276 0.19670603
-0.038873769 0.0094417194 0.19676933
-0.037526093 0.0096227387 0.19683242
-0.036181279 0.0098033259 0.19689542
-0.034839332 0.0099835563 0.19695827
-0.033500269 0.010163429 0.19702098
-0.032164041 0.010342899 0.19708356
-0.030830599 0.010521951 0.19714612
-0.029500052 0.010700663 0.19720843
-0.028172294 0.010879015 0.19727063
-0.026847363 0.01105695 0.19733271
-0.025525235 0.011234514 0.19739464
-0.024205923 0.011411734 0.19745639
-0.022889366 0.011588552 0.19751808
-0.021575568 0.011764984 0.19757962
-0.020264573 0.011941087 0.19764104
-0.018956332 0.012116788 0.19770235
-0.017650804 0.012292086 0.19776347
-0.01634806 0.012467086 0.19782454
-0.015048031 0.012641685 0.19788542
-0.013750742 0.01281594 0.19794619
-0.012456135 0.012989794 0.1980069
-0.011164271 0.013163305 0.19806737
-0.0098751038 0.013336472 0.19812778
-0.0085885739 0.013509224 0.19818804
-0.0073047858 0.013681676 0.19824818
-0.0060236501 0.013853728 0.19830823
-0.0047451966 0.014025465 0.19836798
-0.0034693505 0.014196771 0.19842783
-0.0021962165 0.014367793 0.19848743
-0.00092567533 0.014538428 0.19854704
0.00030746544 0.014745914 0.19855547
0.001450115 0.015048201 0.1984337
0.0025917215 0.01535022 0.19831207
0.0037323146 0.015651969 0.1981906
0.0048718951 0.015953409 0.19806921
0.006010402 0.016254593 0.19794789
0.0071479101 0.016555538 0.19782668
0.0082844058 0.016856171 0.19770563
0.0094198287 0.017156553 0.19758463
0.010554238 0.017456664 0.19746375
0.011687634 0.017756505 0.19734305
0.012820031 0.018056065 0.19722238
0.013951386 0.018355388 0.19710183
0.015081728 0.018654382 0.1969814
0.016211055 0.018953152 0.19686109
0.017339356 0.019251656 0.19674087
0.018466642 0.019549875 0.19662076
0.01959293 0.019847795 0.19650084
0.020718191 0.020145509 0.19638088
0.021842422 0.020442938 0.19626117
0.022965701 0.020740056 0.19614151
0.024087936 0.021036934 0.19602194
0.025209144 0.021333572 0.1959025
0.026329398 0.021629915 0.19578314
0.027448608 0.021925988 0.19566393
0.028566835 0.022221839 0.19554475
0.029684048 0.022517376 0.19542575
0.030800249 0.022812691 0.19530675
0.031915449 0.02310775 0.19518793
0.033029638 0.023402559 0.19506922
0.034142874 0.023697067 0.19495055
0.035255097 0.023991309 0.19483206
0.036366321 0.024285326 0.19471362
0.037476528 0.024579076 0.19459522
0.038585775 0.024872556 0.19447702
0.03969403 0.02516577 0.19435897
0.04080129 0.025458714 0.19424093
0.041907564 0.025751391 0.19412306
0.043012876 0.026043843 0.19400525
0.044117168 0.026336014 0.19388756
0.045220509 0.026627932 0.19376999
0.046322837 0.026919579 0.19365254
0.047424212 0.027211005 0.19353512
0.0485246 0.027502101 0.19341785
0.049624011 0.02779299 0.19330069
0.050722446 0.028083611 0.19318363
0.051819902 0.028373992 0.19306666
0.052916389 0.028664092 0.19294986
0.054011937 0.028953901 0.19283307
0.055106468 0.029243514 0.19271642
0.056200039 0.029532839 0.19259989
0.057292663 0.029821917 0.19248345
0.058384292 0.030110735 0.19236714
0.059474967 0.030399306 0.19225088
0.060564689 0.030687595 0.19213477
0.061653439 0.03097566 0.19201869
0.062657706 0.031399354 0.19172564
0.063520469 0.032055728 0.19112951
0.064385079 0.032713532 0.19053206
0.065251522 0.033372726 0.18993336
0.066119857 0.034033321 0.18933338
0.06699004 0.034695338 0.18873212
0.067862108 0.035358772 0.18812954
0.068736024 0.03602368 0.18752563
0.069611855 0.036689974 0.18692052
0.070489563 0.037357751 0.18631405
0.071369156 0.038026929 0.18570629
0.072250657 0.038697582 0.1850971
0.073134102 0.039369661 0.18448678
0.074019402 0.04004322 0.18387502
0.074906655 0.040718216 0.18326193
0.075795837 0.041394681 0.18264762
0.076686956 0.04207265 0.18203181
0.07758002 0.042752072 0.18141475
0.078474991 0.043432973 0.18079636
0.079371952 0.044115342 0.18017659
0.080270864 0.044799242 0.17955542
0.081171721 0.045484595 0.17893296
0.08207456 0.046171483 0.17830917
0.082979389 0.046859849 0.17768398
0.083886191 0.047549769 0.1770573
0.084794998 0.04824115 0.17642942
0.085705899 0.048933856 0.17580035
0.086618796 0.049628109 0.17516991
0.087533697 0.050323859 0.17453811
0.088450633 0.05102114 0.1739049
0.089369603 0.05171996 0.17327026
0.090290591 0.052420311 0.1726343
0.091213591 0.053122245 0.1719968
0.09213867 0.053825721 0.17135802
0.093065776 0.054530744 0.17071781
0.093994945 0.055237334 0.17007607
0.094926164 0.055945508 0.16943297
0.095859468 0.056655258 0.16878846
0.096794873 0.057366565 0.1681425
0.097732343 0.058079448 0.1674951
0.098671861 0.058793955 0.16684633
0.099613525 0.059510048 0.16619602
0.10055728 0.060227733 0.16554427
0.10150319 0.060947031 0.16489109
0.10245116 0.061667912 0.16423637
0.10340124 0.062390476 0.16358018
0.10435351 0.063114636 0.16292259
0.10530791 0.063840397 0.16226357
0.10626446 0.064567797 0.16160303
0.10722314 0.065296829 0.16094092
0.108184 0.066027537 0.16027734
0.10914703 0.066759899 0.1596123
0.11011221 0.067493908 0.1589458
0.11107961 0.068229549 0.15827772
-0.14911473 -0.0072726449 0.19189161
-0.1475246 -0.0070568812 0.19196579
-0.14593817 -0.0068415939 0.19203976
-0.14435539 -0.0066268435 0.19211358
-0.14277624 -0.0064125843 0.19218728
-0.14120077 -0.006198802 0.19226077
-0.13962889 -0.0059855408 0.19233409
-0.13806069 -0.0057727271 0.19240719
-0.13649604 -0.0055604349 0.19248024
-0.13493502 -0.0053486191 0.19255304
-0.13337754 -0.005137295 0.1926257
-0.13182366 -0.0049264478 0.19269821
-0.1302733 -0.0047160923 0.19277054
-0.12872657 -0.0045061838 0.19284269
-0.12718332 -0.0042967815 0.19291463
-0.12564355 -0.0040878858 0.19298646
-0.12410731 -0.0038794375 0.19305813
-0.12257455 -0.0036714505 0.19312966
-0.12104535 -0.0034639258 0.19320098
-0.11951957 -0.0032569075 0.19327217
-0.11799725 -0.0030503513 0.19334319
-0.11647835 -0.0028442715 0.19341403
-0.11496292 -0.0026386539 0.19348475
-0.11345095 -0.0024334532 0.19355521
-0.11194236 -0.0022287741 0.1936256
-0.11043715 -0.0020245267 0.19369584
-0.10893534 -0.0018207565 0.19376594
-0.10743691 -0.0016174479 0.19383579
-0.10594185 -0.0014145864 0.19390553
-0.10445017 -0.0012121719 0.19397515
-0.10296182 -0.0010102192 0.1940445
-0.10147679 -0.00080871349 0.19411382
-0.099995069 -0.00060768449 0.19418293
-0.098516688 -0.00040708759 0.19425187
-0.097041629 -0.00020690785 0.19432071
-0.095569827 -7.204857e-06 0.19438934
-0.09410128 0.00019205116 0.19445786
-0.092636071 0.00039089003 0.1945262
-0.091174074 0.00058928196 0.19459438
-0.089715332 0.00078722683 0.19466248
-0.088259846 0.00098472473 0.19473028
-0.086807586 0.0011818205 0.19479799
-0.085358493 0.0013784246 0.19486561
-0.083912648 0.0015746412 0.19493303
-0.082469992 0.0017704109 0.19500035
-0.081030518 0.0019657635 0.19506744
-0.07959415 0.0021606393 0.19513446
-0.078161031 0.0023551276 0.19520125
-0.076731011 0.0025491691 0.19526798
-0.075304121 0.0027427785 0.19533455
-0.073880389 0.0029360005 0.19540089
-0.07245978 0.0031287756 0.19546717
-0.071042277 0.0033211333 0.19553325
-0.069627844 0.0035130745 0.1955992
-0.068216518 0.0037045681 0.19566503
-0.066808291 0.0038956744 0.19573072
-0.065403081 0.0040863487 0.19579631
-0.064000987 0.0042766207 0.19586164
-0.062601924 0.0044664755 0.19592693
-0.061205894 0.0046559139 0.19599196
-0.059812859 0.0048449342 0.19605696
-0.058422893 0.0050335522 0.19612178
-0.057035916 0.0052217832 0.19618648
-0.055651918 0.0054095672 0.19625103
-0.054270949 0.0055969642 0.19631538
-0.052892927 0.0057839733 0.19637969
-0.051517908 0.0059705651 0.1964438
-0.050145801 0.0061567398 0.19650778
-0.048776675 0.0063425428 0.19657165
-0.047410484 0.0065279128 0.1966354
-0.046047252 0.0067129256 0.19669893
-0.044686902 0.0068975068 0.19676238
-0.043329488 0.0070817145 0.19682565
-0.041974965 0.0072655207 0.19688883
-0.040623315 0.0074489247 0.19695193
-0.039274603 0.0076319408 0.19701481
-0.037928738 0.0078145843 0.19707754
-0.036585756 0.0079968264 0.19714016
-0.035245597 0.0081786662 0.19720274
-0.033908315 0.0083601475 0.19726506
-0.032573871 0.0085412413 0.19732726
-0.03124222 0.0087219197 0.19738936
-0.029913424 0.0089022238 0.19745141
-0.028587436 0.0090821711 0.19751322
-0.027264293 0.0092617469 0.19757482
-0.025943864 0.0094409185 0.19763646
-0.024626281 0.0096197035 0.19769788
-0.023311455 0.0097981161 0.1977593
-0.021999385 0.0099761719 0.19782045
-0.020690085 0.010153839 0.19788152
-0.019383544 0.010331134 0.19794244
-0.018079758 0.010508073 0.19800317
-0.016778657 0.010684608 0.19806394
-0.015480309 0.0108608 0.1981245
-0.014184675 0.011036635 0.19818488
-0.012891752 0.011212054 0.1982452
-0.011601527 0.011387144 0.19830537
-0.010313999 0.011561861 0.19836542
-0.009029137 0.011736222 0.19842529
-0.0077469591 0.011910209 0.19848517
-0.0064674472 0.012083825 0.19854474
-0.0051905876 0.012257112 0.19860438
-0.003916366 0.012429982 0.19866377
-0.0026447966 0.01260254 0.19872314
-0.0013758944 0.012774754 0.19878221
-0.00010957018 0.012946581 0.19884127
0.0010405147 0.013239242 0.1987333
0.0021802587 0.0135415 0.1986118
0.0033189596 0.013843519 0.19849032
0.0044566174 0.014145255 0.198369
0.0055932766 0.014446707 0.19824779
0.0067288782 0.014747892 0.19812676
0.0078634657 0.015048837 0.19800568
0.0089970557 0.015349441 0.19788483
0.010129574 0.015649835 0.19776407
0.011261106 0.015949948 0.1976434
0.012391642 0.016249776 0.19752285
0.013521148 0.016549336 0.19740239
0.014649612 0.016848644 0.19728202
0.015777092 0.017147683 0.19716179
0.016903529 0.017446423 0.19704166
0.018028999 0.017744927 0.19692168
0.019153425 0.018043144 0.19680178
0.020276882 0.018341064 0.19668195
0.021399282 0.018638778 0.19656229
0.022520682 0.018936208 0.19644266
0.023641115 0.01923334 0.19632322
0.024760503 0.019530248 0.19620377
0.025878895 0.019826874 0.19608453
0.026996331 0.020123215 0.19596544
0.028112724 0.020419303 0.19584635
0.029228121 0.020715155 0.19572738
0.030342517 0.021010721 0.19560853
0.031455945 0.021306006 0.19548982
0.032568395 0.021601051 0.19537115
0.03367978 0.021895844 0.19525263
0.034790214 0.022190398 0.19513416
0.035899647 0.02248464 0.19501585
0.037008088 0.022778656 0.19489759
0.038115539 0.023072407 0.19477943
0.039222009 0.023365887 0.19466144
0.040327497 0.023659158 0.19454351
0.041431986 0.023952134 0.19442561
0.042535532 0.02424481 0.19430795
0.043638054 0.024537278 0.19419038
0.044739608 0.024829464 0.19407278
0.045840207 0.02512138 0.19395545
0.046939805 0.025413074 0.19383812
0.048038457 0.025704453 0.19372097
0.049136102 0.025995595 0.19360384
0.050232798 0.0262865 0.19348687
0.051328525 0.026577134 0.19337001
0.052423269 0.026867531 0.19325316
0.053517025 0.027157675 0.19313651
0.054609865 0.027447522 0.19301993
0.055701684 0.027737128 0.19290349
0.056792583 0.028026482 0.19278717
0.057882499 0.028315583 0.19267088
0.058971446 0.028604444 0.19255471
0.060059424 0.028893031 0.1924386
0.061146464 0.029181343 0.19232264
0.062232561 0.029469438 0.19220677
0.063317664 0.029757272 0.19209105
0.064401835 0.030044837 0.19197541
0.065485038 0.030332172 0.19185987
0.066567309 0.030619204 0.19174445
0.067648612 0.030906033 0.19162911
0.068585038 0.031436443 0.19119546
0.069450691 0.032090243 0.19060117
0.07031817 0.032745458 0.19000548
0.071187526 0.033402044 0.18940863
0.072058722 0.034060046 0.1888105
0.072931796 0.034719467 0.18821105
0.073806718 0.035380296 0.18761033
0.074683532 0.036042541 0.18700835
0.075562224 0.036706198 0.18640503
0.076442815 0.037371293 0.18580043
0.077325299 0.038037796 0.18519452
0.078209668 0.038705766 0.18458739
0.079095975 0.03937516 0.18397886
0.079984143 0.040046044 0.18336898
0.080874279 0.040718302 0.18275791
0.081766307 0.041392054 0.18214542
0.08266028 0.04206726 0.18153164
0.08355622 0.042743888 0.18091655
0.08445406 0.043422073 0.18030006
0.085353859 0.044101674 0.17968225
0.086255632 0.044782761 0.17906311
0.087159365 0.045465317 0.17844263
0.088065065 0.046149388 0.17782083
0.08897274 0.046834938 0.17719764
0.089882486 0.047521811 0.17657331
0.090794235 0.048210122 0.1759477
0.091707967 0.04889996 0.17532066
0.092623718 0.049591299 0.17469227
0.093541458 0.050284158 0.17406255
0.094461218 0.05097859 0.17343134
0.095383003 0.051674478 0.1727989
0.096306831 0.052371923 0.17216495
0.097232684 0.053070892 0.17152965
0.098160543 0.05377144 0.17089286
0.099090479 0.054473475 0.17025477
0.10002249 0.0551771 0.1696153
0.10095654 0.055882264 0.16897434
0.10189267 0.056589019 0.16833189
0.10283086 0.05729733 0.16768819
0.10377114 0.058007181 0.16704297
0.10471348 0.058718652 0.16639629
0.10565796 0.059431661 0.16574815
0.10660449 0.060146295 0.16509864
0.10755318 0.0608625 0.1644477
0.10850399 0.061580304 0.16379523
0.10945688 0.062299706 0.16314137
0.11041193 0.063020736 0.16248605
0.11136911 0.06374339 0.16182914
0.11232845 0.064467624 0.1611709
0.11328993 0.065193526 0.16051117
0.11425353 0.065921031 0.15984991
0.11521935 0.066650197 0.15918714
0.11618735 0.067380987 0.15852287
-0.14776237 -0.0089885211 0.19224072
-0.14617853 -0.0087713869 0.19231415
-0.14459834 -0.0085547883 0.19238758
-0.14302176 -0.0083386814 0.19246081
-0.14144884 -0.0081230812 0.19253385
-0.13987949 -0.0079079866 0.19260672
-0.13831381 -0.0076933554 0.19267938
-0.13675174 -0.0074792155 0.19275194
-0.13519318 -0.0072656111 0.19282433
-0.13363819 -0.0070524695 0.19289657
-0.13208678 -0.0068398193 0.19296864
-0.13053896 -0.006627616 0.19304046
-0.12899461 -0.0064159194 0.19311222
-0.12745379 -0.0062047434 0.19318375
-0.12591651 -0.0059940154 0.19325519
-0.12438267 -0.0057837637 0.19332635
-0.12285241 -0.005573974 0.1933974
-0.12132552 -0.0053646909 0.19346836
-0.11980212 -0.0051558698 0.19353908
-0.11828218 -0.0049475399 0.19360965
-0.11676565 -0.0047396868 0.19368008
-0.1152526 -0.0045322664 0.19375038
-0.11374296 -0.004325307 0.19382045
-0.11223669 -0.0041188551 0.19389045
-0.11073381 -0.0039128494 0.19396022
-0.1092343 -0.0037073055 0.19402984
-0.10773816 -0.0035022239 0.19409937
-0.10624541 -0.0032976042 0.19416866
-0.10475598 -0.0030934461 0.1942378
-0.10326986 -0.0028897501 0.19430688
-0.10178715 -0.0026864561 0.19437572
-0.10030768 -0.0024836836 0.19444436
-0.098831527 -0.0022813284 0.19451293
-0.097358689 -0.0020794051 0.19458127
-0.095889129 -0.0018779588 0.19464949
-0.094422802 -0.0016769592 0.19471762
-0.092959754 -0.0014763919 0.19478551
-0.091499984 -0.0012762715 0.19485331
-0.090043381 -0.001076613 0.19492096
-0.088590026 -0.00087737147 0.1949884
-0.087139934 -0.00067857705 0.19505578
-0.085693009 -0.00048022956 0.1951229
-0.084249265 -0.00028232904 0.19518995
-0.082808696 -8.4845684e-05 0.1952568
-0.081371322 0.00011220561 0.1953235
-0.079937071 0.00030880995 0.19539008
-0.078506008 0.00050498219 0.19545656
-0.077078082 0.00070072239 0.19552287
-0.075653307 0.00089606032 0.19558904
-0.07423158 0.0010909364 0.19565505
-0.072813049 0.0012853954 0.19572088
-0.071397543 0.0014794371 0.19578665
-0.069985159 0.0016730467 0.19585222
-0.068575829 0.0018662392 0.19591767
-0.067169607 0.0020590145 0.19598293
-0.065766431 0.0022513876 0.19604805
-0.064366281 0.0024432987 0.19611305
-0.062969208 0.0026348375 0.1961779
-0.061575133 0.0028259442 0.1962426
-0.06018405 0.0030166041 0.19630724
-0.058796044 0.0032069061 0.19637161
-0.057411011 0.003396776 0.19643593
-0.056028958 0.0035862292 0.19650015
-0.054649882 0.0037752648 0.19656417
-0.053273786 0.0039638984 0.19662803
-0.051900666 0.0041521592 0.19669184
-0.050530422 0.0043399734 0.19675544
-0.049163189 0.0045274002 0.19681892
-0.047798913 0.0047144392 0.19688222
-0.046437543 0.0049010613 0.1969454
-0.045079041 0.0050872816 0.19700855
-0.043723468 0.0052731289 0.19707146
-0.0423708 0.005458544 0.19713426
-0.041020986 0.0056435573 0.19719693
-0.03967407 0.0058282125 0.19725946
-0.038330045 0.0060124658 0.19732186
-0.036988866 0.0061963168 0.19738409
-0.035650481 0.0063797655 0.19744626
-0.034314994 0.0065628719 0.19750825
-0.032982338 0.0067455457 0.19757017
-0.031652458 0.0069278325 0.1976319
-0.030325439 0.0071097612 0.1976935
-0.029001223 0.007291303 0.19775495
-0.027679795 0.0074724569 0.19781631
-0.02636111 0.0076531945 0.19787759
-0.025045253 0.0078336038 0.19793865
-0.023732141 0.0080136107 0.19799963
-0.022421798 0.0081932312 0.19806048
-0.021114198 0.0083724773 0.19812116
-0.019809356 0.0085513676 0.19818178
-0.018507255 0.0087298704 0.19824222
-0.017207835 0.00890797 0.19830254
-0.015911173 0.0090857269 0.19836274
-0.014617207 0.0092631122 0.19842285
-0.013325969 0.0094401538 0.19848269
-0.012037352 0.0096167792 0.19854254
-0.010751478 0.009793032 0.19860226
-0.0094682556 0.0099689569 0.19866189
-0.008187701 0.010144494 0.19872135
-0.0069097835 0.010319674 0.19878063
-0.0056345635 0.010494496 0.19883981
-0.0043619662 0.01066896 0.19889888
-0.0030919609 0.010843024 0.19895798
-0.0018246234 0.011016758 0.19901675
-0.00055992336 0.011190136 0.19907543
0.0006324196 0.011436841 0.19903186
0.0017702561 0.011739396 0.19891033
0.0029070796 0.012041654 0.19878906
0.0040428597 0.012343657 0.19866779
0.0051776269 0.012645394 0.19854668
0.0063113803 0.012946816 0.19842559
0.007444106 0.013248 0.19830471
0.0085757887 0.013548932 0.19818386
0.0097064869 0.013849535 0.19806328
0.010836159 0.014149914 0.1979427
0.011964802 0.014450042 0.19782215
0.013092445 0.01474987 0.19770181
0.014219106 0.015049401 0.19758159
0.015344709 0.015348708 0.19746146
0.016469315 0.015647747 0.19734138
0.017592935 0.015946487 0.19722143
0.018715529 0.016244976 0.19710159
0.019837122 0.016543224 0.19698182
0.020957703 0.016841145 0.19686228
0.022077302 0.017138844 0.19674277
0.023195885 0.017436258 0.19662338
0.024313487 0.017733406 0.19650412
0.025430044 0.018030329 0.19638488
0.026545634 0.018326955 0.19626576
0.027660239 0.018623311 0.19614688
0.02877385 0.018919399 0.19602796
0.029886473 0.019215234 0.19590926
0.03099807 0.019510787 0.19579059
0.032108709 0.0198061 0.19567204
0.033218339 0.020101162 0.1955536
0.034326985 0.020395938 0.19543529
0.035434648 0.020690478 0.19531697
0.036541309 0.020984748 0.19519886
0.037646975 0.021278767 0.19508073
0.038751673 0.021572515 0.19496283
0.039855402 0.021866027 0.19484499
0.040958118 0.022159286 0.19472721
0.04205988 0.022452245 0.19460958
0.043160658 0.022744952 0.19449207
0.044260465 0.023037421 0.19437462
0.04535931 0.023329619 0.19425732
0.046457149 0.023621537 0.19414008
0.047554038 0.023913244 0.19402292
0.048649959 0.024204655 0.19390595
0.049744911 0.024495812 0.19378904
0.050838877 0.024786746 0.19367221
0.051931895 0.025077395 0.19355553
0.053023923 0.025367808 0.19343889
0.054115001 0.025657952 0.19332239
0.05520514 0.025947811 0.19320598
0.056294281 0.026237464 0.19308972
0.057382479 0.026526818 0.19297349
0.058469716 0.026815934 0.19285741
0.059555992 0.02710481 0.19274142
0.060641337 0.027393419 0.19262561
0.061725706 0.027681753 0.19250986
0.06280911 0.027969863 0.19239408
0.063891575 0.028257713 0.1922785
0.064973086 0.0285453 0.19216308
0.066053659 0.028832665 0.19204763
0.067133263 0.029119724 0.19193244
0.068211928 0.029406575 0.19181719
0.06928964 0.029693151 0.19170213
0.070366405 0.029979503 0.19158721
0.071442224 0.030265579 0.19147235
0.072517127 0.030551415 0.19135749
0.073591083 0.030836992 0.1912429
0.074465491 0.031473227 0.19066945
0.075333938 0.032124478 0.19007689
0.076204255 0.032777112 0.18948311
0.077076413 0.033431146 0.18888804
0.077950411 0.034086589 0.18829167
0.078826278 0.034743387 0.1876941
0.079704024 0.035401631 0.18709525
0.080583639 0.03606125 0.18649513
0.081465155 0.036722261 0.18589371
0.082348526 0.03738473 0.1852909
0.083233796 0.038048591 0.1846869
0.084120966 0.038713921 0.18408155
0.085010052 0.039380614 0.18347502
0.085901059 0.040048804 0.18286705
0.086793967 0.040718365 0.18225786
0.087688789 0.041389417 0.18164724
0.08858557 0.042061884 0.18103546
0.089484267 0.042735834 0.18042231
0.090384901 0.043411244 0.17980775
0.091287494 0.044088066 0.17919198
0.092192054 0.044766415 0.17857477
0.093098566 0.04544618 0.17795634
0.09400709 0.046127334 0.17733663
0.09491764 0.046809826 0.17671576
0.09583018 0.04749386 0.17609346
0.096744709 0.048179332 0.17546985
0.097661182 0.048866369 0.17484489
0.098579697 0.049554851 0.17421857
0.099500217 0.050244875 0.17359084
0.10042273 0.050936364 0.17296171
0.10134726 0.051629391 0.17233124
0.10227381 0.052323919 0.17169943
0.10320243 0.053019989 0.17106622
0.10413308 0.053717569 0.17043161
0.10506576 0.054416686 0.1697956
0.10600047 0.05511738 0.16915816
0.10693727 0.055819575 0.16851941
0.10787613 0.056523331 0.16787916
0.10881705 0.057228625 0.16723755
0.10976006 0.057935514 0.16659445
0.11070517 0.058643933 0.16595003
0.11165233 0.059353925 0.16530409
0.11260164 0.060065486 0.16465679
0.11355305 0.060778644 0.16400799
0.11450652 0.061493382 0.16335776
0.11546219 0.062209729 0.16270614
0.11641993 0.062927648 0.16205302
0.11737982 0.063647166 0.16139841
0.11834185 0.064368308 0.1607424
0.11930606 0.065091051 0.16008496
0.12027238 0.065815382 0.15942591
0.12124091 0.066541366 0.15876552
0.12221159 0.067268953 0.15810362
-0.14799935 -0.010913159 0.19251448
-0.14641809 -0.010694221 0.19258758
-0.14484045 -0.010475804 0.19266057
-0.14326641 -0.010257879 0.19273338
-0.14169601 -0.010040461 0.19280595
-0.14012928 -0.0098235197 0.19287834
-0.13856608 -0.009607085 0.19295067
-0.13700645 -0.0093911719 0.19302276
-0.13545042 -0.0091757197 0.1930947
-0.13389796 -0.00896079 0.19316643
-0.132349 -0.0087463511 0.19323805
-0.13080363 -0.0085323453 0.19330946
-0.12926175 -0.008318875 0.1933808
-0.12772335 -0.0081058815 0.19345191
-0.12618849 -0.0078933649 0.19352287
-0.12465709 -0.0076813549 0.19359368
-0.12312918 -0.0074697919 0.19366425
-0.1216047 -0.0072587207 0.19373479
-0.12008369 -0.0070481263 0.19380513
-0.11856613 -0.0068380381 0.19387528
-0.11705197 -0.0066283974 0.19394529
-0.11554123 -0.0064192032 0.19401512
-0.11403392 -0.0062105153 0.19408473
-0.11252997 -0.0060022748 0.19415432
-0.11102943 -0.0057945112 0.19422367
-0.1095322 -0.0055872239 0.1942929
-0.10803842 -0.0053803688 0.19436198
-0.10654794 -0.0051740059 0.19443077
-0.1050608 -0.0049680895 0.19449955
-0.10357697 -0.0047626202 0.1945681
-0.10209648 -0.0045576422 0.19463655
-0.10061926 -0.0043530967 0.19470483
-0.099145316 -0.0041490127 0.19477296
-0.097674683 -0.0039453763 0.19484094
-0.096207328 -0.003742201 0.19490877
-0.094743185 -0.003539488 0.19497642
-0.093282342 -0.0033371921 0.19504392
-0.091824718 -0.0031353729 0.1951113
-0.090370297 -0.0029339707 0.19517851
-0.088919081 -0.0027330455 0.19524562
-0.08747112 -0.0025325522 0.19531253
-0.086026333 -0.0023324764 0.19537929
-0.084584676 -0.0021328919 0.19544601
-0.083146244 -0.0019337247 0.19551244
-0.081710972 -0.0017349748 0.19557878
-0.080278851 -0.001536642 0.19564497
-0.078849815 -0.0013388155 0.19571108
-0.077423953 -0.0011413916 0.19577694
-0.076001257 -0.00094436976 0.19584271
-0.074581571 -0.00074782479 0.19590831
-0.073165044 -0.00055169692 0.19597378
-0.071751602 -0.00035595646 0.19603914
-0.070341252 -0.00016067785 0.19610426
-0.068933919 3.416869e-05 0.19616935
-0.067529701 0.00022862786 0.1962342
-0.066128515 0.00042265496 0.19629899
-0.064730339 0.00061622023 0.19636363
-0.063335203 0.00080939813 0.19642812
-0.061943125 0.0010021736 0.19649246
-0.060554039 0.0011944874 0.19655666
-0.059167925 0.0013863989 0.19662079
-0.057784822 0.0015779379 0.19668463
-0.056404721 0.00176903 0.19674844
-0.055027537 0.0019596899 0.19681215
-0.053653367 0.0021499775 0.19687566
-0.052282125 0.0023398479 0.19693899
-0.050913848 0.0025293159 0.19700223
-0.049548455 0.0027183667 0.19706532
-0.048186027 0.0029070154 0.19712833
-0.046826489 0.0030952767 0.19719115
-0.045469865 0.0032830911 0.19725382
-0.044116132 0.0034705328 0.19731644
-0.04276529 0.0036575873 0.19737884
-0.041417353 0.0038442395 0.19744116
-0.04007224 0.0040304745 0.19750333
-0.038730003 0.0042163222 0.19756535
-0.03739062 0.0044018123 0.19762728
-0.036054052 0.0045868405 0.19768906
-0.034720324 0.0047715264 0.19775066
-0.033389453 0.0049558091 0.1978122
-0.032061379 0.0051397057 0.19787359
-0.030736087 0.0053231842 0.19793487
-0.029413609 0.005506305 0.19799599
-0.028093925 0.0056890692 0.19805694
-0.026776981 0.0058713704 0.19811782
-0.025462825 0.0060533299 0.19817856
-0.024151456 0.0062349313 0.19823918
-0.022842828 0.0064161303 0.19829971
-0.021536926 0.0065969271 0.19836
-0.020233782 0.006777382 0.19842026
-0.018933333 0.0069574635 0.19848037
-0.017635629 0.0071371282 0.19854036
-0.016340619 0.0073164506 0.19860023
-0.015048323 0.0074953996 0.1986599
-0.013758709 0.007673962 0.19871956
-0.012471762 0.0078521222 0.19877902
-0.011187497 0.0080299685 0.19883838
-0.0099059278 0.0082074283 0.19889769
-0.0086269835 0.0083844708 0.19895676
-0.0073507195 0.0085612154 0.19901574
-0.0060770791 0.0087375725 0.19907463
-0.004806105 0.0089135719 0.19913331
-0.0035376798 0.0090891691 0.19919196
-0.0022719367 0.0092644533 0.19925046
-0.0010088012 0.009439351 0.19930884
0.00022582954 0.0096410103 0.1993292
0.0013617738 0.0099438038 0.19920784
0.0024967047 0.010246359 0.19908661
0.0036306223 0.010548587 0.19896543
0.004763497 0.010850577 0.19884437
0.0058953729 0.011152296 0.19872347
0.0070262216 0.01145375 0.19860265
0.0081560854 0.011754889 0.19848198
0.009284907 0.012055806 0.19836134
0.01041273 0.01235644 0.19824082
0.011539525 0.012656773 0.19812045
0.012665322 0.012956886 0.19800022
0.013790105 0.013256715 0.19788
0.014913876 0.013556261 0.19775993
0.016036661 0.013855552 0.19764
0.017158421 0.014154576 0.19752014
0.01827921 0.014453317 0.19740039
0.019398956 0.014751805 0.19728076
0.020517722 0.015050025 0.1971612
0.021635486 0.015347976 0.19704178
0.022752283 0.015645659 0.19692245
0.023868036 0.015943088 0.19680324
0.024982821 0.016240235 0.19668412
0.026096592 0.016537128 0.19656515
0.02720941 0.016833739 0.1964463
0.028321199 0.01713011 0.19632745
0.029432036 0.0174262 0.19620883
0.030541843 0.017722065 0.19609022
0.031650651 0.018017633 0.19597176
0.032758527 0.018312916 0.19585341
0.033865366 0.018607978 0.1957351
0.034971271 0.018902786 0.19561693
0.036076162 0.01919728 0.19549888
0.037180085 0.019491551 0.19538102
0.038283035 0.019785536 0.19526318
0.039385006 0.020079317 0.19514537
0.040485948 0.020372828 0.19502768
0.041585937 0.020666085 0.19491011
0.042684969 0.020959046 0.19479263
0.043783024 0.021251781 0.19467539
0.044880103 0.021544235 0.19455811
0.045976218 0.02183645 0.1944409
0.047071349 0.022128396 0.19432387
0.048165511 0.022420119 0.19420689
0.049258731 0.022711545 0.19409013
0.050350975 0.023002703 0.19397339
0.051442258 0.02329365 0.19385675
0.05253258 0.023584301 0.19374025
0.053621911 0.023874728 0.19362378
0.054710321 0.024164872 0.19350743
0.055797763 0.024454761 0.19339126
0.056884252 0.024744399 0.19327512
0.057969768 0.025033798 0.19315913
0.059054337 0.025322929 0.19304323
0.060137961 0.025611805 0.19292739
0.061220638 0.025900429 0.1928117
0.06230234 0.026188815 0.19269609
0.063383117 0.026476903 0.19258055
0.06446293 0.026764782 0.19246516
0.065541781 0.027052416 0.19234982
0.066619746 0.027339771 0.19223464
0.067696705 0.027626883 0.19211954
0.068772748 0.027913742 0.1920045
0.069847859 0.028200349 0.19188967
0.070922025 0.028486693 0.19177482
0.071995214 0.028772837 0.19166014
0.073067486 0.029058682 0.19154552
0.07413885 0.029344259 0.19143105
0.075209253 0.029629605 0.19131669
0.076278716 0.029914735 0.1912024
0.077347249 0.030199604 0.19108817
0.078414857 0.030484241 0.190974
0.079430245 0.030862369 0.19073716
0.080299601 0.031509712 0.19014764
0.081170805 0.032158438 0.18955687
0.082043834 0.032808565 0.18896487
0.082918718 0.033460014 0.18837157
0.083795466 0.034112897 0.18777707
0.084674083 0.034767114 0.18718132
0.085554563 0.035422768 0.1865842
0.086436898 0.03607979 0.18598595
0.08732114 0.036738236 0.18538636
0.088207237 0.037398066 0.18478546
0.089095265 0.038059305 0.18418333
0.089985155 0.038721975 0.18357989
0.090876974 0.039386027 0.18297517
0.091770679 0.040051531 0.18236917
0.092666313 0.040718462 0.18176183
0.093563862 0.041386805 0.18115318
0.094463356 0.042056616 0.18054324
0.095364749 0.042727791 0.17993209
0.096268125 0.043400474 0.17931947
0.097173415 0.044074573 0.1787056
0.098080732 0.04475008 0.17809051
0.098990031 0.045426864 0.17747423
0.099901311 0.046105139 0.1768567
0.10081454 0.046784941 0.1762377
0.10172978 0.047466133 0.17561752
0.10264698 0.048148837 0.17499593
0.10356617 0.048833001 0.17437294
0.10448733 0.04951869 0.17374861
0.10541056 0.050205857 0.17312297
0.10633575 0.050894503 0.17249593
0.10726297 0.051584642 0.17186752
0.10819221 0.052276317 0.1712378
0.10912351 0.052969493 0.17060661
0.11005682 0.053664193 0.16997409
0.11099213 0.054360379 0.16934022
0.11192954 0.055058096 0.16870487
0.11286898 0.0557574 0.16806811
0.11381054 0.056458175 0.16743007
0.11475412 0.057160512 0.16679057
0.11569978 0.057864394 0.16614974
0.11664754 0.058569819 0.16550741
0.11759735 0.059276856 0.16486359
0.11854929 0.059985403 0.16421849
0.11950332 0.060695484 0.16357192
0.12045948 0.061407186 0.16292396
0.12141775 0.062120475 0.16227445
0.12237817 0.062835321 0.1616236
0.1233407 0.063551731 0.16097125
0.12430535 0.064269789 0.16031748
0.12527218 0.064989395 0.15966231
0.12624113 0.065710641 0.15900552
0.12721227 0.06643346 0.1583474
0.12818557 0.067157924 0.15768775
-0.14823543 -0.012830882 0.19278738
-0.14665672 -0.01261014 0.19286007
-0.14508165 -0.012389922 0.19293255
-0.14351021 -0.012170163 0.19300485
-0.14194234 -0.011950958 0.19307706
-0.1403781 -0.011732197 0.19314897
-0.13881744 -0.011513975 0.19322082
-0.13726035 -0.011296258 0.1932925
-0.13570677 -0.011079034 0.19336405
-0.13415676 -0.0108623 0.19343534
-0.13261031 -0.010646044 0.19350654
-0.13106735 -0.010430294 0.19357753
-0.12952791 -0.010215051 0.1936484
-0.12799196 -0.010000269 0.19371909
-0.12645951 -0.0097860098 0.19378963
-0.12493053 -0.0095721809 0.19386002
-0.12340502 -0.0093588745 0.19393021
-0.12188291 -0.0091460599 0.19400021
-0.12036425 -0.008933722 0.19407016
-0.1188491 -0.0087218015 0.1941399
-0.11733731 -0.0085104015 0.1942094
-0.11582889 -0.0082994942 0.19427884
-0.1143239 -0.0080890339 0.1943481
-0.11282232 -0.0078790346 0.19441715
-0.11132407 -0.007669542 0.19448608
-0.10982917 -0.0074605113 0.19455492
-0.10833763 -0.0072519132 0.19462353
-0.10684945 -0.0070438064 0.19469202
-0.10536455 -0.0068361615 0.19476035
-0.10388299 -0.0066289934 0.19482848
-0.10240473 -0.0064222421 0.19489649
-0.10092973 -0.0062159682 0.19496441
-0.099458046 -0.0060102004 0.19503215
-0.097989604 -0.0058048503 0.19509968
-0.09652444 -0.0055999612 0.19516712
-0.095062517 -0.00539552 0.19523436
-0.093603797 -0.0051915697 0.19530144
-0.092148334 -0.0049880221 0.19536847
-0.090696082 -0.0047849361 0.19543529
-0.089247026 -0.004582312 0.19550192
-0.087801166 -0.0043801204 0.19556847
-0.08635851 -0.0041783755 0.19563484
-0.084918998 -0.0039770626 0.19570106
-0.083482638 -0.0037762264 0.19576722
-0.082049459 -0.0035758221 0.19583309
-0.08061941 -0.0033758355 0.19589889
-0.079192452 -0.0031763103 0.19596463
-0.077768676 -0.0029771875 0.19603011
-0.076347999 -0.0027785117 0.19609547
-0.074930392 -0.0025802979 0.19616073
-0.073515862 -0.0023825159 0.19622582
-0.072104461 -0.0021851214 0.19629073
-0.070696115 -0.0019881737 0.19635555
-0.069290809 -0.0017916732 0.19642025
-0.067888565 -0.0015955899 0.19648471
-0.066489361 -0.0013999236 0.19654912
-0.065093182 -0.0012046746 0.19661331
-0.06370002 -0.0010098724 0.19667751
-0.062309869 -0.00081548747 0.19674146
-0.060922734 -0.00062148989 0.19680527
-0.059538551 -0.00042793929 0.19686893
-0.058157384 -0.00023480586 0.19693255
-0.056779224 -4.2059783e-05 0.19699588
-0.055403974 0.00015025423 0.19705918
-0.054031651 0.00034212126 0.19712234
-0.052662317 0.00053364568 0.19718537
-0.051295925 0.0007247082 0.19724822
-0.049932417 0.00091536844 0.19731095
-0.048571844 0.0011056263 0.19737354
-0.047214177 0.001295482 0.19743598
-0.045859408 0.0014849355 0.19749835
-0.044507492 0.0016739718 0.19756061
-0.043158513 0.0018626505 0.1976226
-0.041812357 0.0020508969 0.19768456
-0.040469054 0.0022387116 0.1977464
-0.039128628 0.0024261388 0.19780812
-0.03779104 0.0026131936 0.1978696
-0.036456294 0.0027998611 0.19793102
-0.03512435 0.0029860961 0.1979923
-0.033795226 0.0031719592 0.19805348
-0.032468911 0.0033574493 0.19811448
-0.031145381 0.0035425224 0.1981754
-0.029824654 0.0037272084 0.1982362
-0.028506683 0.0039115069 0.19829682
-0.027191499 0.0040954328 0.19835734
-0.025879072 0.0042789415 0.19841778
-0.024569415 0.0044620931 0.19847795
-0.023262471 0.0046448717 0.19853809
-0.021958267 0.004827233 0.19859815
-0.020656805 0.0050092223 0.19865802
-0.019358058 0.0051908386 0.19871777
-0.018062035 0.0053720982 0.19877741
-0.016768683 0.0055529247 0.19883695
-0.015478038 0.0057334392 0.19889626
-0.014190064 0.0059135365 0.19895557
-0.012904755 0.0060932459 0.19901469
-0.011622159 0.0062726131 0.19907376
-0.010342185 0.0064515923 0.19913265
-0.0090648942 0.0066302144 0.19919142
-0.0077902102 0.006808449 0.19925007
-0.0065181786 0.0069863405 0.1993086
-0.0052487846 0.0071638455 0.19936699
-0.0039819679 0.0073410072 0.19942534
-0.0027178193 0.0075177816 0.19948345
-0.0014562336 0.0076941987 0.19954154
-0.00019725526 0.0078702727 0.19959944
0.00095476658 0.0081547527 0.19950429
0.0020878348 0.0084575322 0.19938311
0.0032198601 0.0087600276 0.19926205
0.0043508722 0.0090622706 0.19914111
0.0054808855 0.0093642445 0.1990203
0.0066098864 0.0096659502 0.19889954
0.0077378731 0.0099673737 0.19877884
0.008864847 0.010268529 0.19865835
0.0099908067 0.010569415 0.19853795
0.01111577 0.010870033 0.19841763
0.012239734 0.011170354 0.19829744
0.013362669 0.011470451 0.19817737
0.014484607 0.01177028 0.19805732
0.015605561 0.012069809 0.19793755
0.016725516 0.012369072 0.19781771
0.017844444 0.012668111 0.19769803
