# .PCD v0.7 - Point Cloud Data file format
VERSION 0.7
FIELDS x y z
SIZE 4 4 4
TYPE F F F
COUNT 1 1 1
WIDTH 1334
HEIGHT 1
VIEWPOINT 0 0 0 1 0 0 0
POINTS 1334
DATA ascii
-0.036606744 0.082257599 0.13620394
-0.038560733 0.081036359 0.13896137
-0.040487021 0.07983242 0.14167964
-0.042386219 0.078645423 0.14435986
-0.044258907 0.077475011 0.14700249
-0.046105564 0.076320842 0.14960849
-0.047926798 0.075182579 0.15217853
-0.049723119 0.074059889 0.15471351
-0.051494971 0.072952464 0.15721393
-0.053242952 0.071859986 0.1596806
-0.054311037 0.070762806 0.16114321
-0.054947898 0.069659725 0.16196874
-0.055582061 0.068561338 0.16279081
-0.056213573 0.067467593 0.16360927
-0.056842372 0.066378482 0.16442436
-0.057468519 0.065293953 0.16523606
-0.058092073 0.064214014 0.16604427
-0.058712974 0.063138589 0.16684914
-0.059331268 0.062067673 0.16765055
-0.059946954 0.061001241 0.16844857
-0.060560122 0.059939262 0.16924337
-0.061170697 0.058881696 0.17003486
-0.061778769 0.057828549 0.17082301
-0.062384307 0.056779746 0.17160797
-0.062987313 0.055735286 0.1723896
-0.063587874 0.054695152 0.17316794
-0.064185902 0.053659301 0.17394316
-0.064781502 0.052627716 0.17471519
-0.065374658 0.051600359 0.17548406
-0.065965369 0.050577216 0.17624977
-0.066553667 0.04955826 0.17701229
-0.067139536 0.048543446 0.17777172
-0.079174191 -0.053479899 0.18494064
-0.078930244 -0.054787558 0.18444476
-0.078685448 -0.056099836 0.18394715
-0.078439742 -0.057416789 0.18344772
-0.078193188 -0.05873841 0.18294653
-0.077945769 -0.060064759 0.18244356
-0.077697456 -0.061395835 0.18193874
-0.077448249 -0.062731676 0.18143219
-0.077198163 -0.064072296 0.18092385
-0.076947138 -0.065417752 0.18041357
-0.075825751 -0.06735611 0.17855701
-0.074114472 -0.069710575 0.17578647
-0.072373509 -0.07210587 0.17296791
-0.070602089 -0.074543089 0.17010003
-0.068799376 -0.077023342 0.16718149
-0.066964537 -0.079547778 0.16421098
-0.065096408 -0.082117818 0.16118652
-0.063194364 -0.084734499 0.15810725
-0.061257526 -0.087399051 0.15497157
-0.059284866 -0.090112858 0.15177798
-0.057275474 -0.092877254 0.14852482
-0.055228233 -0.095693693 0.14521042
-0.053142101 -0.098563619 0.14183307
-0.023349151 0.091399699 0.11531517
-0.025503695 0.090046376 0.1183719
-0.027626187 0.088713221 0.12138328
-0.029717728 0.087399766 0.12435073
-0.031778574 0.0861056 0.1272746
-0.033809394 0.084830284 0.13015589
-0.035810828 0.083573446 0.1329954
-0.037783533 0.082334645 0.13579422
-0.039728031 0.081113517 0.13855305
-0.041645005 0.079909682 0.14127281
-0.043535069 0.078722775 0.14395437
-0.045398697 0.077552453 0.14659849
-0.047236517 0.076398358 0.1492058
-0.049048975 0.075260162 0.15177739
-0.050836697 0.074137524 0.15431371
-0.052600101 0.073030144 0.15681556
-0.054339692 0.07193771 0.15928367
-0.055554122 0.070845217 0.16097203
-0.0561876 0.069743246 0.16179696
-0.056818396 0.068645939 0.16261843
-0.057446539 0.067553274 0.16343638
-0.058072016 0.066465229 0.16425088
-0.058694899 0.065381765 0.16506201
-0.05931513 0.064302862 0.16586959
-0.059932768 0.063228473 0.16667393
-0.060547799 0.062158596 0.16747481
-0.061160266 0.061093174 0.16827235
-0.061770201 0.060032204 0.16906664
-0.062377602 0.058975659 0.16985753
-0.062982455 0.057923485 0.17064524
-0.063584775 0.056875668 0.17142957
-0.064184681 0.055832192 0.17221066
-0.064782053 0.054793026 0.17298859
-0.065376967 0.053758129 0.1737633
-0.065969467 0.052727487 0.17453483
-0.066559523 0.051701076 0.17530319
-0.067147121 0.050678857 0.17606837
-0.067732394 0.049660817 0.17683047
-0.080236584 -0.054480776 0.18447199
-0.0799945 -0.055790182 0.18397528
-0.079751611 -0.057104226 0.18347687
-0.079507813 -0.058422949 0.1829766
-0.079263151 -0.059746355 0.18247458
-0.079017639 -0.061074477 0.18197075
-0.078771234 -0.062407363 0.18146515
-0.078523979 -0.063744992 0.18095773
-0.07827574 -0.065087438 0.18044844
-0.077460527 -0.066819116 0.17905656
-0.075768799 -0.069161385 0.17629924
-0.074047804 -0.071544133 0.17349425
-0.072296798 -0.073968448 0.17064038
-0.070514947 -0.076435432 0.16773623
-0.068701491 -0.078946233 0.16478056
-0.066855341 -0.081502125 0.16177168
-0.064975664 -0.084104329 0.15870813
-0.063061714 -0.086753994 0.15558872
-0.061112523 -0.089452438 0.15241185
-0.059127122 -0.092201039 0.14917594
-0.057104468 -0.095001191 0.14587939
-0.055043548 -0.097854331 0.1425204
-0.024595261 0.091475487 0.11489627
-0.026739284 0.090122372 0.11795449
-0.028851345 0.088789418 0.12096715
-0.030932516 0.087476142 0.12393585
-0.032983273 0.08618214 0.12686104
-0.035004184 0.08490698 0.12974373
-0.036995888 0.083650269 0.13258478
-0.038958937 0.082411602 0.13538486
-0.040894061 0.081190601 0.13814518
-0.042801797 0.07998687 0.1408664
-0.044682667 0.07880006 0.14354935
-0.04653728 0.07762982 0.14619482
-0.048366249 0.076475799 0.14880362
-0.05016996 0.075337663 0.15137658
-0.051949069 0.074215092 0.1539143
-0.053704023 0.073107749 0.15641758
-0.05543527 0.07201536 0.15888709
-0.056794286 0.070927434 0.16080123
-0.057424411 0.069826551 0.16162559
-0.058051884 0.068730339 0.16244641
-0.05867669 0.067638755 0.16326386
-0.059298888 0.066551775 0.16407776
-0.059918463 0.065469362 0.16488826
-0.060535401 0.064391501 0.16569534
-0.061149776 0.063318163 0.16649914
-0.061761588 0.062249307 0.16729948
-0.062370822 0.061184913 0.16809651
-0.062977508 0.060124941 0.16889015
-0.063581735 0.059069388 0.1696806
-0.064183444 0.058018211 0.17046776
-0.064782605 0.056971386 0.1712516
-0.065379351 0.055928878 0.17203221
-0.065973565 0.05489067 0.17280966
-0.066565409 0.053856734 0.17358389
-0.06715478 0.052827034 0.17435491
-0.067741737 0.051801559 0.17512271
-0.068326309 0.050780278 0.17588747
-0.068908468 0.049763154 0.17664906
-0.081298977 -0.055481639 0.18400341
-0.081058785 -0.056792792 0.18350589
-0.080817744 -0.058108609 0.18300661
-0.080575854 -0.059429098 0.18250552
-0.080333099 -0.060754303 0.1820026
-0.080089465 -0.062084205 0.18149802
-0.079844981 -0.063418865 0.1809915
-0.079599634 -0.064758301 0.18048325
-0.079084873 -0.066285565 0.17955279
-0.077412471 -0.068615727 0.17680869
-0.075711221 -0.070986047 0.17401719
-0.073980406 -0.073397584 0.17117718
-0.072219223 -0.075851403 0.1682874
-0.070426911 -0.078348652 0.16534644
-0.068602443 -0.080890566 0.16235286
-0.066744864 -0.083478443 0.15930492
-0.064853579 -0.086113334 0.1562016
-0.062927529 -0.088796601 0.15304133
-0.060965836 -0.091529533 0.14982256
-0.058967516 -0.094313562 0.14654359
-0.056931466 -0.097150095 0.14320278
-0.025839999 0.091551185 0.11447787
-0.027973384 0.090198286 0.11753744
-0.030075103 0.088865519 0.12055159
-0.032145903 0.087552443 0.12352136
-0.034186631 0.08625859 0.12644804
-0.036197677 0.084983595 0.12933213
-0.038179606 0.083727032 0.13217443
-0.040133119 0.082488477 0.13497609
-0.042058825 0.081267595 0.13773775
-0.043957248 0.080063961 0.14046031
-0.045829028 0.078877255 0.14314473
-0.047674671 0.077707097 0.14579162
-0.049494773 0.076553151 0.14840186
-0.051289782 0.075415082 0.15097621
-0.053060308 0.07429257 0.15351534
-0.054806799 0.07318528 0.15602005
-0.056529775 0.072092913 0.15849099
-0.058031663 0.071009457 0.16063085
-0.058658436 0.069909684 0.16145456
-0.059282556 0.068814546 0.16227481
-0.059904039 0.067724034 0.16309166
-0.060522959 0.066638112 0.16390502
-0.061139211 0.065556765 0.16471502
-0.0617529 0.064479955 0.16552159
-0.062364027 0.063407645 0.1663247
-0.06297259 0.062339809 0.16712451
-0.063578635 0.061276432 0.16792107
-0.064182162 0.060217481 0.1687142
-0.064783156 0.059162918 0.16950405
-0.065381691 0.058112733 0.17029068
-0.065977708 0.05706688 0.17107403
-0.066571295 0.056025349 0.17185417
-0.067162469 0.054988105 0.17263108
-0.067751154 0.053955123 0.17340478
-0.06833744 0.052926362 0.17417529
-0.068921342 0.051901828 0.17494267
-0.06950286 0.050881471 0.17570698
-0.082361281 -0.056482475 0.18353477
-0.082122967 -0.057795409 0.18303639
-0.081883848 -0.059112974 0.1825363
-0.081643865 -0.060435236 0.18203434
-0.081402987 -0.061762195 0.18153068
-0.081161276 -0.063093901 0.18102524
-0.080918714 -0.064430341 0.18051791
-0.080675274 -0.06577158 0.18000883
-0.079045624 -0.068073586 0.17731488
-0.077363923 -0.07043156 0.17453685
-0.075653046 -0.072830424 0.17171055
-0.073912278 -0.075271226 0.16883492
-0.072140783 -0.077755071 0.16590858
-0.070337832 -0.080283105 0.1629301
-0.068502128 -0.082856774 0.15989766
-0.06663318 -0.085477054 0.15681034
-0.064730063 -0.088145263 0.1536665
-0.062791795 -0.090862706 0.15046468
-0.060817495 -0.093630761 0.14720324
-0.058806047 -0.096450821 0.14388049
-0.027083248 0.091626808 0.11405995
-0.029206157 0.090274118 0.11712092
-0.031297475 0.088941544 0.12013632
-0.033357948 0.08762864 0.12310737
-0.035388663 0.086334959 0.12603542
-0.037389815 0.085060112 0.12892091
-0.039362058 0.083803684 0.13176468
-0.041306034 0.08256527 0.13456765
-0.043222323 0.081344493 0.13733077
-0.045111492 0.080140978 0.14005473
-0.046974167 0.078954369 0.14274055
-0.04881084 0.0777843 0.14538884
-0.050622106 0.076630428 0.14800048
-0.052408457 0.075492412 0.15057629
-0.0541704 0.07436996 0.15311679
-0.055908427 0.073262721 0.15562296
-0.057623088 0.072170407 0.15809527
-0.05926612 0.071091302 0.16046083
-0.059889555 0.069992617 0.16128397
-0.060510412 0.068898566 0.16210368
-0.061128557 0.06780912 0.16291994
-0.061744183 0.066724271 0.16373271
-0.062357157 0.065643966 0.16454208
-0.062967613 0.064568192 0.16534805
-0.063575536 0.063496917 0.16615069
-0.064180881 0.06243011 0.16695002
-0.064783707 0.06136775 0.16774595
-0.06538403 0.060309798 0.16853854
-0.06598188 0.059256241 0.16932794
-0.066577271 0.058207043 0.17011401
-0.067170173 0.057162162 0.17089686
-0.067760631 0.056121603 0.17167646
-0.068348676 0.055085313 0.1724529
-0.068934307 0.054053281 0.17322609
-0.069517493 0.053025477 0.17399615
-0.070098326 0.052001867 0.17476302
-0.070676804 0.050982438 0.17552683
-0.083423615 -0.057483297 0.18306619
-0.083187193 -0.058797978 0.18256697
-0.082949921 -0.060117316 0.18206605
-0.082711831 -0.061441354 0.18156326
-0.082472891 -0.062770084 0.18105876
-0.082233086 -0.064103559 0.18055248
-0.081992462 -0.065441802 0.18004432
-0.0806683 -0.067534886 0.17781782
-0.079005927 -0.069880664 0.17505297
-0.077314779 -0.072266966 0.17224038
-0.075594217 -0.07469485 0.16937879
-0.07384342 -0.077165402 0.16646692
-0.072061568 -0.079679765 0.16350344
-0.070247576 -0.082239285 0.16048649
-0.068400726 -0.084845103 0.15741491
-0.066520199 -0.087498397 0.15428734
-0.064605147 -0.090200484 0.15110233
-0.062654555 -0.092952698 0.14785823
-0.060667396 -0.095756494 0.14455324
-0.028325096 0.091702342 0.11364254
-0.030437469 0.090349853 0.11670485
-0.032518491 0.089017466 0.11972168
-0.034568787 0.087704763 0.12269405
-0.03658931 0.086411253 0.12562329
-0.038580656 0.085136555 0.12851012
-0.040543213 0.083880275 0.13135538
-0.042477652 0.082641982 0.13415974
-0.044384539 0.081421316 0.13692424
-0.046264499 0.08021792 0.13964963
-0.04811807 0.079031393 0.14233685
-0.049945801 0.077861413 0.14498651
-0.051748261 0.076707616 0.14759958
-0.053525925 0.075569667 0.1501767
-0.055279329 0.074447274 0.15271875
-0.057008937 0.073340088 0.15522617
-0.058715299 0.072247818 0.15769994
-0.060398862 0.071170151 0.1601406
-0.061117887 0.070075363 0.16111374
-0.061735407 0.068982378 0.16193289
-0.062350303 0.067894012 0.16274855
-0.062962636 0.06681022 0.16356075
-0.063572407 0.065730974 0.16436961
-0.064179599 0.064656228 0.16517502
-0.064784274 0.063585997 0.16597712
-0.065386415 0.062520206 0.16677585
-0.065986082 0.061458848 0.16757128
-0.066583216 0.060401913 0.16836339
-0.067177907 0.059349339 0.16915223
-0.067770153 0.058301121 0.16993776
-0.068359926 0.057257235 0.1707201
-0.068947285 0.056217637 0.17149922
-0.069532216 0.055182315 0.17227513
-0.070114791 0.054151226 0.17304784
-0.070694923 0.053124357 0.1738174
-0.071272746 0.052101694 0.17458376
-0.084485918 -0.058484092 0.18259761
-0.084251374 -0.059800539 0.18209755
-0.084016025 -0.061121646 0.18159583
-0.083779797 -0.062447432 0.18109223
-0.083542779 -0.063777953 0.18058693
-0.083304897 -0.065113217 0.18007979
-0.082280651 -0.066999644 0.17831758
-0.080637336 -0.069333315 0.17556584
-0.078965798 -0.071707144 0.1727668
-0.077265158 -0.074122243 0.16991919
-0.075534761 -0.07657963 0.1670216
-0.073773757 -0.079080462 0.16407284
-0.071981251 -0.081625961 0.16107127
-0.070156246 -0.084217429 0.15801537
-0.068298131 -0.086855963 0.15490404
-0.066405937 -0.089542836 0.1517356
-0.0644788 -0.092279397 0.14850858
-0.062515676 -0.095067039 0.14522135
-0.060515538 -0.09790723 0.14187214
-0.029565498 0.091777772 0.11322558
-0.031667382 0.090425506 0.11628926
-0.033738047 0.089093313 0.11930746
-0.035778224 0.087780774 0.12228116
-0.037788615 0.086487465 0.12521157
-0.039770156 0.085212916 0.12809986
-0.041723043 0.083956748 0.13094643
-0.043647975 0.082718603 0.1337522
-0.045545548 0.081498072 0.13651815
-0.047416285 0.080294758 0.13924494
-0.04926075 0.079108343 0.1419335
-0.051079556 0.077938445 0.1445846
-0.052873224 0.076784715 0.14719906
-0.05464223 0.075646847 0.14977759
-0.056387126 0.074524507 0.15232101
-0.05810833 0.073417366 0.15482989
-0.059806451 0.072325125 0.15730503
-0.061481759 0.071247488 0.159747
-0.062343389 0.070157908 0.16094401
-0.0629576 0.069066018 0.16176248
-0.063569248 0.067978717 0.16257754
-0.064178318 0.066895977 0.16338918
-0.064784825 0.065817773 0.1641975
-0.065388799 0.064744078 0.16500238
-0.065990269 0.063674867 0.16580388
-0.066589266 0.062610097 0.16660208
-0.0671857 0.06154976 0.16739699
-0.06777972 0.060493823 0.16818854
-0.068371281 0.059442244 0.16897684
-0.068960354 0.058395009 0.1697619
-0.069547042 0.057352088 0.17054373
-0.070131302 0.056313455 0.17132229
-0.070713133 0.055279087 0.17209771
-0.071292639 0.054248955 0.17286998
-0.071869731 0.053223033 0.17363903
-0.085548192 -0.05948488 0.182129
-0.085315526 -0.060803059 0.18162814
-0.085082054 -0.06212594 0.18112552
-0.084847748 -0.06345351 0.18062121
-0.084612623 -0.064785793 0.18011504
-0.083882749 -0.066467792 0.17881411
-0.082258373 -0.068789437 0.17607549
-0.080606103 -0.071150959 0.17328984
-0.078925237 -0.073553368 0.17045602
-0.077215001 -0.075997725 0.16757268
-0.075474635 -0.078485116 0.16463849
-0.073703334 -0.081016734 0.16165221
-0.071899936 -0.083593994 0.1586118
-0.070063919 -0.086217903 0.15551639
-0.068194389 -0.088889703 0.15236449
-0.066290423 -0.091610745 0.14915448
-0.064350963 -0.09438242 0.14588481
-0.062375128 -0.097206131 0.14255366
-0.032895893 0.090501085 0.11587417
-0.034956291 0.089169085 0.11889371
-0.036986291 0.087856725 0.12186879
-0.038986638 0.086563565 0.12480038
-0.0409583 0.08528918 0.12769002
-0.042901546 0.084033169 0.13053796
-0.044817001 0.082795128 0.13334519
-0.046705216 0.081574723 0.13611248
-0.048566774 0.080371529 0.13884071
-0.050402209 0.079185203 0.14153063
-0.052212104 0.078015402 0.14418316
-0.05399695 0.076861747 0.14679894
-0.055757359 0.075723946 0.14937893
-0.057493702 0.074601665 0.15192366
-0.05920659 0.073494568 0.154434
-0.060896426 0.072402373 0.15691048
-0.062563643 0.071324781 0.15935391
-0.063566089 0.070240274 0.16077456
-0.064177036 0.069149449 0.16159245
-0.064785421 0.068063214 0.16240701
-0.065391228 0.066981539 0.16321811
-0.065994531 0.065904394 0.16402581
-0.066595286 0.064831719 0.16483012
-0.067193583 0.063763537 0.16563106
-0.067789331 0.062699787 0.16642874
-0.068382666 0.061640456 0.16722304
-0.068973511 0.060585525 0.16801411
-0.069561929 0.059534926 0.16880187
-0.070147902 0.058488682 0.16958642
-0.070731476 0.057446733 0.17036778
-0.071312666 0.056409065 0.1711458
-0.071891442 0.055375647 0.17192069
-0.072467864 0.054346468 0.17269248
-0.073041946 0.053321481 0.17346105
-0.086610451 -0.060485631 0.18166047
-0.086379677 -0.061805584 0.18115878
-0.086148098 -0.063130215 0.18065536
-0.08591567 -0.064459547 0.18015012
-0.08547473 -0.0659393 0.17930755
-0.083868995 -0.068249069 0.17658183
-0.082235843 -0.070598364 0.1738095
-0.080574483 -0.072988167 0.17098939
-0.078884229 -0.075419605 0.16812003
-0.077164292 -0.077893704 0.16520047
-0.075413838 -0.080411643 0.16222909
-0.073631912 -0.082974762 0.15920427
-0.071817741 -0.085584164 0.15612468
-0.069970548 -0.088241071 0.15298909
-0.06808947 -0.090946734 0.14979601
-0.066173494 -0.093702577 0.14654359
-0.064221665 -0.096509993 0.14323035
-0.034123018 0.090576537 0.11545953
-0.03617312 0.089244753 0.11848044
-0.038193002 0.087932579 0.12145689
-0.040183395 0.086639598 0.1243898
-0.042145193 0.08536537 0.12728068
-0.044078812 0.0841095 0.13012999
-0.04598476 0.082871601 0.13293853
-0.047863677 0.0816513 0.13570726
-0.049716055 0.08044821 0.13843685
-0.051542446 0.079261974 0.14112821
-0.05334346 0.078092262 0.14378208
-0.055119604 0.076938689 0.14639932
-0.05687131 0.075800955 0.14898065
-0.058599204 0.074678726 0.15152678
-0.060303688 0.073571697 0.15403849
-0.061985269 0.072479546 0.15651643
-0.063644364 0.071401976 0.15896121
-0.064785987 0.070322454 0.16060549
-0.065393642 0.069232702 0.16142288
-0.065998793 0.068147525 0.16223678
-0.066601366 0.067066908 0.16304725
-0.067201436 0.065990791 0.16385442
-0.067799047 0.064919174 0.16465825
-0.068394154 0.063851997 0.16545871
-0.068986714 0.062789276 0.16625574
-0.069576859 0.061730962 0.16704953
-0.070164636 0.060677007 0.16784015
-0.070749909 0.05962741 0.16862735
-0.071332797 0.058582142 0.16941139
-0.071913272 0.057541166 0.17019218
-0.072491378 0.056504462 0.17096975
-0.073067144 0.055471998 0.17174417
-0.07364051 0.054443758 0.17251533
-0.087672696 -0.061486371 0.18119189
-0.087443814 -0.062808082 0.18068936
-0.087214112 -0.064134471 0.18018511
-0.086983576 -0.065465599 0.17967907
-0.085469395 -0.067712143 0.17708495
-0.083855137 -0.070049301 0.17432582
-0.082213089 -0.072426662 0.17151925
-0.080542535 -0.074845269 0.16866392
-0.078842729 -0.077306226 0.16575861
-0.077112988 -0.079810575 0.16280219
-0.075352237 -0.082359679 0.15979269
-0.073559672 -0.084954724 0.15672886
-0.071734622 -0.087596834 0.15360945
-0.069876134 -0.090287298 0.150433
-0.067983314 -0.093027465 0.14719778
-0.066055208 -0.095818728 0.1439023
-0.035348713 0.090651944 0.1150454
-0.037388563 0.089320354 0.11806762
-0.039398402 0.088008359 0.12104547
-0.041378841 0.086715534 0.12397978
-0.043330729 0.085441463 0.12687173
-0.045254782 0.084185749 0.12972245
-0.047151282 0.082947984 0.13253242
-0.049020842 0.081727788 0.13530248
-0.050864041 0.080524817 0.13803342
-0.052681476 0.079338685 0.14072621
-0.054473609 0.078169048 0.14338148
-0.056240991 0.077015564 0.14600006
-0.057984158 0.07587789 0.14858282
-0.059703529 0.074755728 0.15113032
-0.061399639 0.073648743 0.1536434
-0.063072994 0.07255663 0.15612268
-0.064723983 0.071479097 0.15856886
-0.066003069 0.07040444 0.16043681
-0.066607505 0.069315761 0.16125363
-0.067209423 0.068231657 0.16206694
-0.067808777 0.067152075 0.16287693
-0.068405658 0.066077001 0.1636835
-0.069000036 0.065006413 0.16448671
-0.069591969 0.063940287 0.16528663
-0.070181429 0.062878564 0.16608319
-0.070768446 0.061821245 0.16687647
-0.071353063 0.060768295 0.16766644
-0.071935207 0.059719689 0.16845319
-0.072515041 0.058675401 0.16923666
-0.073092461 0.057635389 0.17001697
-0.073667467 0.056599639 0.17079407
-0.074240193 0.055568133 0.17156789
-0.074810535 0.054540839 0.17233863
-0.088734895 -0.062487096 0.18072334
-0.088507876 -0.063810572 0.18021998
-0.088280082 -0.065138727 0.17971492
-0.087059662 -0.067178592 0.17758492
-0.085464045 -0.069503762 0.17483881
-0.083841085 -0.071868777 0.17204568
-0.082190037 -0.074274689 0.16920424
-0.080510274 -0.076722547 0.16631329
-0.078800872 -0.079213507 0.16337138
-0.077061057 -0.081748702 0.16037717
-0.075289875 -0.084329531 0.15732896
-0.073486641 -0.086957008 0.15422559
-0.071650535 -0.089632392 0.15106562
-0.069780603 -0.092357032 0.1478475
-0.067875952 -0.095132299 0.14456952
-0.065935552 -0.097959623 0.14123011
-0.036573023 0.090727255 0.11463168
-0.038602635 0.089395851 0.11765528
-0.040602431 0.088084042 0.12063447
-0.04257296 0.086791381 0.12357017
-0.044514939 0.085517496 0.12646326
-0.046429411 0.084261902 0.12931538
-0.048316494 0.083024263 0.13212669
-0.050176814 0.081804201 0.13489813
-0.052010864 0.080601327 0.13763043
-0.053819254 0.079415292 0.14032456
-0.055602536 0.078245752 0.14298123
-0.0573612 0.07709235 0.1456013
-0.05909577 0.07595475 0.1481854
-0.060806721 0.074832648 0.15073431
-0.062494501 0.073725715 0.15324876
-0.064159602 0.072633639 0.15572938
-0.065802559 0.071556151 0.15817693
-0.067217395 0.070486248 0.16026852
-0.067818597 0.069398627 0.16108471
-0.068417266 0.06831558 0.16189751
-0.069013432 0.067237049 0.16270688
-0.069607139 0.066163018 0.16351303
-0.070198342 0.065093473 0.16431564
-0.070787117 0.064028352 0.165115
-0.071373448 0.062967651 0.16591099
-0.07195732 0.061911333 0.16670373
-0.072538838 0.060859375 0.16749316
-0.073117927 0.05981176 0.16827938
-0.073694646 0.058768436 0.16906238
-0.074268982 0.057729404 0.16984215
-0.074840993 0.056694612 0.17061871
-0.075410664 0.055664059 0.17139217
-0.089797065 -0.063487783 0.18025473
-0.089571983 -0.064813018 0.17975065
-0.088639826 -0.066648439 0.17808163
-0.087062702 -0.068961695 0.17534855
-0.085458621 -0.071314469 0.17256877
-0.0838269 -0.073707789 0.169741
-0.082166776 -0.076142736 0.16686416
-0.080477566 -0.078620374 0.16393679
-0.078758508 -0.081141837 0.16095775
-0.077008426 -0.083708525 0.15792501
-0.075226799 -0.086321488 0.15483758
-0.073412791 -0.088981956 0.15169397
-0.071565464 -0.091691226 0.14849266
-0.069683984 -0.09445066 0.1452322
-0.067767337 -0.097261637 0.14191073
-0.037795946 0.090802483 0.11421841
-0.039815336 0.089471266 0.11724347
-0.041805029 0.088159636 0.12022391
-0.043765739 0.086867169 0.12316093
-0.045698002 0.08559341 0.12605548
-0.047602788 0.084337965 0.12890872
-0.049480438 0.083100483 0.13172141
-0.051331475 0.081880525 0.13449422
-0.05315645 0.080677778 0.13722792
-0.05495587 0.079491824 0.13992348
-0.056730285 0.078322381 0.14258146
-0.058480233 0.077169046 0.14520285
-0.060206249 0.076031521 0.14778838
-0.061908722 0.074909471 0.15033862
-0.063588202 0.07380259 0.1528545
-0.065245122 0.072710566 0.1553365
-0.066879973 0.071633108 0.15778545
-0.068428934 0.070567846 0.16010061
-0.069026932 0.069481313 0.16091624
-0.069622412 0.068399325 0.1617285
-0.070215374 0.067321837 0.16253731
-0.070805863 0.066248849 0.1633428
-0.071393967 0.065180331 0.1641449
-0.071979597 0.064116225 0.16494372
-0.072562769 0.063056536 0.16573921
-0.073143557 0.062001217 0.16653135
-0.07372196 0.060950261 0.16732028
-0.074297935 0.05990361 0.16810599
-0.074871644 0.058861278 0.16888851
-0.075442895 0.057823204 0.16966775
-0.076011881 0.056789372 0.17044383
-0.076578483 0.055759765 0.1712167
-0.090859249 -0.064488471 0.17978626
-0.090210065 -0.066121623 0.17857528
-0.08865121 -0.068423063 0.17585507
-0.087065771 -0.070763715 0.17308849
-0.085453138 -0.07314457 0.17027441
-0.083812565 -0.075566679 0.16741154
-0.082143292 -0.07803113 0.16449863
-0.080444574 -0.08053904 0.16153437
-0.078715473 -0.083091691 0.15851703
-0.076955229 -0.085690275 0.15544537
-0.075163051 -0.088335961 0.15231797
-0.073338091 -0.091030002 0.14913338
-0.071479455 -0.093773752 0.14589012
-0.069586262 -0.096568577 0.14258647
-0.039017454 0.090877607 0.11380568
-0.041026667 0.089546613 0.11683199
-0.043006361 0.088235147 0.11981392
-0.044957206 0.086942852 0.12275228
-0.046879753 0.085669264 0.12564802
-0.048774838 0.084413968 0.12850249
-0.050643116 0.083176605 0.13131651
-0.05248493 0.081956781 0.13409069
-0.05430077 0.080754116 0.13682586
-0.056091234 0.079568282 0.13952264
-0.057856828 0.078398913 0.14218217
-0.059598103 0.077245668 0.14480489
-0.061315536 0.07610821 0.14739177
-0.063009605 0.074986219 0.14994338
-0.064680755 0.073879406 0.15246055
-0.066329539 0.072787419 0.154944
-0.067956343 0.071709991 0.15739435
-0.069561556 0.070646845 0.15981218
-0.070232496 0.069563814 0.16074818
-0.070824757 0.068482861 0.16155982
-0.071414545 0.067406431 0.16236809
-0.072001949 0.066334486 0.16317299
-0.072586849 0.065266982 0.16397455
-0.073169336 0.064203903 0.16477281
-0.073749393 0.06314522 0.16556779
-0.074327096 0.062090904 0.16635945
-0.074902415 0.06104093 0.1671479
-0.07547535 0.059995268 0.16793302
-0.076045945 0.058953907 0.16871497
-0.076614186 0.05791679 0.16949365
-0.077180147 0.056883931 0.17026922
-0.076901346 -0.087694354 0.15293777
-0.075098485 -0.090373322 0.14976975
-0.073262498 -0.093101531 0.14654353
-0.071392462 -0.095880345 0.14325753
-0.040237546 0.090952665 0.11339337
-0.042236626 0.089621842 0.1164211
-0.044206321 0.088310584 0.11940423
-0.046147287 0.087018445 0.12234396
-0.048060209 0.085745022 0.12524119
-0.049945638 0.084489875 0.12809676
-0.051804513 0.083252639 0.13091215
-0.053637087 0.082032926 0.1336877
-0.055443853 0.080830403 0.13642421
-0.057225376 0.07964465 0.13912243
-0.058982193 0.078475386 0.14178318
-0.060714826 0.077322215 0.14440736
-0.062423706 0.076184832 0.14699554
-0.064109325 0.075062901 0.1495485
-0.065772235 0.073956117 0.15206712
-0.067412809 0.07286419 0.15455192
-0.069031551 0.071786806 0.15700358
-0.070628896 0.070723668 0.15942284
-0.071435362 0.06964612 0.16058049
-0.07202445 0.068566218 0.16139159
-0.072611079 0.067490831 0.16219926
-0.073195279 0.066419914 0.16300359
-0.07377702 0.065353438 0.16380462
-0.074356437 0.06429138 0.1646024
-0.074933425 0.063233718 0.16539678
-0.075508028 0.062180385 0.16618791
-0.076080233 0.061131403 0.16697574
-0.076650113 0.060086723 0.16776034
-0.077217683 0.059046328 0.16854182
-0.077782914 0.058010183 0.16932002
-0.078345865 0.056978267 0.17009512
-0.094839886 -0.080304429 0.18017685
-0.094815314 -0.081502281 0.17999643
-0.094790667 -0.082702048 0.17981559
-0.094766006 -0.0839037 0.17963451
-0.094741285 -0.085107237 0.17945316
-0.094716549 -0.086312681 0.17927164
-0.094691783 -0.087520033 0.1790897
-0.094666928 -0.088729307 0.17890748
-0.094642043 -0.089940488 0.17872497
-0.094617173 -0.091153577 0.17854223
-0.094592229 -0.092368618 0.17835921
-0.094567224 -0.093585581 0.17817578
-0.094542205 -0.094804481 0.17799208
-0.094517156 -0.09602531 0.17780817
-0.094492048 -0.097248077 0.17762402
-0.094466925 -0.098472826 0.17743939
-0.094441697 -0.099699512 0.17725453
-0.094416499 -0.10092815 0.17706949
-0.094391242 -0.10215877 0.17688406
-0.094365895 -0.10339133 0.17669833
-0.094340563 -0.10462589 0.17651233
-0.094315201 -0.10586238 0.17632604
-0.094289765 -0.1071009 0.17613941
-0.094264269 -0.10834139 0.17595255
-0.094238818 -0.10958385 0.17576534
-0.094213247 -0.11082833 0.17557779
-0.094187662 -0.11207482 0.17538998
-0.094162017 -0.1133233 0.17520183
-0.094136372 -0.11457378 0.17501351
-0.094110638 -0.11582631 0.17482474
-0.094084889 -0.11708084 0.1746358
-0.094059065 -0.11833741 0.1744464
-0.094033241 -0.11959597 0.1742568
-0.093974337 -0.12089001 0.17401031
-0.093781337 -0.12232293 0.1735338
-0.043445185 0.089697003 0.11601052
-0.045404941 0.08838594 0.11899516
-0.047336131 0.087093964 0.12193626
-0.049239337 0.08582069 0.12483472
-0.051115245 0.084565692 0.1276916
-0.052964672 0.08332859 0.13050821
-0.054788023 0.082109019 0.13328505
-0.056585729 0.080906585 0.13602293
-0.058358341 0.079720967 0.13872251
-0.060106397 0.078551754 0.14138469
-0.061830297 0.077398673 0.14401022
-0.063530684 0.076261356 0.1465998
-0.065207928 0.075139493 0.14915419
-0.066862553 0.074032761 0.15167406
-0.06849499 0.072940886 0.15416026
-0.070105687 0.071863532 0.15661323
-0.071695119 0.070800439 0.15903386
-0.072635427 0.069728225 0.16041318
-0.0732214 0.068649396 0.16122365
-0.07380487 0.067575052 0.16203085
-0.074385941 0.066505164 0.16283461
-0.074964583 0.065439716 0.1636351
-0.07554087 0.064378664 0.1644322
-0.076114729 0.063321993 0.16522607
-0.076686293 0.062269673 0.1660167
-0.077255443 0.061221682 0.16680405
-0.077822298 0.060177978 0.16758814
-0.078386813 0.059138544 0.16836908
-0.078949019 0.058103364 0.16914681
-0.096078619 -0.082336769 0.17987031
-0.096055001 -0.083535925 0.17968962
-0.096031368 -0.084736973 0.17950863
-0.09600766 -0.085939914 0.17932743
-0.095983967 -0.087144762 0.17914587
-0.095960185 -0.088351503 0.17896408
-0.095936388 -0.089560151 0.17878193
-0.095912576 -0.090770721 0.17859954
-0.095888689 -0.091983199 0.17841685
-0.095864773 -0.093197629 0.17823392
-0.095840812 -0.094413958 0.17805064
-0.095816836 -0.095632225 0.17786705
-0.095792815 -0.096852437 0.17768323
-0.095768765 -0.09807457 0.17749909
-0.09574464 -0.099298663 0.17731464
-0.09572053 -0.10052469 0.17712995
-0.095696345 -0.10175273 0.17694491
-0.095672131 -0.10298267 0.1767596
-0.095647871 -0.10421459 0.17657393
-0.095623568 -0.10544848 0.17638806
-0.095599249 -0.10668433 0.17620185
-0.095574871 -0.1079222 0.17601535
-0.095550478 -0.109162 0.17582858
-0.09552601 -0.11040384 0.17564142
-0.095501512 -0.11164765 0.17545402
-0.095476985 -0.11289346 0.17526627
-0.095452458 -0.11414126 0.17507833
-0.095427826 -0.11539108 0.17488998
-0.095403165 -0.11664292 0.17470136
-0.095378488 -0.11789675 0.17451248
-0.095353767 -0.11915264 0.17432323
-0.095329002 -0.12041053 0.17413372
-0.095164433 -0.12181333 0.17370284
-0.094973534 -0.12324703 0.17322615
-0.094781965 -0.12468549 0.17274776
-0.094589785 -0.12612875 0.17226782
-0.094396919 -0.1275768 0.17178631
-0.094203457 -0.12902969 0.17130318
-0.09400931 -0.13048747 0.17081845
-0.093814552 -0.13195011 0.17033207
-0.044652417 0.089772105 0.11560056
-0.046602175 0.088461205 0.11858642
-0.04852359 0.087169409 0.12152886
-0.050417185 0.085896283 0.12442869
-0.052283585 0.084641442 0.12728691
-0.054123551 0.083404467 0.13010469
-0.055937722 0.082185015 0.13288292
-0.057726398 0.080982693 0.13562211
-0.0594901 0.079797156 0.13832307
-0.061229318 0.078628056 0.14098656
-0.062944651 0.077475049 0.14361349
-0.064636528 0.076337807 0.14620438
-0.066305384 0.07521601 0.14876017
-0.067951769 0.074109353 0.15128142
-0.069576114 0.073017493 0.15376899
-0.071178779 0.071940184 0.1562233
-0.072760284 0.07087712 0.1586453
-0.07383284 0.069810167 0.16024625
-0.074415609 0.068732388 0.16105616
-0.074995935 0.067659073 0.16186273
-0.075573891 0.06659022 0.16266596
-0.076149449 0.065525793 0.16346592
-0.076722637 0.064465746 0.1642625
-0.077293441 0.063410088 0.16505581
-0.07786192 0.062358759 0.1658459
-0.07842806 0.061311744 0.16663274
-0.07899186 0.06026902 0.16741627
-0.079553381 0.059230559 0.16819674
-0.080112606 0.058196343 0.16897392
-0.097316682 -0.084368087 0.17956388
-0.097294062 -0.085568517 0.17938304
-0.097271413 -0.086770847 0.1792019
-0.097248688 -0.087975085 0.17902043
-0.097225949 -0.089181229 0.17883873
-0.097203225 -0.090389259 0.1786567
-0.097180396 -0.091599219 0.17847437
-0.097157538 -0.092811093 0.1782918
-0.097134665 -0.094024874 0.17810893
-0.097111747 -0.095240578 0.17792574
-0.097088784 -0.096458226 0.1777423
-0.097065806 -0.097677797 0.17755851
-0.097042814 -0.098899305 0.17737445
-0.097019732 -0.10012277 0.17719015
-0.09699662 -0.10134818 0.17700556
-0.096973464 -0.10257553 0.17682061
-0.096950322 -0.10380484 0.17663538
-0.096927106 -0.10503609 0.17644987
-0.096903846 -0.10626934 0.17626405
-0.09688057 -0.10750456 0.17607796
-0.09685725 -0.10874174 0.17589155
-0.096833915 -0.10998091 0.17570478
-0.096810475 -0.11122209 0.1755178
-0.09678708 -0.11246522 0.17533046
-0.096763611 -0.11371034 0.17514294
-0.096740082 -0.11495748 0.17495495
-0.096716538 -0.11620662 0.17476678
-0.096692935 -0.11745778 0.17457825
-0.096669316 -0.11871094 0.17438942
-0.096645638 -0.11996613 0.17420024
-0.096541494 -0.12130596 0.17387122
-0.096353278 -0.12273569 0.17339578
-0.09616442 -0.12417015 0.17291877
-0.095974967 -0.1256094 0.17244017
-0.095784858 -0.12705342 0.17195997
-0.095594123 -0.12850226 0.17147821
-0.095402747 -0.12995593 0.17099485
-0.095210701 -0.13141449 0.17050982
-0.095018059 -0.13287792 0.17002314
-0.094824791 -0.13434626 0.16953492
-0.094630808 -0.13581955 0.16904494
-0.094436184 -0.13729778 0.16855338
-0.094240919 -0.13878104 0.16806012
-0.094044998 -0.14026926 0.16756529
-0.093848407 -0.14176254 0.16706872
-0.045858294 0.089847088 0.11519101
-0.047798127 0.088536374 0.11817819
-0.049709767 0.087244764 0.12112197
-0.051593706 0.085971788 0.12402317
-0.053450644 0.084717095 0.12688273
-0.055281207 0.083480254 0.12970164
-0.057086155 0.082260922 0.13248122
-0.05886583 0.081058718 0.13522178
-0.060620636 0.079873294 0.13792408
-0.062351137 0.078704268 0.14058897
-0.064057812 0.07755135 0.14321715
-0.065741181 0.07641419 0.14580941
-0.067401722 0.075292438 0.14836654
-0.069039851 0.074185818 0.15088922
-0.070656061 0.073094033 0.15337807
-0.072250754 0.072016761 0.15583378
-0.073824361 0.070953727 0.15825707
-0.075027525 0.0698919 0.16007966
-0.075607121 0.068815172 0.160889
-0.076184377 0.067742907 0.16169506
-0.076759189 0.066675082 0.16249776
-0.077331647 0.06561166 0.16329709
-0.077901751 0.064552642 0.16409317
-0.07846947 0.063497975 0.16488594
-0.079034925 0.062447641 0.16567549
-0.079598039 0.061401621 0.16646177
-0.0801588 0.060359865 0.16724488
-0.080717295 0.059322368 0.16802472
-0.098532453 -0.087600075 0.17907661
-0.098510802 -0.088803679 0.17889529
-0.098489076 -0.090009212 0.17871362
-0.09846732 -0.091216639 0.17853177
-0.09844552 -0.092425972 0.17834947
-0.098423749 -0.093637221 0.17816702
-0.098401874 -0.094850391 0.17798424
-0.09837997 -0.096065477 0.17780113
-0.098358065 -0.097282499 0.17761776
-0.09833613 -0.098501429 0.17743412
-0.098314136 -0.099722303 0.17725015
-0.098292097 -0.10094513 0.17706588
-0.098269999 -0.1021699 0.17688137
-0.09824793 -0.10339661 0.17669657
-0.098225787 -0.10462527 0.17651138
-0.098203614 -0.10585591 0.17632604
-0.098181412 -0.10708849 0.17614028
-0.098159194 -0.10832302 0.17595428
-0.098136902 -0.10955957 0.17576793
-0.098114595 -0.11079808 0.17558134
-0.098092243 -0.11203857 0.17539442
-0.098069847 -0.11328106 0.17520723
-0.098047435 -0.11452551 0.17501977
-0.098024979 -0.11577197 0.17483193
-0.098002493 -0.11702043 0.17464384
-0.097979978 -0.11827089 0.17445543
-0.097957417 -0.11952339 0.17426664
-0.09791261 -0.12080079 0.17403886
-0.09772706 -0.12222657 0.17356467
-0.0975409 -0.12365706 0.17308903
-0.097354144 -0.1250923 0.17261183
-0.097166747 -0.12653232 0.17213294
-0.096978724 -0.12797713 0.17165253
-0.096790075 -0.12942673 0.17117047
-0.096600801 -0.13088119 0.17068678
-0.096410871 -0.13234052 0.17020148
-0.096220329 -0.13380471 0.16971463
-0.096029133 -0.13527383 0.16922611
-0.09583728 -0.13674788 0.16873589
-0.095644832 -0.13822691 0.16824409
-0.095451698 -0.13971092 0.1677506
-0.095257908 -0.14119993 0.16725549
-0.095063493 -0.14269398 0.16675863
-0.094868377 -0.1441931 0.16626012
-0.09467265 -0.14569731 0.16575992
-0.094476238 -0.14720662 0.16525802
-0.09427914 -0.14872111 0.16475436
-0.094081357 -0.15024075 0.164249
-0.093882918 -0.15176558 0.16374201
-0.047062784 0.089921981 0.11478198
-0.048992679 0.088611461 0.11777043
-0.050894573 0.087320015 0.1207155
-0.052768961 0.086047202 0.12361804
-0.054616421 0.084792659 0.12647897
-0.056437626 0.083555967 0.12929916
-0.058233365 0.082336761 0.13207993
-0.060004011 0.081134669 0.13482183
-0.061749965 0.079949334 0.13752547
-0.063471749 0.078780413 0.14019176
-0.065169826 0.077627569 0.14282128
-0.066844732 0.076490477 0.14541489
-0.068496868 0.075368807 0.14797333
-0.070126817 0.074262232 0.15049735
-0.071734905 0.073170498 0.15298757
-0.073321626 0.072093263 0.15544468
-0.074887395 0.071030252 0.15786931
-0.076219529 0.069973484 0.15991348
-0.076795965 0.068897784 0.16072229
-0.077370122 0.067826554 0.16152769
-0.07794182 0.06675975 0.16232985
-0.078511223 0.065697365 0.1631287
-0.079078227 0.064639345 0.16392419
-0.079642922 0.063585684 0.16471642
-0.080205306 0.062536329 0.16550541
-0.080765352 0.061491288 0.16629124
-0.081323162 0.060450517 0.16707373
-0.099770248 -0.089630544 0.17877036
-0.09974955 -0.09083546 0.17858878
-0.099728808 -0.092042282 0.17840695
-0.099708065 -0.093251005 0.17822483
-0.099687278 -0.09446162 0.17804247
-0.099666432 -0.095674187 0.17785975
-0.099645555 -0.096888646 0.17767677
-0.099624678 -0.098104998 0.17749354
-0.099603757 -0.099323347 0.1773099
-0.099582791 -0.10054357 0.17712608
-0.099561796 -0.10176577 0.17694187
-0.099540755 -0.10298988 0.17675751
-0.0995197 -0.10421595 0.1765728
-0.099498585 -0.10544398 0.17638773
-0.099477455 -0.10667396 0.17620245
-0.099456295 -0.10790589 0.17601684
-0.099435076 -0.10913977 0.17583093
-0.099413872 -0.11037564 0.17564473
-0.099392593 -0.1116135 0.17545819
-0.099371299 -0.11285333 0.17527133
-0.099349916 -0.11409514 0.17508423
-0.099328548 -0.11533893 0.17489684
-0.09930715 -0.11658474 0.17470908
-0.099285737 -0.11783251 0.17452109
-0.099264249 -0.1190823 0.1743328
-0.099242747 -0.1203341 0.17414421
-0.099094868 -0.12171967 0.17373294
-0.09891136 -0.12314621 0.17325854
-0.098727271 -0.12457749 0.1727826
-0.098542541 -0.12601349 0.17230508
-0.09835723 -0.1274543 0.17182592
-0.098171279 -0.12889986 0.17134526
-0.097984716 -0.13035025 0.17086297
-0.097797558 -0.13180548 0.1703791
-0.097609699 -0.13326558 0.1698935
-0.097421274 -0.13473055 0.16940638
-0.097232193 -0.13620044 0.16891757
-0.097042516 -0.13767527 0.16842714
-0.096852139 -0.13915507 0.16793507
-0.09666115 -0.14063983 0.16744128
-0.096469522 -0.14212963 0.16694593
-0.096277267 -0.14362445 0.16644883
-0.096084327 -0.14512433 0.16595009
-0.095890746 -0.14662932 0.16544959
-0.095696494 -0.1481394 0.16494742
-0.095501587 -0.14965463 0.16444358
-0.095306039 -0.15117504 0.16393802
-0.095109761 -0.15270063 0.16343069
-0.094912857 -0.15423144 0.16292161
-0.094715312 -0.1557675 0.16241089
-0.094517022 -0.15730886 0.16189829
-0.094318062 -0.1588555 0.16138396
-0.094118431 -0.16040745 0.1608679
-0.09391813 -0.16196477 0.16035002
-0.093717113 -0.16352749 0.15983036
-0.048265904 0.089996815 0.11437327
-0.050185949 0.088686481 0.11736315
-0.052078053 0.087395191 0.12030953
-0.053942874 0.086122558 0.12321341
-0.055780962 0.084868163 0.12607566
-0.057592869 0.083631597 0.12889716
-0.059379354 0.082412511 0.13167909
-0.061141014 0.081210539 0.13442227
-0.062878102 0.0800253 0.13712731
-0.064591125 0.078856476 0.13979492
-0.066280693 0.077703714 0.14242578
-0.067947119 0.076566681 0.14502081
-0.069590941 0.075445071 0.14758056
-0.071212679 0.074338585 0.15010592
-0.072812676 0.073246874 0.15259746
-0.07439141 0.072169676 0.15505597
-0.075949326 0.071106702 0.15748188
-0.077408776 0.070054851 0.15974763
-0.077982172 0.06898021 0.1605559
-0.07855317 0.067910001 0.16136083
-0.079121828 0.066844232 0.16216233
-0.079688102 0.065782845 0.16296062
-0.080252081 0.064725846 0.1637556
-0.08081378 0.063673183 0.16454732
-0.081373096 0.062624827 0.1653358
-0.081930175 0.061580747 0.16612107
-0.082484946 0.060540948 0.16690299
-0.1010074 -0.091659993 0.17846426
-0.1009877 -0.092866182 0.17828253
-0.10096793 -0.094074294 0.17810047
-0.10094815 -0.095284306 0.17791817
-0.10092834 -0.096496232 0.17773557
-0.10090849 -0.097710073 0.17755267
-0.10088861 -0.098925829 0.17736951
-0.10086872 -0.10014351 0.17718604
-0.10084875 -0.10136314 0.17700225
-0.1008288 -0.10258465 0.17681816
-0.10080878 -0.10380814 0.17663383
-0.10078876 -0.10503358 0.17644927
-0.10076869 -0.10626096 0.17626429
-0.10074858 -0.10749029 0.17607901
-0.10072842 -0.10872158 0.17589349
-0.10070829 -0.1099548 0.17570773
-0.10068808 -0.11119003 0.17552161
-0.10066786 -0.1124272 0.1753352
-0.1006476 -0.11366638 0.17514846
-0.10062729 -0.11490752 0.17496151
-0.10060693 -0.11615065 0.17477417
-0.10058659 -0.11739574 0.17458653
-0.10056622 -0.11864285 0.17439863
-0.10054579 -0.11989196 0.17421043
-0.10045673 -0.12121496 0.17390037
-0.10027589 -0.12263758 0.17342731
-0.10009442 -0.12406491 0.17295268
-0.09991236 -0.12549697 0.1724765
-0.099729717 -0.12693374 0.17199871
-0.099546462 -0.12837529 0.17151934
-0.099362627 -0.12982163 0.17103839
-0.09917812 -0.13127279 0.17055583
-0.098993003 -0.13272879 0.17007166
-0.098807305 -0.13418965 0.16958588
-0.098620951 -0.1356554 0.1690985
-0.098434001 -0.13712606 0.16860941
-0.098246396 -0.13860165 0.16811869
-0.098058194 -0.14008223 0.16762635
-0.097869337 -0.14156777 0.16713235
-0.097679853 -0.14305831 0.16663671
-0.097489744 -0.1445539 0.16613942
-0.09729892 -0.14605457 0.16564032
-0.097107515 -0.14756033 0.16513962
-0.096915439 -0.14907117 0.16463724
-0.096722737 -0.15058717 0.1641331
-0.096529335 -0.15210834 0.16362724
-0.096335292 -0.15363471 0.16311967
-0.096140593 -0.1551663 0.16261038
-0.095945194 -0.15670314 0.1620993
-0.095749155 -0.15824522 0.16158652
-0.095552459 -0.15979263 0.16107199
-0.095355049 -0.16134536 0.16055557
-0.095156968 -0.16290347 0.16003749
-0.094958216 -0.16446695 0.15951759
-0.094758764 -0.16603583 0.15899587
-0.094558612 -0.16761017 0.15847236
-0.094357759 -0.16918996 0.157947
-0.09415628 -0.17077525 0.15741989
-0.093954027 -0.17236607 0.15689087
-0.093751043 -0.17396246 0.15636
-0.049467698 0.090071559 0.11396515
-0.051377878 0.088761404 0.11695629
-0.053260267 0.087470293 0.11990401
-0.055115536 0.086197823 0.12280917
-0.056944162 0.084943563 0.12567273
-0.058746874 0.083707131 0.1284956
-0.060524121 0.082488179 0.13127869
-0.062276781 0.081286326 0.13402325
-0.064005002 0.080101192 0.13672951
-0.065709352 0.078932464 0.13939849
-0.067390323 0.07777977 0.14203072
-0.069048315 0.076642819 0.14462706
-0.070683867 0.07552129 0.14718822
-0.072297379 0.074414827 0.14971489
-0.07388933 0.073323175 0.15220776
-0.075460136 0.072246015 0.15466762
-0.077010199 0.071183071 0.15709487
-0.078539997 0.070134059 0.15949041
-0.079165667 0.069062442 0.16038984
-0.07973358 0.067993268 0.16119421
-0.080299139 0.066928521 0.16199523
-0.080862433 0.065868162 0.16279295
-0.081423327 0.064812154 0.16358739
-0.081981972 0.063760482 0.16437852
-0.082538247 0.062713116 0.1651665
-0.083092347 0.061670024 0.16595119
-0.10222514 -0.094895869 0.17797634
-0.10220639 -0.096105263 0.17779416
-0.1021876 -0.097316556 0.17761165
-0.10216878 -0.098529771 0.17742884
-0.1021499 -0.099744894 0.17724577
-0.10213102 -0.10096195 0.17706236
-0.1021121 -0.10218093 0.17687872
-0.10209315 -0.10340182 0.17669478
-0.10207418 -0.1046247 0.17651045
-0.10205513 -0.10584947 0.17632595
-0.10203612 -0.10707621 0.17614111
-0.10201702 -0.10830491 0.17595595
-0.1019979 -0.10953553 0.17577055
-0.10197879 -0.11076811 0.17558485
-0.10195962 -0.11200266 0.1753988
-0.10194042 -0.11323918 0.1752125
-0.10192122 -0.11447768 0.17502588
-0.10190195 -0.11571817 0.17483896
-0.10188265 -0.11696061 0.17465183
-0.10186335 -0.11820504 0.17446432
-0.10184401 -0.11945147 0.1742765
-0.10181271 -0.12071244 0.17406714
-0.10163447 -0.12213117 0.17359537
-0.10145566 -0.12355454 0.17312208
-0.10127625 -0.12498264 0.17264709
-0.10109624 -0.12641545 0.1721707
-0.10091567 -0.12785299 0.17169267
-0.10073444 -0.12929532 0.17121303
-0.10055265 -0.13074243 0.17073184
-0.10037023 -0.13219437 0.17024896
-0.10018724 -0.13365111 0.16976458
-0.1000036 -0.13511275 0.16927856
-0.099819377 -0.13657928 0.16879088
-0.099634483 -0.13805069 0.16830158
-0.099449039 -0.13952707 0.16781059
-0.099262953 -0.14100839 0.16731802
-0.099076197 -0.14249468 0.16682371
-0.098888829 -0.14398602 0.1663278
-0.098700896 -0.14548238 0.16583022
-0.098512262 -0.1469838 0.16533098
-0.098322988 -0.14849034 0.16483
-0.098133087 -0.15000196 0.16432735
-0.097942546 -0.15151872 0.16382298
-0.097751334 -0.15304066 0.16331685
-0.097559467 -0.15456779 0.16280901
-0.097366944 -0.15610015 0.16229942
-0.097173795 -0.15763775 0.1617882
-0.096980006 -0.1591806 0.16127512
-0.096785441 -0.16072878 0.16076031
-0.09659031 -0.16228226 0.16024372
-0.096394464 -0.16384113 0.15972531
-0.096197948 -0.16540538 0.15920511
-0.096000731 -0.16697502 0.15868318
-0.095802888 -0.1685501 0.1581594
-0.0956043 -0.17013068 0.15763381
-0.095405042 -0.17171673 0.15710643
-0.095205113 -0.1733083 0.15657717
-0.095004454 -0.17490545 0.15604597
-0.094803095 -0.17650819 0.15551308
-0.094601035 -0.1781165 0.15497825
-0.094398275 -0.17973052 0.15444154
-0.094053641 -0.18153661 0.15364647
-0.05066812 0.090146214 0.1135574
-0.052568451 0.088836238 0.11654988
-0.054441154 0.087545313 0.11949891
-0.056286871 0.086272985 0.12240541
-0.058106169 0.085018873 0.12527031
-0.059899569 0.083782613 0.1280944
-0.061667681 0.082563758 0.13087875
-0.06341134 0.081362016 0.13362455
-0.06513074 0.080176994 0.13633215
-0.066826418 0.079008348 0.1390025
-0.068498835 0.077855751 0.14163607
-0.070148394 0.076718882 0.14423373
-0.071775645 0.075597391 0.14679623
-0.073381007 0.074491009 0.14932427
-0.074964881 0.07339941 0.15181845
-0.076527759 0.072322279 0.15427956
-0.07807003 0.071259364 0.15670824
-0.079592064 0.070210382 0.15910515
-0.080346525 0.069144502 0.16022432
-0.080911323 0.06807635 0.16102806
-0.081473857 0.06701263 0.16182852
-0.082034007 0.06595327 0.16262564
-0.082591936 0.064898267 0.16341949
-0.083147556 0.063847587 0.16421014
-0.083700895 0.062801212 0.16499761
-0.084251955 0.061759099 0.1657818
-0.10346201 -0.096924514 0.17767036
-0.10344423 -0.098135173 0.17748797
-0.10342637 -0.09934777 0.17730528
-0.10340855 -0.10056227 0.17712227
-0.10339065 -0.10177872 0.17693895
-0.10337277 -0.10299703 0.1767554
-0.10335484 -0.10421731 0.17657158
-0.10333686 -0.10543953 0.1763874
-0.10331887 -0.10666366 0.17620298
-0.10330087 -0.10788974 0.17601821
-0.10328282 -0.10911779 0.17583314
-0.1032647 -0.11034776 0.17564783
-0.10324664 -0.11157968 0.17546225
-0.10322849 -0.11281359 0.17527631
-0.10321032 -0.11404944 0.1750901
-0.10319211 -0.11528729 0.17490357
-0.1031739 -0.1165271 0.17471674
-0.10315563 -0.11776885 0.1745297
-0.10313737 -0.11901262 0.17434224
-0.10311908 -0.12025839 0.17415455
-0.10298724 -0.12162691 0.17376268
-0.10281099 -0.12304637 0.1732907
-0.10263425 -0.12447052 0.17281711
-0.10245687 -0.12589937 0.17234197
-0.10227887 -0.12733299 0.17186517
-0.10210033 -0.12877131 0.1713869
-0.1019212 -0.13021439 0.17090705
-0.10174148 -0.13166225 0.17042559
-0.10156111 -0.13311496 0.16994247
-0.10138018 -0.13457249 0.16945776
-0.10119864 -0.13603489 0.16897151
-0.10101654 -0.13750215 0.16848359
-0.10083373 -0.13897435 0.16799402
-0.10065039 -0.14045148 0.16750288
-0.10046643 -0.14193358 0.16700998
-0.1002818 -0.14342067 0.16651544
-0.10009657 -0.14491275 0.16601929
-0.099910766 -0.14640987 0.16552147
-0.099724248 -0.14791206 0.16502196
-0.099537164 -0.14941932 0.16452071
-0.099349394 -0.15093172 0.16401777
-0.099161059 -0.15244925 0.16351312
-0.098972023 -0.15397196 0.16300681
-0.098782346 -0.15549986 0.16249868
-0.098592028 -0.15703297 0.16198885
-0.098401085 -0.15857132 0.16147736
-0.098209426 -0.16011496 0.16096404
-0.098017156 -0.16166386 0.16044894
-0.097824201 -0.16321814 0.15993205
-0.097630605 -0.16477779 0.15941349
-0.097436309 -0.16634279 0.15889305
-0.097241372 -0.1679132 0.15837082
-0.097045764 -0.16948906 0.15784678
-0.096849456 -0.17107034 0.15732098
-0.096652478 -0.17265719 0.15679327
-0.096454814 -0.17424951 0.15626377
-0.096256465 -0.17584741 0.15573242
-0.0960574 -0.17745093 0.15519914
-0.09585765 -0.17905998 0.15466407
-0.095590413 -0.18076339 0.15400496
-0.095212981 -0.18261944 0.15314347
-0.094833553 -0.18448541 0.15227732
-0.094452068 -0.18636134 0.15140656
-0.094068587 -0.18824732 0.1505312
-0.093683034 -0.1901435 0.14965105
-0.051867202 0.090220779 0.11315021
-0.053757682 0.088910997 0.11614394
-0.05562073 0.087620229 0.11909428
-0.057456926 0.086348094 0.12200215
-0.059266835 0.085094124 0.12486827
-0.061051086 0.083857976 0.1276938
-0.062810108 0.082639277 0.13047945
-0.064544648 0.081437632 0.13322631
-0.066255316 0.080252722 0.13593534
-0.067942321 0.07908418 0.13860697
-0.06960617 0.077931657 0.14124182
-0.071247354 0.076794855 0.14384082
-0.072866306 0.075673431 0.14640468
-0.074463502 0.074567094 0.14893407
-0.076039344 0.07347554 0.15142962
-0.077594295 0.072398469 0.15389207
-0.079128757 0.071335584 0.15632206
-0.080643103 0.070286617 0.1587202
-0.08152467 0.069226354 0.16005898
-0.082086444 0.068159252 0.16086218
-0.082645938 0.067096539 0.16166213
-0.083203092 0.066038206 0.16245875
-0.083757937 0.064984202 0.16325209
-0.084310576 0.063934505 0.16404215
-0.084860906 0.062889114 0.16482908
-0.1046982 -0.098952085 0.17736453
-0.10468139 -0.10016407 0.17718196
-0.10466456 -0.10137795 0.17699906
