# .PCD v0.7 - Point Cloud Data file format
VERSION 0.7
FIELDS x y z
SIZE 4 4 4
TYPE F F F
COUNT 1 1 1
WIDTH 1331
HEIGHT 1
VIEWPOINT 0 0 0 1 0 0 0
POINTS 1331
DATA ascii
-0.13436323 -0.061909832 0.18298882
0.14770912 -0.040544119 0.18517867
0.14630553 -0.040511291 0.18529129
0.14490379 -0.04047852 0.18540376
0.14350387 -0.040445779 0.18551606
0.14210576 -0.0404131 0.18562824
0.14070944 -0.040380448 0.18574026
0.13931492 -0.040347796 0.1858522
0.13792223 -0.040315237 0.18596393
0.13653134 -0.040282704 0.18607551
0.13514222 -0.040250234 0.186187
0.13375492 -0.040217776 0.18629828
0.1323694 -0.040185392 0.18640947
0.13098566 -0.040153053 0.18652052
0.12960373 -0.040120702 0.18663135
0.12822354 -0.040088408 0.1867421
0.12684512 -0.040056158 0.18685269
0.12546849 -0.040023986 0.18696317
0.12409362 -0.039991826 0.18707347
0.12272054 -0.03995971 0.18718368
0.12134922 -0.039927658 0.18729368
0.11997964 -0.039895616 0.18740362
0.11861183 -0.039863635 0.18751338
0.11724573 -0.039831653 0.18762299
0.11588144 -0.039799761 0.18773246
0.11451886 -0.039767899 0.18784171
0.11315804 -0.03973607 0.18795097
0.11179894 -0.039704282 0.18805999
0.1104416 -0.039672568 0.18816885
0.10908595 -0.039640855 0.18827766
0.10773206 -0.039609157 0.18838632
0.10637989 -0.039577562 0.18849474
0.10502943 -0.039545942 0.18860322
0.10368069 -0.039514408 0.18871135
0.10233368 -0.039482903 0.18881944
0.10098838 -0.039451458 0.18892741
0.099644795 -0.039420042 0.18903518
0.098302893 -0.039388657 0.18914285
0.096962705 -0.039357319 0.18925038
0.095624223 -0.039326023 0.18935776
0.09428741 -0.039294712 0.18946508
0.092952311 -0.039263476 0.18957216
0.091618896 -0.039232343 0.18967915
0.090287179 -0.039201178 0.18978605
0.088957123 -0.039170079 0.18989271
0.087628759 -0.039139006 0.18999931
0.086302087 -0.039107978 0.19010577
0.084977068 -0.039076995 0.19021207
0.083653726 -0.039046027 0.19031823
0.082332037 -0.039015133 0.19042432
0.081012033 -0.038984269 0.19053018
0.079693675 -0.03895342 0.19063595
0.078376994 -0.03892263 0.19074166
0.077061951 -0.0388919 0.19084716
0.075748563 -0.03886117 0.19095254
0.074436828 -0.038830481 0.19105777
0.073126711 -0.038799826 0.19116294
0.071818262 -0.038769234 0.19126794
0.070511445 -0.038738668 0.19137272
0.069206275 -0.038708158 0.19147745
0.067902736 -0.038677681 0.19158211
0.066600829 -0.038647234 0.19168657
0.065300532 -0.038616832 0.19179082
0.064001866 -0.03858646 0.19189501
0.062704816 -0.038556073 0.19199917
0.06140938 -0.03852579 0.19210306
0.060115565 -0.038495518 0.19220692
0.058823355 -0.03846528 0.1923106
0.057532769 -0.038435102 0.19241413
0.056243774 -0.038404938 0.19251764
0.054956388 -0.038374819 0.19262093
0.053670596 -0.038344759 0.19272411
0.052386407 -0.038314667 0.19282711
0.051103804 -0.038284712 0.19293004
0.049822811 -0.038254756 0.19303277
0.048543386 -0.038224768 0.19313556
0.047265552 -0.038194921 0.19323808
0.045989297 -0.038165051 0.19334045
0.044714618 -0.038135231 0.19344276
0.043441523 -0.038105436 0.19354486
0.042170003 -0.038075719 0.19364691
0.040900048 -0.038045973 0.1937488
0.039631661 -0.03801633 0.19385058
0.038364835 -0.037986688 0.19395223
0.037099566 -0.037957057 0.19405377
0.03583587 -0.037927549 0.19415516
0.034573715 -0.037897978 0.19425648
0.033313133 -0.037868515 0.19435757
0.032054096 -0.037839048 0.19445863
0.030796582 -0.037809603 0.19455957
0.029540636 -0.037780255 0.19466034
0.028286226 -0.037750911 0.19476095
0.027033353 -0.037721593 0.19486153
0.025782011 -0.037692308 0.19496197
0.024532204 -0.037663065 0.19506222
0.023283936 -0.037633888 0.19516245
0.022037188 -0.037604719 0.19526243
0.020791972 -0.037575584 0.19536233
0.019548275 -0.037546504 0.19546214
0.018306097 -0.03751744 0.1955618
0.017065423 -0.037488408 0.1956614
0.015826264 -0.037459418 0.19576082
0.014588628 -0.037430465 0.19586012
0.013352488 -0.03740152 0.19595936
0.012117869 -0.037372664 0.19605842
0.010884746 -0.037343856 0.19615734
0.0096531091 -0.037315015 0.19625619
0.0084229903 -0.037286233 0.19635487
0.0071943491 -0.037257485 0.19645351
0.0059672091 -0.037228767 0.19655189
0.0047415523 -0.037200104 0.19665024
0.0035173742 -0.037171446 0.19674855
0.0022946934 -0.037142873 0.19684663
0.0010734919 -0.037114315 0.19694462
-0.00013846699 -0.037118245 0.19701132
-0.001286902 -0.037387021 0.19682434
-0.00243603 -0.037655942 0.19663715
-0.0035858804 -0.037925016 0.19644991
-0.004736424 -0.03819425 0.19626254
-0.0058876718 -0.038463678 0.19607502
-0.0070396233 -0.038733274 0.19588742
-0.0081922943 -0.039003 0.19569972
-0.0093456609 -0.039272893 0.19551188
-0.01049974 -0.03954298 0.19532391
-0.011654522 -0.039813273 0.1951358
-0.012810024 -0.040083673 0.19494763
-0.013966222 -0.040354233 0.19475934
-0.015123147 -0.040624961 0.1945709
-0.016280776 -0.040895883 0.1943824
-0.017439112 -0.04116695 0.19419381
-0.018598173 -0.041438185 0.19400504
-0.019757936 -0.041709594 0.19381613
-0.020918421 -0.041981157 0.19362715
-0.022079611 -0.042252898 0.19343805
-0.023241531 -0.0425248 0.19324881
-0.024404153 -0.042796884 0.1930595
-0.0255675 -0.043069113 0.19286999
-0.026731558 -0.043341525 0.19268048
-0.027896343 -0.043614116 0.19249076
-0.029061839 -0.043886852 0.19230092
-0.030228052 -0.044159785 0.19211099
-0.031394992 -0.044432864 0.191921
-0.032562647 -0.04470614 0.1917308
-0.033731025 -0.044979565 0.19154048
-0.034900118 -0.045253165 0.19135007
-0.036069941 -0.045526933 0.19115955
-0.037240498 -0.045800846 0.19096893
-0.038411766 -0.046074945 0.1907782
-0.039583758 -0.046349201 0.19058734
-0.040756479 -0.046623655 0.19039634
-0.041929934 -0.046898242 0.19020522
-0.043104101 -0.047173034 0.19001395
-0.044279005 -0.047447994 0.18982267
-0.045454636 -0.0477231 0.18963122
-0.046630986 -0.047998372 0.18943965
-0.047808073 -0.048273869 0.18924791
-0.048985895 -0.048549481 0.1890561
-0.050164446 -0.048825275 0.18886423
-0.051343724 -0.04910126 0.18867216
-0.052523736 -0.049377367 0.18847996
-0.053704467 -0.049653728 0.18828765
-0.054885946 -0.049930222 0.18809521
-0.056068163 -0.050206866 0.18790275
-0.057251107 -0.050483715 0.18771005
-0.058434792 -0.050760716 0.18751723
-0.059619203 -0.051037878 0.1873244
-0.060804367 -0.051315252 0.18713132
-0.061990261 -0.051592756 0.18693823
-0.063176893 -0.051870432 0.18674496
-0.064364254 -0.052148309 0.18655163
-0.065552369 -0.052426368 0.18635812
-0.066741228 -0.052704562 0.1861645
-0.06793081 -0.052982945 0.18597081
-0.06912113 -0.053261511 0.18577689
-0.070312202 -0.053540222 0.18558291
-0.071504042 -0.053819165 0.1853888
-0.072696581 -0.054098234 0.18519461
-0.073889911 -0.054377485 0.1850003
-0.075083949 -0.054656915 0.18480578
-0.076278754 -0.054936536 0.1846112
-0.077474296 -0.055216324 0.18441653
-0.078670599 -0.055496261 0.18422168
-0.079867624 -0.055776406 0.18402675
-0.081065416 -0.056056712 0.18383166
-0.082263954 -0.056337185 0.18363646
-0.083463244 -0.056617834 0.18344119
-0.084663272 -0.056898683 0.18324575
-0.085864067 -0.057179675 0.18305013
-0.087065622 -0.057460833 0.1828545
-0.088267915 -0.057742201 0.1826587
-0.08947096 -0.058023743 0.18246275
-0.090674765 -0.058305472 0.18226674
-0.091879323 -0.058587343 0.18207055
-0.093084626 -0.05886941 0.18187425
-0.094189249 -0.056971539 0.18373084
-0.095378853 -0.05705858 0.18371782
-0.096567854 -0.05714561 0.18370476
-0.097756289 -0.057232562 0.18369177
-0.098944157 -0.057319533 0.18367866
-0.10013141 -0.057406381 0.18366569
-0.1013181 -0.057493221 0.18365267
-0.10250421 -0.057580039 0.18363971
-0.10368974 -0.057666771 0.18362671
-0.10487467 -0.057753533 0.18361375
-0.10605904 -0.057840172 0.18360072
-0.10724282 -0.057926815 0.18358773
-0.108426 -0.058013394 0.1835748
-0.10960864 -0.058099918 0.1835618
-0.11079068 -0.058186457 0.18354884
-0.11197215 -0.058272906 0.1835359
-0.11315305 -0.058359336 0.18352291
-0.11433335 -0.058445711 0.18351004
-0.11551311 -0.05853207 0.18349701
-0.11669225 -0.058618337 0.18348411
-0.11787083 -0.058704562 0.18347123
-0.11904885 -0.058790829 0.18345824
-0.12022627 -0.05887695 0.18344545
-0.12140314 -0.058963113 0.18343249
-0.12257943 -0.059049178 0.18341956
-0.12375514 -0.059135281 0.18340662
-0.1249303 -0.059221387 0.18339369
-0.12610489 -0.059307463 0.18338069
-0.12727888 -0.059393506 0.18336764
-0.12845233 -0.059479464 0.18335474
-0.1296252 -0.059565447 0.18334177
-0.13079751 -0.059651345 0.18332878
-0.13196921 -0.059737239 0.18331578
-0.13314037 -0.059823032 0.18330288
-0.13431096 -0.059908792 0.18328995
0.14904834 -0.037547126 0.18625912
0.14765045 -0.037516396 0.18637049
0.14625435 -0.037485667 0.18648177
0.1448601 -0.037454996 0.18659288
0.14346765 -0.037424408 0.1867038
0.14207695 -0.037393842 0.18681467
0.14068809 -0.037363291 0.18692526
0.13930099 -0.037332799 0.18703586
0.13791567 -0.037302338 0.18714631
0.13653216 -0.037271935 0.18725646
0.13515036 -0.037241511 0.18736663
0.13377038 -0.037211169 0.18747661
0.13239215 -0.037180856 0.18758646
0.13101575 -0.037150618 0.1876961
0.12964106 -0.037120394 0.18780562
0.12826812 -0.037090216 0.18791506
0.12689698 -0.037060082 0.18802431
0.12552758 -0.037029967 0.18813339
0.12415989 -0.036999863 0.18824247
0.12279397 -0.036969833 0.1883513
0.12142979 -0.036939833 0.18845999
0.12006737 -0.036909893 0.18856856
0.11870668 -0.036879957 0.18867698
0.11734773 -0.036850095 0.18878528
0.1159905 -0.036820259 0.18889344
0.11463499 -0.036790453 0.18900147
0.11328122 -0.036760677 0.18910933
0.11192914 -0.03673093 0.18921712
0.11057881 -0.036701243 0.18932468
0.10923018 -0.036671583 0.18943214
0.10788327 -0.036641989 0.18953943
0.10653806 -0.036612421 0.18964663
0.10519455 -0.036582854 0.18975374
0.10385274 -0.036553361 0.18986064
0.10251264 -0.036523912 0.18996748
0.10117421 -0.036494449 0.19007415
0.099837489 -0.036465064 0.1901806
0.09850245 -0.03643572 0.19028699
0.097169101 -0.036406405 0.19039324
0.095837437 -0.036377136 0.19049942
0.094507456 -0.036347896 0.19060534
0.093179137 -0.036318667 0.1907112
0.091852508 -0.036289532 0.19081691
0.090527512 -0.03626037 0.19092247
0.089204192 -0.036231279 0.191028
0.087882563 -0.036202203 0.19113323
0.086562559 -0.036173172 0.19123849
0.085244238 -0.036144197 0.19134355
0.083927564 -0.03611527 0.19144845
0.082612537 -0.036086358 0.19155321
0.081299163 -0.036057465 0.19165784
0.079987422 -0.036028598 0.19176242
0.078677312 -0.035999786 0.19186679
0.077368863 -0.035971023 0.19197112
0.076062039 -0.035942305 0.19207525
0.074756861 -0.035913616 0.19217923
0.073453285 -0.035884958 0.19228306
0.072151363 -0.035856344 0.19238684
0.070851043 -0.03582773 0.19249046
0.06955234 -0.03579919 0.19259396
0.068255246 -0.035770617 0.19269738
0.066959776 -0.035742152 0.19280058
0.065665931 -0.035713702 0.19290367
0.064373687 -0.035685327 0.19300663
0.063083045 -0.035656951 0.19310948
0.061794002 -0.035628591 0.19321221
0.060506556 -0.035600301 0.19331485
0.059220713 -0.035572015 0.19341722
0.057936434 -0.035543744 0.19351965
0.056653772 -0.035515543 0.19362184
0.055372696 -0.03548738 0.19372392
0.054093193 -0.035459254 0.19382587
0.052815281 -0.035431147 0.19392774
0.051538952 -0.035403114 0.19402936
0.050264176 -0.035375033 0.19413102
0.048990991 -0.035347059 0.19423252
0.047719344 -0.035319053 0.19433385
0.046449292 -0.035291158 0.19443509
0.045180805 -0.035263259 0.19453612
0.043913856 -0.035235357 0.19463715
0.042648479 -0.035207532 0.19473797
0.04138466 -0.035179749 0.19483867
0.040122379 -0.035151985 0.19493929
0.038861666 -0.035124261 0.19503975
0.037602495 -0.035096575 0.19514009
0.036344852 -0.035068866 0.19524029
0.035088763 -0.035041265 0.19534039
0.0338342 -0.035013661 0.19544038
0.032581184 -0.034986105 0.19554025
0.031329706 -0.03495862 0.19563994
0.030079737 -0.034931093 0.19573957
0.028831305 -0.034903657 0.19583905
0.027584398 -0.034876201 0.19593847
0.026339002 -0.034848809 0.19603777
0.025095133 -0.034821458 0.19613686
0.023852786 -0.034794156 0.19623587
0.022611933 -0.034766849 0.19633475
0.021372605 -0.034739606 0.19643348
0.020134786 -0.034712393 0.19653219
0.018898454 -0.034685191 0.19663069
0.017663645 -0.034658052 0.19672909
0.016430315 -0.034630895 0.19682741
0.015198485 -0.034603797 0.19692552
0.013968157 -0.034576762 0.19702357
0.012739307 -0.034549695 0.19712162
0.011511952 -0.034522709 0.19721934
0.010286089 -0.03449576 0.197317
0.009061696 -0.034468781 0.19741467
0.0078387987 -0.034441937 0.19751209
0.0066173659 -0.034415066 0.19760939
0.0053974087 -0.034388237 0.19770661
0.0041789226 -0.034361422 0.1978038
0.0029619043 -0.03433466 0.19790077
0.0017463575 -0.034307934 0.19799766
0.00053227477 -0.034281209 0.19809437
-0.00064171787 -0.034415875 0.19803566
-0.0017843788 -0.034682401 0.19784987
-0.0029277327 -0.034949116 0.19766405
-0.004071787 -0.03521597 0.197478
-0.0052165301 -0.035483032 0.19729188
-0.0063619702 -0.03575027 0.19710571
-0.0075081144 -0.036017615 0.19691938
-0.0086549586 -0.036285121 0.19673288
-0.00980251 -0.036552824 0.19654635
-0.010950756 -0.036820676 0.19635969
-0.012099701 -0.037088674 0.19617298
-0.013249354 -0.03735682 0.19598609
-0.014399704 -0.037625194 0.19579908
-0.015550766 -0.037893683 0.19561192
-0.016702523 -0.038162325 0.19542471
-0.017854996 -0.038431171 0.19523731
-0.019008167 -0.038700156 0.19504994
-0.020162048 -0.038969349 0.19486234
-0.021316618 -0.039238658 0.19467458
-0.022471916 -0.039508149 0.19448683
-0.023627916 -0.039777786 0.19429889
-0.024784628 -0.040047619 0.19411087
-0.025942044 -0.040317602 0.19392276
-0.027100161 -0.04058779 0.19373441
-0.028258998 -0.040858116 0.19354603
-0.029418549 -0.041128572 0.19335753
-0.030578811 -0.041399226 0.19316897
-0.031739786 -0.041670043 0.1929802
-0.032901466 -0.041941036 0.19279134
-0.034063872 -0.042212181 0.19260234
-0.035226982 -0.042483501 0.19241327
-0.036390811 -0.042754989 0.19222412
-0.037555367 -0.043026611 0.19203481
-0.038720626 -0.043298438 0.19184539
-0.039886605 -0.043570418 0.19165581
-0.041053295 -0.043842573 0.19146612
-0.042220715 -0.044114865 0.19127643
-0.043388855 -0.044387367 0.19108647
-0.044557706 -0.044659998 0.19089651
-0.045727286 -0.044932842 0.19070637
-0.046897579 -0.045205817 0.19051608
-0.048068602 -0.045479018 0.19032574
-0.049240343 -0.045752354 0.19013521
-0.050412804 -0.046025839 0.1899446
-0.051585987 -0.046299502 0.18975395
-0.052759901 -0.046573371 0.18956304
-0.053934537 -0.046847347 0.18937212
-0.055109896 -0.047121514 0.18918109
-0.056285992 -0.047395878 0.18898991
-0.057462808 -0.04767039 0.18879852
-0.058640353 -0.047945034 0.18860716
-0.059818625 -0.048219919 0.18841556
-0.060997631 -0.048494935 0.18822393
-0.062177364 -0.048770133 0.18803215
-0.063357823 -0.049045481 0.18784028
-0.064539015 -0.049321037 0.18764824
-0.065720946 -0.049596727 0.1874561
-0.066903606 -0.049872592 0.18726385
-0.068086997 -0.050148625 0.18707147
-0.06927114 -0.050424878 0.18687898
-0.070455976 -0.050701268 0.18668631
-0.071641587 -0.050977822 0.18649358
-0.07282792 -0.051254552 0.18630072
-0.074014984 -0.051531453 0.18610778
-0.0752028 -0.05180851 0.18591467
-0.076391339 -0.05208578 0.18572152
-0.077580623 -0.052363209 0.18552816
-0.078770645 -0.052640792 0.18533468
-0.079961404 -0.052918568 0.18514109
-0.081152909 -0.05319649 0.1849474
-0.082345165 -0.053474598 0.1847536
-0.083538152 -0.053752877 0.1845597
-0.084731869 -0.054031339 0.1843656
-0.085926354 -0.054309975 0.18417138
-0.087121561 -0.054588765 0.18397716
-0.088317536 -0.054867774 0.18378273
-0.089514248 -0.05514691 0.18358818
-0.090711705 -0.055426236 0.18339351
-0.0919099 -0.055705767 0.18319872
-0.093108848 -0.055985421 0.18300375
-0.094247855 -0.054973152 0.18403152
-0.095434137 -0.055060446 0.18401843
-0.096619859 -0.05514767 0.18400532
-0.097804978 -0.055234924 0.18399224
-0.098989554 -0.055322088 0.18397921
-0.10017352 -0.055409268 0.18396613
-0.10135693 -0.055496354 0.18395314
-0.10253973 -0.055583399 0.18394002
-0.10372198 -0.055670395 0.18392706
-0.10490365 -0.055757336 0.18391398
-0.10608473 -0.055844288 0.18390098
-0.10726522 -0.05593114 0.18388799
-0.10844516 -0.056018006 0.18387496
-0.10962452 -0.056104783 0.183862
-0.11080331 -0.05619156 0.18384895
-0.11198153 -0.056278273 0.18383592
-0.11315915 -0.056364931 0.18382302
-0.11433621 -0.05645157 0.18381
-0.1155127 -0.056538139 0.18379706
-0.11668861 -0.056624673 0.18378407
-0.11786395 -0.056711167 0.18377113
-0.11903871 -0.056797612 0.18375823
-0.12021291 -0.056884047 0.18374521
-0.12138652 -0.056970421 0.18373227
-0.12255959 -0.057056762 0.18371937
-0.12373206 -0.057143033 0.1837064
-0.12490398 -0.057229333 0.18369341
-0.12607533 -0.057315707 0.18368039
-0.12724616 -0.057401959 0.18366739
-0.12841636 -0.057488155 0.18365434
-0.12958603 -0.057574391 0.18364131
-0.13075511 -0.057660542 0.18362835
-0.13192363 -0.057746649 0.18361542
-0.13309157 -0.057832722 0.18360236
-0.13425896 -0.057918739 0.1835894
0.14898287 -0.034549322 0.18743971
0.1475924 -0.034520682 0.1875498
0.14620377 -0.034492083 0.18765965
0.14481691 -0.034463502 0.18776944
0.1434318 -0.034434993 0.187879
0.14204845 -0.034406424 0.18798858
0.14066693 -0.034378003 0.18809789
0.13928716 -0.034349538 0.18820706
0.13790917 -0.034321196 0.18831614
0.13653293 -0.034292821 0.188425
0.13515843 -0.034264505 0.18853387
0.13378571 -0.034236237 0.18864244
0.13241474 -0.034207996 0.18875092
0.13104551 -0.034179784 0.18885931
0.129678 -0.034151558 0.18896762
0.12831226 -0.034123439 0.18907568
0.12694827 -0.034095332 0.18918365
0.125586 -0.034067299 0.18929145
0.12422546 -0.034039252 0.18939912
0.12286665 -0.034011263 0.18950668
0.12150957 -0.033983305 0.18961406
0.12015422 -0.03395538 0.18972132
0.11880054 -0.033927467 0.18982852
0.11744864 -0.033899613 0.18993548
0.11609841 -0.033871774 0.19004232
0.11474989 -0.033844009 0.19014907
0.11340311 -0.033816304 0.19025567
0.11205801 -0.033788569 0.1903621
0.11071461 -0.033760898 0.19046843
0.10937292 -0.033733267 0.19057462
0.10803288 -0.033705607 0.19068074
0.10669457 -0.033678051 0.19078666
0.10535794 -0.03365051 0.19089237
0.10402299 -0.03362301 0.19099805
0.10268974 -0.033595558 0.19110355
0.10135814 -0.033568125 0.19120893
0.10002822 -0.033540718 0.19131422
0.098699972 -0.033513371 0.1914193
0.097373374 -0.033486009 0.19152436
0.096048445 -0.033458691 0.19162923
0.094725199 -0.033431444 0.19173396
0.093403615 -0.033404216 0.19183847
0.092083663 -0.033377033 0.19194296
0.090765379 -0.033349883 0.19204724
0.089448735 -0.033322744 0.19215152
0.088133745 -0.03329568 0.19225553
0.086820371 -0.033268567 0.19235957
0.085508659 -0.033241548 0.1924634
0.084198579 -0.033214558 0.19256705
0.082890138 -0.033187628 0.19267055
0.081583329 -0.033160668 0.19277403
0.080278151 -0.033133812 0.19287735
0.078974582 -0.033106972 0.1929805
0.077672631 -0.033080116 0.19308355
0.076372311 -0.033053331 0.19318643
0.075073592 -0.033026565 0.19328925
0.073776498 -0.032999828 0.19339195
0.072481021 -0.032973152 0.19349441
0.071187146 -0.032946505 0.19359684
0.06989485 -0.032919873 0.19369909
0.068604186 -0.032893296 0.19380119
0.067315094 -0.032866739 0.1939033
0.066027619 -0.032840196 0.19400519
0.064741716 -0.032813694 0.19410697
0.063457407 -0.03278723 0.19420856
0.062174682 -0.032760806 0.1943101
0.060893554 -0.032734424 0.19441155
0.059613999 -0.03270806 0.19451275
0.058336027 -0.032681741 0.1946139
0.057059605 -0.032655433 0.19471493
0.055784773 -0.032629188 0.19481581
0.054511484 -0.032602895 0.19491661
0.053239778 -0.032576714 0.19501731
0.051969636 -0.03255054 0.1951178
0.050701059 -0.032524414 0.19521821
0.049434029 -0.032498304 0.19531849
0.048168559 -0.032472249 0.19541866
0.046904646 -0.032446228 0.19551864
0.045642272 -0.032420218 0.19561848
0.044381429 -0.032394201 0.19571838
0.043122135 -0.032368265 0.19581801
0.041864403 -0.032342363 0.19591758
0.040608183 -0.032316457 0.19601697
0.039353494 -0.0322906 0.19611633
0.038100343 -0.032264769 0.19621545
0.036848731 -0.032238986 0.19631454
0.035598624 -0.032213219 0.19641352
0.034350045 -0.032187462 0.1965124
0.033103008 -0.032161813 0.19661102
0.031857468 -0.032136116 0.1967096
0.030613448 -0.032110497 0.19680804
0.02937093 -0.03208486 0.19690645
0.028129928 -0.032059286 0.19700468
0.026890432 -0.032033768 0.19710273
0.025652435 -0.032008223 0.19720078
0.024415942 -0.031982753 0.19729862
0.023180947 -0.03195728 0.19739634
0.021947438 -0.031931855 0.19749403
0.020715438 -0.031906471 0.19759145
0.019484924 -0.031881116 0.19768891
0.018255886 -0.031855781 0.19778618
0.017028352 -0.031830516 0.19788334
0.015802283 -0.03180524 0.19798037
0.014577694 -0.031779993 0.19807732
0.013354588 -0.031754803 0.19817412
0.01213294 -0.031729583 0.19827086
0.010912773 -0.031704441 0.19836742
0.0096940836 -0.031679355 0.19846383
0.0084768487 -0.031654239 0.19856027
0.0072610751 -0.031629171 0.19865644
0.0060467725 -0.031604193 0.19875255
0.0048339153 -0.031579167 0.19884852
0.0036225296 -0.0315542 0.19894442
0.0024125855 -0.031529296 0.19904017
0.0012040831 -0.031504344 0.19913584
-2.9552443e-06 -0.031479497 0.19923142
-0.0011397975 -0.031741254 0.19904932
-0.0022767365 -0.032005649 0.19886482
-0.0034143687 -0.032270174 0.19868028
-0.0045526861 -0.032534853 0.19849551
-0.0056917001 -0.032799687 0.19831073
-0.0068313996 -0.033064693 0.19812575
-0.0079717953 -0.033329848 0.19794074
-0.0091128778 -0.033595193 0.19775552
-0.01025467 -0.033860676 0.19757029
-0.011397141 -0.034126338 0.19738489
-0.012540305 -0.034392115 0.19719937
-0.013684173 -0.034658089 0.19701377
-0.014828722 -0.034924258 0.19682801
-0.015973983 -0.035190526 0.19664225
-0.017119935 -0.035456989 0.19645622
-0.018266585 -0.035723615 0.19627017
-0.019413931 -0.03599041 0.19608402
-0.020561978 -0.036257353 0.19589773
-0.021710716 -0.036524486 0.1957112
-0.022860162 -0.036791772 0.19552475
-0.024010302 -0.037059188 0.1953381
-0.025161147 -0.037326802 0.19515136
-0.026312707 -0.037594549 0.19496447
-0.027464954 -0.037862472 0.19477749
-0.028617918 -0.038130563 0.19459045
-0.029771576 -0.038398817 0.19440326
-0.030925937 -0.038667232 0.19421595
-0.032081008 -0.038935799 0.1940285
-0.033236779 -0.039204556 0.19384092
-0.03439327 -0.039473467 0.19365329
-0.03555046 -0.039742526 0.19346547
-0.036708359 -0.04001176 0.19327757
-0.037866965 -0.040281147 0.1930896
-0.039026275 -0.040550724 0.19290143
-0.040186308 -0.040820453 0.19271326
-0.041347042 -0.041090362 0.19252482
-0.042508479 -0.04136043 0.19233641
-0.043670647 -0.041630697 0.19214779
-0.044833511 -0.041901048 0.19195911
-0.045997098 -0.042171612 0.19177029
-0.047161397 -0.04244234 0.19158137
-0.048326407 -0.042713229 0.19139233
-0.049492132 -0.042984329 0.19120309
-0.050658576 -0.04325553 0.19101381
-0.051825736 -0.043526914 0.19082445
-0.052993611 -0.043798476 0.19063494
-0.054162204 -0.044070184 0.19044533
-0.055331517 -0.044342089 0.19025555
-0.056501549 -0.04461414 0.19006574
-0.057672299 -0.044886373 0.18987569
-0.058843784 -0.04515877 0.18968561
-0.060015965 -0.045431327 0.18949538
-0.06118888 -0.045704037 0.1893051
-0.062362518 -0.045976922 0.18911469
-0.063536875 -0.046250034 0.18892407
-0.064711966 -0.046523266 0.1887334
-0.065887772 -0.046796661 0.18854263
-0.067064308 -0.04707022 0.18835166
-0.068241552 -0.047343984 0.18816063
-0.069419533 -0.047617886 0.18796948
-0.070598245 -0.047891963 0.18777817
-0.071777701 -0.048166223 0.18758684
-0.072957873 -0.048440617 0.1873953
-0.074138761 -0.0487152 0.18720365
-0.075320393 -0.048989952 0.1870119
-0.076502733 -0.049264878 0.18682006
-0.077685818 -0.049539972 0.18662807
-0.078869648 -0.049815249 0.18643597
-0.080054209 -0.050090667 0.18624374
-0.081239492 -0.050366297 0.18605143
-0.08242549 -0.050642058 0.18585894
-0.083612248 -0.050917972 0.18566635
-0.084799759 -0.05119415 0.18547365
-0.085987978 -0.051470451 0.18528086
-0.087176926 -0.051746905 0.18508798
-0.08836665 -0.052023545 0.18489486
-0.089557067 -0.052300323 0.18470168
-0.090748243 -0.052577276 0.18450844
-0.091940157 -0.052854426 0.184315
-0.093132816 -0.053131752 0.18412146
-0.094306119 -0.052985761 0.18433049
-0.095489137 -0.053073362 0.18431738
-0.096671559 -0.05316085 0.18430421
-0.097853415 -0.053248327 0.18429115
-0.099034682 -0.053335741 0.18427807
-0.1002154 -0.053423099 0.18426502
-0.10139552 -0.053510468 0.18425184
-0.10257507 -0.053597737 0.18423885
-0.10375406 -0.053685021 0.18422574
-0.10493246 -0.053772196 0.18421265
-0.10611028 -0.05385939 0.18419957
-0.10728753 -0.053946491 0.18418655
-0.1084642 -0.05403357 0.18417352
-0.10964033 -0.054120626 0.18416047
-0.11081586 -0.054207612 0.18414742
-0.11199085 -0.054294594 0.18413442
-0.11316522 -0.05438149 0.18412137
-0.11433903 -0.054468341 0.18410838
-0.11551229 -0.054555159 0.18409535
-0.11668498 -0.054641951 0.18408236
-0.1178571 -0.054728709 0.18406937
-0.11902862 -0.054815397 0.18405634
-0.12019961 -0.054902066 0.18404341
-0.12137 -0.054988679 0.18403041
-0.12253985 -0.055075228 0.18401751
-0.12370912 -0.055161782 0.18400446
-0.12487781 -0.055248257 0.18399158
-0.126046 -0.055334825 0.18397847
-0.12721357 -0.055421334 0.18396541
-0.12838058 -0.055507809 0.18395245
-0.12954707 -0.055594292 0.18393934
-0.13071294 -0.055680677 0.18392631
-0.13187829 -0.055767022 0.18391323
-0.13304304 -0.055853333 0.18390018
-0.13420726 -0.055939604 0.18388721
-0.13656707 -0.06323126 0.1770733
0.14891805 -0.031583097 0.18860787
0.14753497 -0.031556528 0.18871662
0.14615366 -0.031529956 0.18882513
0.14477414 -0.031503443 0.18893358
0.14339635 -0.03147693 0.18904188
0.14202034 -0.031450476 0.18915009
0.14064606 -0.031424027 0.1892581
0.13927352 -0.031397663 0.18936601
0.13790275 -0.031371284 0.18947372
0.13653369 -0.031344935 0.1895813
0.13516639 -0.031318646 0.18968886
0.13380085 -0.031292375 0.18979621
0.13243704 -0.031266131 0.18990335
0.13107497 -0.03123996 0.19001046
0.12971458 -0.031213805 0.19011736
0.12835595 -0.031187667 0.1902242
0.12699905 -0.031161586 0.19033083
0.12564382 -0.03113549 0.19043744
0.12429033 -0.031109439 0.1905438
0.12293855 -0.031083465 0.19065005
0.12158849 -0.031057518 0.19075614
0.12024012 -0.031031556 0.19086215
0.11889346 -0.031005669 0.19096804
0.1175485 -0.030979814 0.19107369
0.11620525 -0.030953972 0.19117934
0.11486363 -0.030928144 0.19128478
0.11352374 -0.030902393 0.19139013
0.11218552 -0.030876653 0.19149533
0.11084902 -0.030850945 0.19160038
0.10951417 -0.030825267 0.19170532
0.10818099 -0.03079962 0.19181007
0.10684951 -0.030774061 0.19191471
0.10551965 -0.03074847 0.19201931
0.10419147 -0.030722896 0.19212371
0.10286499 -0.030697383 0.19222799
0.10154014 -0.030671911 0.19233209
0.10021697 -0.030646456 0.1924361
0.098895438 -0.030621061 0.19253999
0.097575553 -0.030595681 0.19264373
0.096257322 -0.0305703 0.19274735
0.094940737 -0.030545024 0.19285083
0.093625776 -0.030519703 0.19295424
0.092312455 -0.030494412 0.19305748
0.091000795 -0.030469209 0.19316062
0.089690752 -0.030444007 0.19326356
0.088382348 -0.030418865 0.19336632
0.087075561 -0.030393738 0.19346911
0.085770383 -0.030368639 0.19357166
0.084466845 -0.030343542 0.19367421
0.083164908 -0.030318534 0.19377655
0.081864588 -0.030293481 0.19387874
0.0805659 -0.030268516 0.19398081
0.079268791 -0.030243568 0.1940828
0.077973314 -0.030218665 0.19418463
0.076679423 -0.030193774 0.19428632
0.075387128 -0.030168915 0.19438791
0.074096449 -0.030144114 0.1944893
0.072807342 -0.0301193 0.19459066
0.071519822 -0.030094516 0.19469196
0.070233911 -0.030069804 0.19479299
0.068949565 -0.030045077 0.19489402
0.067666814 -0.030020459 0.19499475
0.066385642 -0.029995792 0.19509548
0.065106042 -0.029971184 0.19519609
0.063828006 -0.029946622 0.19529659
0.062551536 -0.029922076 0.19539684
0.061276637 -0.029897515 0.1954971
0.060003299 -0.029873041 0.1955972
0.058731537 -0.029848583 0.19569713
0.057461318 -0.029824141 0.195797
0.056192674 -0.029799758 0.19589671
0.05492558 -0.029775403 0.19599628
0.053660035 -0.029751064 0.19609585
0.052396018 -0.029726742 0.19619519
0.051133547 -0.029702447 0.19629443
0.049872618 -0.029678185 0.19639355
0.048613239 -0.029653965 0.19649255
0.047355391 -0.029629776 0.19659141
0.046099074 -0.029605616 0.19669014
0.044844292 -0.029581498 0.19678876
0.043591037 -0.029557398 0.19688731
0.04233931 -0.029533343 0.19698563
0.041089103 -0.029509287 0.19708398
0.039840393 -0.029485246 0.19718215
0.03859321 -0.029461265 0.19728017
0.037347548 -0.029437315 0.19737807
0.036103398 -0.029413378 0.19747585
0.034860749 -0.029389471 0.19757357
0.033619612 -0.029365638 0.19767109
0.032379981 -0.029341791 0.19776854
0.031141819 -0.029317943 0.19786593
0.029905181 -0.029294156 0.19796309
0.028670041 -0.029270412 0.19806018
0.027436372 -0.029246654 0.19815725
0.026204208 -0.029222971 0.19825402
0.024973519 -0.029199287 0.19835082
0.023744313 -0.029175634 0.19844744
0.02251659 -0.029152039 0.19854391
0.021290345 -0.029128416 0.19864035
0.020065583 -0.029104851 0.19873664
0.018842287 -0.029081315 0.19883278
0.017620448 -0.029057767 0.19892886
0.016400095 -0.02903432 0.19902483
0.015181215 -0.029010905 0.19912061
0.013963776 -0.02898746 0.19921634
0.012747808 -0.028964059 0.19931191
0.011533294 -0.028940719 0.19940737
0.010320236 -0.028917361 0.19950274
0.0091086226 -0.02889405 0.19959801
0.0078984592 -0.028870769 0.19969311
0.0066897441 -0.028847503 0.19978818
0.0054824785 -0.028824294 0.1998831
0.0042766472 -0.028801072 0.19997787
0.0030722613 -0.02877791 0.20007256
0.0018693095 -0.028754778 0.20016706
0.00066778448 -0.028731644 0.20026159
-0.00050219672 -0.028831905 0.2002359
-0.0016327917 -0.029093958 0.20005274
-0.002764076 -0.029356163 0.19986948
-0.003896042 -0.029618528 0.19968614
-0.0050286786 -0.029881088 0.19950265
-0.0061620078 -0.030143753 0.19931912
-0.0072960374 -0.030406596 0.19913539
-0.0084307306 -0.030669633 0.19895166
-0.0095661124 -0.030932805 0.19876772
-0.010702183 -0.031196112 0.19858366
-0.011838951 -0.031459577 0.19839957
-0.012976386 -0.031723242 0.19821525
-0.014114524 -0.031987041 0.19803095
-0.015253341 -0.032251 0.19784647
-0.016392848 -0.032515157 0.19766188
-0.017533049 -0.032779463 0.19747716
-0.01867394 -0.033043899 0.19729239
-0.019815514 -0.033308484 0.19710746
-0.020957794 -0.033573247 0.19692242
-0.022100769 -0.033838179 0.19673726
-0.023244426 -0.034103245 0.19655201
-0.024388781 -0.03436847 0.1963667
-0.025533821 -0.034633894 0.19618115
-0.026679566 -0.034899466 0.1959956
-0.027826006 -0.035165213 0.19580993
-0.028973138 -0.035431083 0.19562405
-0.030120976 -0.035697132 0.19543818
-0.031269494 -0.035963327 0.19525212
-0.03241872 -0.036229704 0.195066
-0.033568654 -0.036496222 0.19487971
-0.034719285 -0.036762942 0.19469333
-0.035870604 -0.03702978 0.19450682
-0.037022628 -0.037296884 0.19432017
-0.038175352 -0.037564036 0.19413346
-0.03932878 -0.037831407 0.19394666
-0.040482912 -0.038098916 0.19375965
-0.041637752 -0.038366575 0.19357264
-0.042793278 -0.038634423 0.19338542
-0.04394953 -0.038902424 0.19319817
-0.045106471 -0.039170604 0.19301075
-0.046264127 -0.0394389 0.19282323
-0.047422487 -0.039707422 0.1926356
-0.048581552 -0.039976075 0.19244781
-0.049741328 -0.040244881 0.19226
-0.050901815 -0.040513866 0.192072
-0.052063011 -0.040783025 0.19188392
-0.053224906 -0.041052338 0.19169569
-0.054387525 -0.041321781 0.1915074
-0.055550843 -0.041591436 0.19131896
-0.056714889 -0.04186124 0.1911304
-0.057879623 -0.042131234 0.19094166
-0.059045088 -0.042401396 0.19075289
-0.06021126 -0.042671673 0.1905641
-0.061378151 -0.042942148 0.19037497
-0.062545747 -0.043212786 0.19018582
-0.063714072 -0.04348363 0.18999663
-0.064883098 -0.043754552 0.18980727
-0.066052847 -0.044025708 0.18961775
-0.067223325 -0.044297017 0.18942815
-0.068394512 -0.04456846 0.18923843
-0.069566429 -0.044840097 0.18904865
-0.070739038 -0.045111913 0.18885869
-0.071912386 -0.045383874 0.18866861
-0.073086455 -0.045656003 0.18847844
-0.074261241 -0.045928311 0.18828809
-0.075436749 -0.046200763 0.18809769
-0.076612994 -0.046473369 0.18790722
-0.07778994 -0.046746194 0.18771654
-0.078967638 -0.047019202 0.18752572
-0.08014603 -0.047292344 0.18733484
-0.081325166 -0.047565646 0.18714389
-0.082505018 -0.047839116 0.1869528
-0.083685607 -0.04811275 0.18676159
-0.084866911 -0.048386578 0.18657023
-0.086048946 -0.048660554 0.18637875
-0.087231733 -0.048934691 0.18618715
-0.088415228 -0.04920901 0.18599543
-0.089599445 -0.049483489 0.18580362
-0.090784401 -0.049758136 0.18561167
-0.091970101 -0.050032973 0.18541962
-0.093156524 -0.050307963 0.18522739
-0.094343685 -0.050583106 0.1850352
-0.095531575 -0.050858479 0.18484268
-0.096720189 -0.05113399 0.18465012
-0.097901575 -0.051272605 0.1845884
-0.099079601 -0.051360305 0.18457526
-0.10025704 -0.051447898 0.18456209
-0.10143391 -0.05153551 0.18454897
-0.10261022 -0.051622998 0.18453586
-0.10378595 -0.051710475 0.18452281
-0.1049611 -0.051797949 0.18450966
-0.1061357 -0.051885355 0.18449658
-0.10730971 -0.051972739 0.18448347
-0.10848316 -0.052060038 0.18447042
-0.10965604 -0.052147292 0.18445733
-0.11082835 -0.052234571 0.18444425
-0.11200009 -0.052321736 0.18443117
-0.11317126 -0.052408896 0.18441817
-0.11434187 -0.052496001 0.18440512
-0.1155119 -0.052583102 0.18439204
-0.11668137 -0.052670103 0.18437898
-0.11785027 -0.052757084 0.18436596
-0.1190186 -0.05284404 0.18435296
-0.12018639 -0.052930932 0.18433991
-0.12135359 -0.053017799 0.18432692
-0.12252022 -0.05310462 0.18431386
-0.12368631 -0.053191364 0.18430087
-0.12485182 -0.053278111 0.18428788
-0.12601678 -0.053364795 0.18427494
-0.12718119 -0.053451572 0.18426183
-0.12834501 -0.05353827 0.18424875
-0.12950832 -0.053624958 0.1842356
-0.13067105 -0.053711612 0.18422258
-0.13183317 -0.05379815 0.18420953
-0.13299477 -0.053884748 0.18419644
-0.13415582 -0.053971283 0.18418339
-0.13636126 -0.060322274 0.17822894
-0.13757525 -0.060603671 0.17803231
-0.13879001 -0.060885213 0.17783555
-0.14000553 -0.061166942 0.17763865
-0.14122182 -0.061448872 0.17744169
-0.14243883 -0.061730955 0.17724451
-0.14365663 -0.062013216 0.17704728
-0.14487523 -0.062295731 0.1768499
-0.14609455 -0.062578365 0.17665231
-0.14731465 -0.062861137 0.17645472
0.14885394 -0.028647998 0.18976375
0.14747813 -0.02862341 0.18987119
0.1461041 -0.028598849 0.18997848
0.14473182 -0.028574349 0.19008556
0.14336126 -0.028549803 0.19019261
0.14199245 -0.028525362 0.19029951
0.14062534 -0.02850089 0.19040623
0.13926001 -0.028476512 0.19051281
0.1378964 -0.028452115 0.19061926
0.1365345 -0.028427778 0.19072562
0.13517433 -0.02840347 0.19083178
0.13381587 -0.028379165 0.19093782
0.13245913 -0.028354917 0.19104379
0.13110411 -0.028330699 0.19114959
0.12975077 -0.028306495 0.19125521
0.12839918 -0.028282339 0.19136077
0.12704927 -0.02825821 0.19146615
0.12570107 -0.028234111 0.19157144
0.12435455 -0.028210057 0.19167656
0.12300974 -0.02818602 0.19178158
0.1216666 -0.028161978 0.19188643
0.12032515 -0.028137999 0.19199115
0.1189854 -0.028114049 0.19209576
0.11764731 -0.028090131 0.19220024
0.11631091 -0.028066225 0.19230455
0.1149762 -0.028042395 0.19240874
0.11364312 -0.028018562 0.19251284
0.11231175 -0.027994778 0.19261682
0.11098201 -0.027970977 0.19272062
0.10965396 -0.027947236 0.1928243
0.10832756 -0.027923537 0.1929279
0.10700281 -0.027899828 0.19303131
0.10567971 -0.027876221 0.19313461
0.10435826 -0.027852567 0.19323775
0.10303847 -0.027828975 0.19334084
0.10172031 -0.027805414 0.19344369
0.10040379 -0.02778188 0.1935465
0.0990889 -0.027758347 0.1936492
0.097775646 -0.027734887 0.19375172
0.096464038 -0.027711445 0.19385412
0.095154047 -0.027688045 0.1939564
0.093845673 -0.027664632 0.19405851
0.092538953 -0.027641308 0.19416055
0.09123382 -0.027617969 0.19426242
0.089930311 -0.027594658 0.19436422
0.088628404 -0.027571363 0.19446591
0.087328114 -0.027548112 0.19456741
0.086029448 -0.027524907 0.1946688
0.084732354 -0.027501717 0.1947701
0.083436884 -0.027478557 0.19487119
0.082143016 -0.027455425 0.19497216
0.080850735 -0.027432337 0.1950731
0.079560049 -0.027409283 0.19517383
0.078270935 -0.027386211 0.19527459
0.076983422 -0.027363183 0.19537506
0.075697489 -0.027340202 0.19547549
0.074413143 -0.02731725 0.19557577
0.073130369 -0.027294312 0.19567591
0.071849152 -0.027271403 0.19577587
0.070569538 -0.027248556 0.19587582
0.069291465 -0.027225679 0.1959756
0.068014964 -0.02720286 0.19607526
0.066740036 -0.02718007 0.19617483
0.065466665 -0.02715731 0.19627425
0.064194843 -0.027134582 0.19637355
0.062924579 -0.027111854 0.1964727
0.061655872 -0.027089199 0.19657174
0.060388714 -0.027066529 0.19667068
0.059123099 -0.027043903 0.19676948
0.057859015 -0.027021294 0.19686824
0.056596491 -0.026998714 0.1969668
0.055335492 -0.026976192 0.19706523
0.054076035 -0.026953686 0.19716355
0.052818105 -0.026931211 0.19726181
0.051561713 -0.026908735 0.19735989
0.050306834 -0.026886333 0.19745785
0.049053479 -0.026863901 0.19755566
0.047801659 -0.02684156 0.19765344
0.046551317 -0.026819143 0.1977511
0.045302529 -0.026796831 0.19784856
0.044055242 -0.026774518 0.19794589
0.042809471 -0.026752265 0.1980432
0.041565202 -0.026730042 0.19814035
0.040322434 -0.026707819 0.19823736
0.039081175 -0.02668564 0.19833431
0.037841409 -0.026663477 0.1984311
0.036603127 -0.026641315 0.19852778
0.035366349 -0.026619209 0.19862434
0.034131072 -0.02659712 0.19872078
0.032897264 -0.026575061 0.1988171
0.031664953 -0.026553048 0.19891331
0.030434122 -0.026531061 0.19900939
0.029204775 -0.026509061 0.19910541
0.027976906 -0.026487121 0.19920123
0.026750486 -0.026465181 0.19929704
0.025525561 -0.026443301 0.19939265
0.024302114 -0.026421435 0.19948816
0.023080114 -0.026399583 0.19958353
0.021859588 -0.026377747 0.19967881
0.02064052 -0.026355987 0.19977403
0.019422898 -0.026334194 0.19986916
0.018206742 -0.026312433 0.19996408
0.016992033 -0.0262907 0.20005891
0.015778793 -0.026269028 0.20015368
0.01456699 -0.026247371 0.20024824
0.01335662 -0.026225684 0.20034283
0.012147705 -0.026204055 0.20043725
0.010940234 -0.026182473 0.20053148
0.0097341947 -0.026160905 0.20062563
0.0085295998 -0.026139397 0.20071968
0.007326432 -0.026117858 0.20081362
0.0061246911 -0.026096364 0.2009075
0.0049243802 -0.026074914 0.20100117
0.0037255003 -0.026053466 0.20109478
0.0025280248 -0.026032032 0.2011883
0.0013319908 -0.026010657 0.2012817
0.00013735745 -0.025989283 0.20137498
-0.00099577522 -0.026213607 0.2012279
-0.0021207789 -0.02647353 0.20104596
-0.0032464603 -0.026733648 0.20086399
-0.0043728086 -0.026993897 0.20068181
-0.0054998463 -0.027254282 0.20049959
-0.0066275466 -0.027514877 0.20031723
-0.0077559254 -0.027775573 0.20013478
-0.008884985 -0.028036464 0.19995219
-0.010014724 -0.028297536 0.1997695
-0.011145148 -0.028558709 0.19958678
-0.012276238 -0.028820077 0.19940385
-0.013408022 -0.029081564 0.19922084
-0.014540479 -0.029343231 0.19903776
-0.015673622 -0.029605061 0.19885448
-0.016807446 -0.029867025 0.19867119
-0.017941955 -0.030129168 0.1984877
-0.019077139 -0.03039149 0.19830412
-0.020213019 -0.030653931 0.1981205
-0.021349577 -0.030916536 0.19793668
-0.022486825 -0.031179305 0.1977528
-0.023624757 -0.031442225 0.1975688
-0.024763368 -0.03170535 0.19738466
-0.025902681 -0.031968568 0.19720048
-0.02704267 -0.03223199 0.19701612
-0.028183362 -0.032495536 0.19683176
-0.029324722 -0.032759245 0.19664717
-0.030466788 -0.033023126 0.19646251
-0.031609531 -0.033287238 0.19627762
-0.032752983 -0.03355141 0.19609278
-0.033897102 -0.033815771 0.19590774
-0.035041932 -0.0340803 0.19572264
-0.036187451 -0.034344949 0.19553742
-0.037333671 -0.034609802 0.19535205
-0.038480569 -0.034874823 0.19516662
-0.03962817 -0.035139974 0.19498113
-0.040776469 -0.035405293 0.19479543
-0.041925464 -0.035670776 0.19460961
-0.043075144 -0.035936419 0.19442374
-0.044225536 -0.03620223 0.19423765
-0.045376629 -0.036468204 0.19405159
-0.046528414 -0.036734305 0.19386539
-0.047680896 -0.037000608 0.19367903
-0.048834078 -0.037267055 0.1934925
-0.049987961 -0.037533656 0.19330594
-0.051142551 -0.03780045 0.19311926
-0.052297831 -0.038067404 0.19293243
-0.053453818 -0.038334511 0.19274551
-0.054610506 -0.038601782 0.1925585
-0.055767905 -0.038869198 0.19237131
-0.056926008 -0.039136782 0.19218406
-0.058084816 -0.039404541 0.19199666
-0.059244316 -0.039672438 0.19180924
-0.060404535 -0.039940529 0.1916216
-0.061565451 -0.040208779 0.19143388
-0.062727086 -0.040477168 0.19124603
-0.063889436 -0.040745746 0.19105813
-0.06505248 -0.041014463 0.19087008
-0.06621623 -0.041283388 0.1906819
-0.067380711 -0.041552413 0.19049355
-0.068545885 -0.041821636 0.19030514
-0.06971176 -0.042091019 0.19011661
-0.070878379 -0.0423606 0.189928
-0.072045699 -0.0426303 0.18973929
-0.073213726 -0.042900205 0.18955037
-0.074382462 -0.043170232 0.18936136
-0.075551927 -0.043440469 0.18917227
-0.076722093 -0.043710824 0.18898311
-0.077892981 -0.043981373 0.18879375
-0.079064593 -0.044252098 0.18860427
-0.080236919 -0.044522975 0.18841475
-0.081409946 -0.044794001 0.18822509
-0.082583703 -0.045065217 0.18803528
-0.083758183 -0.045336585 0.18784538
-0.084933393 -0.045608144 0.1876553
-0.086109295 -0.045879826 0.18746522
-0.087285943 -0.046151698 0.18727499
-0.088463329 -0.046423737 0.18708453
-0.089641392 -0.04669594 0.18689409
-0.090820208 -0.046968304 0.1867035
-0.091999739 -0.047240864 0.18651274
-0.093180008 -0.047513574 0.18632185
-0.094360985 -0.047786478 0.18613088
-0.095542692 -0.048059501 0.18593979
-0.096725114 -0.048332714 0.18574867
-0.097908288 -0.048606109 0.18555737
-0.099092171 -0.048879664 0.18536589
-0.10027681 -0.049153358 0.18517438
-0.10146213 -0.049427245 0.18498269
-0.10264517 -0.049659122 0.18483132
-0.10381766 -0.049746826 0.18481824
-0.1049896 -0.049834494 0.18480504
-0.10616096 -0.04992215 0.18479189
-0.10733177 -0.050009761 0.18477878
-0.10850201 -0.050097324 0.18476573
-0.10967167 -0.050184816 0.18475255
-0.11084078 -0.050272305 0.18473944
-0.11200929 -0.050359737 0.18472636
-0.11317726 -0.050447106 0.18471327
-0.11434466 -0.050534464 0.18470016
-0.1155115 -0.050621759 0.18468714
-0.11667777 -0.050709043 0.18467402
-0.11784349 -0.050796263 0.184661
-0.11900865 -0.050883457 0.18464783
-0.12017322 -0.050970577 0.18463483
-0.12133725 -0.051057633 0.18462181
-0.12250073 -0.051144708 0.18460876
-0.12366362 -0.05123169 0.1845957
-0.12482595 -0.051318705 0.18458271
-0.12598774 -0.051405583 0.18456969
-0.12714897 -0.051492464 0.18455666
-0.12830964 -0.051579431 0.18454358
-0.12946977 -0.051666342 0.18453044
-0.13062932 -0.051753253 0.18451729
-0.13178833 -0.051840056 0.18450421
-0.13294676 -0.051926848 0.18449113
-0.13410465 -0.052013606 0.18447804
-0.1361576 -0.057443958 0.17937252
-0.13736515 -0.057722941 0.17917722
-0.13857345 -0.058002129 0.17898184
-0.13978249 -0.0582815 0.17878634
-0.14099228 -0.058561064 0.17859069
-0.14220285 -0.058840748 0.17839503
-0.14341415 -0.059120636 0.17819911
-0.14462622 -0.059400722 0.17800313
-0.14583905 -0.059680946 0.17780694
-0.14705262 -0.059961341 0.17761075
-0.14826694 -0.060241919 0.17741442
0.14879046 -0.025743492 0.1909076
0.14742191 -0.025720853 0.19101375
0.14605504 -0.025698245 0.19111979
0.14468993 -0.025675682 0.19122565
0.14332652 -0.02565315 0.19133133
0.14196487 -0.025630631 0.19143689
0.14060488 -0.025608171 0.19154242
0.13924661 -0.025585668 0.19164774
0.13789009 -0.025563238 0.19175291
0.13653527 -0.025540853 0.19185796
0.13518214 -0.025518497 0.19196299
0.1338307 -0.025496142 0.19206771
0.13248101 -0.025473848 0.19217235
0.13113296 -0.025451537 0.1922769
0.12978661 -0.025429286 0.19238138
0.12844194 -0.025407018 0.19248566
0.12709898 -0.025384828 0.19258979
0.12575771 -0.025362652 0.1926938
0.12441808 -0.025340505 0.19279766
0.12308016 -0.025318388 0.19290134
0.12174389 -0.025296303 0.19300506
0.12040932 -0.025274243 0.19310856
0.11907639 -0.025252201 0.19321191
0.11774512 -0.025230143 0.19331515
0.11641553 -0.02520816 0.19341829
0.11508758 -0.025186207 0.19352123
0.1137613 -0.025164284 0.19362408
0.11243665 -0.02514239 0.19372684
0.11111367 -0.025120527 0.19382942
0.10979233 -0.025098663 0.19393188
0.10847264 -0.025076859 0.19403419
0.10715456 -0.025055068 0.19413635
0.10583813 -0.025033293 0.19423854
0.10452332 -0.025011534 0.19434047
0.10321017 -0.024989849 0.1944423
0.10189863 -0.024968149 0.19454408
0.10058871 -0.024946507 0.19464561
0.099280395 -0.024924867 0.19474706
0.097973727 -0.024903256 0.19484839
0.096668661 -0.024881706 0.19494957
0.095365196 -0.024860093 0.19505069
0.094063334 -0.024838587 0.19515169
0.092763111 -0.024817079 0.19525248
0.091464475 -0.024795635 0.19535321
0.09016744 -0.024774201 0.19545376
0.088871986 -0.024752768 0.19555423
0.087578148 -0.024731351 0.19565457
0.086285882 -0.024710024 0.1957548
0.084995195 -0.024688635 0.19585493
0.083706111 -0.024667323 0.19595486
0.082418613 -0.024646023 0.1960547
0.081132688 -0.024624784 0.19615442
0.079848349 -0.024603548 0.19625401
0.078565583 -0.024582367 0.19635344
0.077284358 -0.024561143 0.19645286
0.076004729 -0.024540007 0.1965521
0.074726641 -0.024518846 0.19665119
0.073450126 -0.02449774 0.19675013
0.072175168 -0.024476664 0.19684905
0.070901774 -0.024455603 0.19694778
0.06962993 -0.024434602 0.1970464
0.068359636 -0.024413602 0.19714496
0.067090884 -0.024392603 0.19724333
0.065823697 -0.024371661 0.19734156
0.064558014 -0.024350705 0.19743976
0.063293897 -0.024329809 0.19753781
0.062031318 -0.024308957 0.19763565
0.060770262 -0.02428809 0.19773349
0.059510734 -0.024267267 0.19783112
0.058252748 -0.024246475 0.19792873
0.056996282 -0.024225684 0.19802612
0.055741344 -0.024204966 0.19812346
0.054487903 -0.024184218 0.1982207
0.053235989 -0.024163514 0.1983178
0.051985595 -0.024142826 0.19841477
0.050736707 -0.024122184 0.19851157
0.049489334 -0.024101568 0.19860828
0.048243463 -0.024080969 0.1987049
0.046999093 -0.0240604 0.19880143
0.045756232 -0.024039863 0.19889778
0.044514861 -0.024019338 0.1989941
0.043274965 -0.023998799 0.19909027
0.042036589 -0.023978334 0.19918627
0.0407997 -0.023957882 0.1992822
0.039564297 -0.023937464 0.19937798
0.038330369 -0.023917058 0.19947365
0.037097923 -0.023896683 0.1995692
0.035866968 -0.023876335 0.19966465
0.034637481 -0.02385602 0.19976002
0.033409461 -0.023835691 0.1998553
0.032182921 -0.023815418 0.1999504
0.030957848 -0.023795161 0.20004541
0.029734241 -0.02377492 0.20014033
0.028512089 -0.023754736 0.20023504
0.027291404 -0.023734512 0.20032969
0.026072178 -0.023714375 0.20042428
0.024854407 -0.023694251 0.2005187
0.023638083 -0.023674099 0.20061305
0.022423204 -0.023654036 0.2007072
0.021209786 -0.023633959 0.20080134
0.019997811 -0.023613954 0.20089531
0.018787265 -0.023593906 0.20098922
0.01757817 -0.023573916 0.20108297
0.016370516 -0.02355396 0.20117664
0.015164288 -0.023534015 0.20127016
0.013959494 -0.023514101 0.20136359
0.01275613 -0.023494201 0.20145693
0.011554198 -0.023474362 0.20155007
0.01035368 -0.023454493 0.2016432
0.0091545759 -0.023434637 0.20173624
0.0079569072 -0.023414843 0.20182908
0.0067606531 -0.023395076 0.20192182
0.0055658072 -0.023375265 0.20201451
0.00437237 -0.023355547 0.20210707
0.0031803518 -0.023335841 0.20219946
0.0019897306 -0.023316119 0.20229191
0.00080051745 -0.023296459 0.20238408
-0.00036557525 -0.023364088 0.20239043
-0.0014843614 -0.023621803 0.20220983
-0.0026038256 -0.023879655 0.20202908
-0.0037239492 -0.024137655 0.2018483
-0.004844747 -0.024395835 0.20166743
-0.0059662117 -0.024654148 0.20148632
-0.0070883469 -0.024912653 0.20130521
-0.0082111601 -0.025171252 0.20112404
-0.0093346322 -0.02543004 0.20094261
-0.010458787 -0.025688965 0.2007612
-0.011583612 -0.025948055 0.20057967
-0.012709099 -0.026207291 0.20039794
-0.01383528 -0.026466692 0.20021617
-0.014962121 -0.026726244 0.20003432
-0.016089639 -0.026985971 0.19985226
-0.017217834 -0.027245834 0.19967017
-0.018346705 -0.027505819 0.19948795
-0.019476254 -0.027766008 0.19930562
-0.020606479 -0.028026348 0.19912317
-0.021737373 -0.028286824 0.19894066
-0.022868959 -0.02854746 0.19875807
-0.024001222 -0.028808262 0.19857526
-0.025134161 -0.029069245 0.19839242
-0.026267776 -0.02933039 0.1982094
-0.027402079 -0.029591622 0.1980263
-0.028537054 -0.029853065 0.1978431
-0.029672727 -0.030114658 0.19765973
-0.030809078 -0.030376397 0.19747633
-0.031946104 -0.030638287 0.1972928
-0.033083826 -0.030900357 0.19710919
-0.034222227 -0.031162545 0.19692543
-0.035361309 -0.031424943 0.19674161
-0.03650108 -0.031687472 0.19655758
-0.03764154 -0.031950168 0.19637346
-0.038782686 -0.032213025 0.19618925
-0.039924517 -0.032476015 0.19600499
-0.041067034 -0.032739174 0.19582057
