# .PCD v0.7 - Point Cloud Data file format
VERSION 0.7
FIELDS x y z
SIZE 4 4 4
TYPE F F F
COUNT 1 1 1
WIDTH 1322
HEIGHT 1
VIEWPOINT 0 0 0 1 0 0 0
POINTS 1322
DATA ascii
-0.01496011 -0.099762589 0.14437753
-0.013767138 -0.10104384 0.14289781
-0.0083406121 -0.10270447 0.13579908
-0.001352638 -0.10455357 0.12663212
0.093705475 -0.25694871 0.013172805
0.09370555 -0.25843173 0.013303757
0.093705699 -0.25991309 0.01343435
0.093705803 -0.26139289 0.013565004
0.093706042 -0.26287115 0.01369524
0.093706265 -0.26434779 0.013825417
0.093706504 -0.26582289 0.013955295
0.093706757 -0.26729631 0.014085233
0.093706995 -0.26876819 0.014214873
0.093707249 -0.27023849 0.014344454
0.093707487 -0.27170724 0.014473855
0.093707696 -0.27317435 0.014603198
0.093707964 -0.27463993 0.014732242
0.093708202 -0.27610391 0.014861286
0.093708426 -0.27756631 0.014990151
0.093708679 -0.27902716 0.015118837
0.093708917 -0.2804864 0.015247464
0.09370923 -0.28194416 0.015375733
0.093709454 -0.2834003 0.015504181
0.093709663 -0.28485489 0.015632272
0.093709528 -0.28630769 0.015760839
0.093709409 -0.28775895 0.015889227
0.09370926 -0.28920865 0.016017497
0.093709111 -0.29065681 0.016145587
0.093708962 -0.29210341 0.016273558
0.093708828 -0.29354841 0.01640141
0.093708739 -0.29499197 0.016529053
0.093708679 -0.29643399 0.016656488
0.093708634 -0.29787445 0.016783834
0.093708545 -0.29931337 0.01691097
0.0937085 -0.30075073 0.017038107
0.093708396 -0.30218658 0.017165035
0.093708292 -0.3036209 0.017291844
0.093708009 -0.30505359 0.017418772
0.093707755 -0.30648476 0.017545581
0.093707502 -0.30791438 0.017672181
0.093707234 -0.30934247 0.017798662
0.093707338 -0.31076932 0.017924547
0.093707427 -0.31219459 0.018050373
0.093707576 -0.31361842 0.01817596
0.093707666 -0.31504065 0.018301457
0.09370774 -0.31646138 0.018426865
0.093707845 -0.31788063 0.018552095
0.093707979 -0.31929845 0.018677145
0.093708068 -0.32071468 0.018802106
0.093708172 -0.32212946 0.018927008
0.093708292 -0.32354271 0.019051701
0.093708381 -0.32495445 0.019176275
0.093708515 -0.32636476 0.01930064
-0.023273021 0.082798757 0.13721696
-0.041093603 0.070792675 0.16221496
-0.041989729 0.06898658 0.16357943
-0.04287836 0.067195624 0.16493246
-0.043759525 0.065419689 0.16627419
-0.044633374 0.063658528 0.16760468
-0.045499921 0.061911985 0.16892409
-0.04635939 0.060179833 0.17023274
-0.047211766 0.058461949 0.17153049
-0.048057154 0.056758139 0.17281771
-0.048895672 0.055068213 0.17409444
-0.04972735 0.053392038 0.17536068
-0.050552309 0.051729411 0.17661679
-0.051370606 0.050080195 0.17786276
-0.052182332 0.048444226 0.17909867
-0.052987576 0.04682133 0.18032476
-0.053786442 0.04521136 0.18154106
-0.054578945 0.043614168 0.18274769
-0.055365175 0.042029586 0.18394482
-0.056145221 0.040457487 0.18513253
-0.056919158 0.038897708 0.18631086
-0.057687029 0.037350107 0.18748009
-0.058448941 0.035814542 0.18864009
-0.059204966 0.034290876 0.18979123
-0.059955135 0.032778963 0.19093353
-0.060699522 0.031278696 0.19206688
-0.060775876 0.030101798 0.19227445
-0.06082654 0.028939016 0.19244632
-0.060877189 0.027778156 0.19261804
-0.060927719 0.026619248 0.19278938
-0.060978174 0.025462274 0.19296041
-0.050060406 -0.056900751 0.1856581
-0.049702004 -0.057952672 0.18527088
-0.049342945 -0.059006475 0.18488291
-0.048983216 -0.060062196 0.18449423
-0.048622891 -0.061119828 0.18410492
-0.048261866 -0.062179387 0.18371481
-0.047900185 -0.063240871 0.18332401
-0.047537863 -0.064304277 0.18293259
-0.047174871 -0.065369621 0.18254036
-0.046811238 -0.066436917 0.18214744
-0.046262011 -0.067498185 0.18150488
-0.045289963 -0.068546727 0.18029344
-0.044311315 -0.0696024 0.17907381
-0.043325946 -0.070665337 0.17784581
-0.042333812 -0.071735546 0.17660937
-0.041334942 -0.072813109 0.17536449
-0.040329054 -0.073898152 0.17411092
-0.039316237 -0.074990705 0.17284864
-0.038296342 -0.076090857 0.17157766
-0.037269339 -0.077198684 0.17029774
-0.036235169 -0.078314275 0.16900888
-0.035193726 -0.079437725 0.16771099
-0.034144893 -0.080569096 0.16640392
-0.033088684 -0.081708476 0.16508752
-0.032024935 -0.08285597 0.16376188
-0.030953616 -0.084011629 0.16242671
-0.029874593 -0.085175566 0.16108206
-0.028787851 -0.086347863 0.15972763
-0.027693272 -0.087528624 0.15836355
-0.026590779 -0.088717893 0.15698946
-0.025480241 -0.089915842 0.15560552
-0.02436167 -0.091122508 0.15421146
-0.023234889 -0.092337981 0.15280718
-0.022099808 -0.093562394 0.15139264
-0.020956397 -0.094795831 0.14996764
-0.019804552 -0.096038386 0.14853212
-0.01864408 -0.097290158 0.14708593
-0.017475024 -0.098551273 0.14562893
-0.016297191 -0.099821821 0.14416108
-0.015110537 -0.1011019 0.14268219
-0.0090630651 -0.10281931 0.1347163
-0.0020839274 -0.10467348 0.12551171
0.023931548 -0.10842771 0.09091875
0.093705982 -0.25918925 0.010704458
0.09370622 -0.26067558 0.010836899
0.093706459 -0.26216036 0.010969162
0.093706712 -0.26364347 0.011101305
0.093706965 -0.26512504 0.01123327
0.093707174 -0.2666049 0.011365116
0.093707472 -0.26808324 0.011496782
0.093707681 -0.26955998 0.011628389
0.093707919 -0.27103508 0.011759877
0.093708158 -0.27250862 0.011891067
0.093708441 -0.27398059 0.012022197
0.093708694 -0.27545092 0.012153149
0.093708962 -0.27691975 0.012283981
0.093709201 -0.27838686 0.012414753
0.093709439 -0.27985248 0.012545288
0.093709648 -0.28131649 0.012675762
0.093709901 -0.28277895 0.012805998
0.093710184 -0.28423983 0.012936115
0.09371008 -0.28569895 0.01306653
0.093709961 -0.28715649 0.013196886
0.093709812 -0.28861248 0.013327122
0.093709677 -0.29006684 0.013457179
0.093709499 -0.29151964 0.013587177
0.093709454 -0.29297096 0.013716877
0.093709394 -0.29442072 0.013846397
0.09370932 -0.29586887 0.013975799
0.09370929 -0.29731554 0.014105082
0.093709171 -0.29876059 0.014234364
0.093709096 -0.30020413 0.014363348
0.093709037 -0.30164611 0.014492214
0.093708977 -0.30308658 0.01462096
0.093708873 -0.30452546 0.014749587
0.093708605 -0.30596268 0.014878273
0.093708366 -0.30739844 0.01500687
0.093708053 -0.30883262 0.015135378
0.093708098 -0.31026542 0.015263259
0.093708172 -0.31169671 0.015390992
0.093708262 -0.31312659 0.015518516
0.093708381 -0.3145549 0.015645921
0.093708515 -0.31598169 0.015773147
0.093708634 -0.31740695 0.015900403
0.093708724 -0.31883064 0.016027361
0.093708843 -0.3202529 0.01615423
0.093708932 -0.32167363 0.016281039
0.093709022 -0.32309282 0.016407639
-0.038988739 0.07388147 0.15708932
-0.042703047 0.070362568 0.16242155
-0.043590292 0.068562478 0.16378194
-0.044470131 0.066777483 0.16513088
-0.045342639 0.065007374 0.16646865
-0.04620789 0.063251972 0.1677953
-0.047065958 0.061511103 0.16911092
-0.047916993 0.059784565 0.17041579
-0.048761055 0.058072209 0.17170987
-0.049598232 0.056373827 0.17299345
-0.050428554 0.054689299 0.17426658
-0.051252171 0.053018417 0.17552933
-0.052069113 0.051361021 0.17678195
-0.052879512 0.049716953 0.17802444
-0.053683415 0.048086055 0.17925701
-0.05448088 0.046468183 0.18047971
-0.055271998 0.044863168 0.18169269
-0.056056902 0.043270845 0.18289611
-0.056835592 0.041691072 0.18409005
-0.057608187 0.040123727 0.18527457
-0.058374733 0.038568623 0.18644986
-0.059135273 0.037025645 0.18761596
-0.059889928 0.035494637 0.18877304
-0.060638756 0.033975471 0.1899212
-0.061381817 0.032468002 0.19106042
-0.06201984 0.031019535 0.19205257
-0.062069505 0.029856831 0.19222459
-0.062119022 0.028696075 0.19239628
-0.062168479 0.027537256 0.19256768
-0.050944552 -0.058053017 0.18514296
-0.050587088 -0.059105549 0.18475536
-0.050228983 -0.060159985 0.18436706
-0.049870208 -0.061216328 0.18397814
-0.049510807 -0.062274583 0.18358845
-0.049150735 -0.063334771 0.18319809
-0.048789993 -0.064396881 0.18280694
-0.048428655 -0.065460905 0.18241522
-0.048066616 -0.06652689 0.18202269
-0.047440395 -0.067583479 0.18127263
-0.046473324 -0.068631291 0.18006161
-0.045499638 -0.069686219 0.17884234
-0.04451935 -0.070748366 0.17761487
-0.043532297 -0.071817786 0.17637882
-0.042538479 -0.072894558 0.17513436
-0.041537791 -0.073978782 0.17388129
-0.040530175 -0.075070515 0.17261946
-0.039515525 -0.076169834 0.17134896
-0.038493842 -0.077276833 0.17006955
-0.037464991 -0.078391552 0.16878122
-0.036428943 -0.079514116 0.16748384
-0.035385579 -0.080644593 0.16617733
-0.034334809 -0.081783071 0.1648615
-0.033276558 -0.082929634 0.16353634
-0.032210797 -0.084084377 0.16220182
-0.031137422 -0.08524736 0.16085774
-0.030056372 -0.086418688 0.15950394
-0.028967485 -0.087598458 0.15814045
-0.027870774 -0.088786766 0.15676713
-0.026766047 -0.089983672 0.15538383
-0.025653303 -0.09118931 0.15399036
-0.024532437 -0.092403755 0.15258676
-0.023403361 -0.093627095 0.15117294
-0.022265941 -0.094859451 0.14974862
-0.021120161 -0.096100897 0.14831388
-0.019965842 -0.097351551 0.14686844
-0.018802971 -0.098611534 0.14541221
-0.017631367 -0.099880934 0.14394513
-0.016433269 -0.10116133 0.14244324
-0.0097872615 -0.10293442 0.13363084
-0.0028170198 -0.10479367 0.12438864
0.020358235 -0.1082901 0.093416482
0.093710393 -0.2821525 0.010085642
0.093710631 -0.28361976 0.010217845
0.093710735 -0.28508526 0.010349989
0.093710542 -0.28654912 0.01048243
0.093710437 -0.28801137 0.010614634
0.093710244 -0.28947201 0.010746717
0.093710169 -0.29093114 0.010878623
0.093710095 -0.29238871 0.011010289
0.093710035 -0.2938447 0.011141837
0.093709961 -0.29529917 0.011273265
0.093709886 -0.29675204 0.011404514
0.093709797 -0.29820332 0.011535704
0.093709737 -0.29965305 0.011666656
0.093709677 -0.30110124 0.011797488
0.093709588 -0.30254787 0.01192832
0.093709543 -0.30399293 0.012058794
0.093709439 -0.30543643 0.012189269
0.093709171 -0.30687827 0.012319863
0.093708903 -0.30831859 0.012450278
0.093708843 -0.30975747 0.012580216
0.093708932 -0.31119493 0.012709916
0.093709007 -0.31263077 0.012839437
0.093709126 -0.31406516 0.012968838
0.09370926 -0.31549799 0.013098061
0.09370935 -0.31692931 0.013227165
0.093709484 -0.31835908 0.01335609
-0.043419018 0.071743749 0.16125917
-0.044304922 0.069934472 0.16262698
-0.04518345 0.068140343 0.1639834
-0.046054587 0.066361256 0.16532847
-0.046918496 0.064596951 0.16666237
-0.047775194 0.062847286 0.16798508
-0.048624873 0.061112061 0.16929695
-0.049467549 0.059391104 0.170598
-0.05030331 0.057684239 0.1718885
-0.051132321 0.055991273 0.17316845
-0.051954582 0.054312073 0.174438
-0.052770153 0.052646454 0.1756973
-0.053579181 0.050994273 0.17694628
-0.054381713 0.049355332 0.17818543
-0.055177808 0.047729492 0.17941463
-0.055967614 0.04611659 0.18063402
-0.056751102 0.044516481 0.18184379
-0.057528391 0.042929024 0.1830439
-0.058299631 0.041354038 0.18423468
-0.059064806 0.039791398 0.18541604
-0.059824005 0.038240958 0.18658826
-0.060577288 0.036702577 0.18775126
-0.06132476 0.035176102 0.18890539
-0.062066421 0.033661418 0.19005045
-0.062802404 0.03215836 0.19118688
-0.063310519 0.030773286 0.19200313
-0.063359007 0.029612627 0.19217482
-0.051471472 -0.060257521 0.18424022
-0.051114291 -0.061312575 0.18385172
-0.050756469 -0.062369548 0.18346241
-0.050398022 -0.063428424 0.18307239
-0.050038889 -0.064489231 0.18268168
-0.04967913 -0.065551952 0.18229032
-0.049318731 -0.066616625 0.18189821
-0.048616424 -0.067668609 0.18104085
-0.047654316 -0.068715677 0.17983025
-0.046685621 -0.069769859 0.1786114
-0.045710325 -0.070831209 0.17738429
-0.044728369 -0.071899869 0.17614877
-0.043739662 -0.072975859 0.1749047
-0.04274413 -0.074059263 0.17365211
-0.041741684 -0.075150177 0.17239085
-0.040732265 -0.076248661 0.17112076
-0.039715871 -0.077354811 0.16984192
-0.038692296 -0.07846868 0.16855404
-0.037661612 -0.079590365 0.16725719
-0.036623657 -0.080719963 0.16595116
-0.035578355 -0.08185754 0.16463599
-0.034525618 -0.083003178 0.16331139
-0.033465445 -0.084156975 0.16197744
-0.032397613 -0.085319012 0.16063389
-0.031322166 -0.086489387 0.15928072
-0.030239001 -0.087668166 0.15791786
-0.029148012 -0.088855468 0.15654516
-0.028049126 -0.090051368 0.15516248
-0.026942238 -0.091255978 0.15376976
-0.025827274 -0.092469357 0.15236691
-0.024704114 -0.093691647 0.15095365
-0.023572713 -0.094922915 0.14953014
-0.022432968 -0.096163273 0.14809602
-0.021284759 -0.097412825 0.14665142
-0.020128056 -0.09867166 0.14519596
-0.018962696 -0.09993989 0.14372972
-0.017150536 -0.10127193 0.14139116
-0.010513216 -0.10304981 0.13254288
-0.0035519749 -0.10491419 0.12326264
0.016838893 -0.10815457 0.095876485
0.093709707 -0.31068891 0.010006905
0.093709767 -0.31213093 0.010138452
0.093709916 -0.31357145 0.010269761
0.09371002 -0.31501043 0.010401011
-0.045022339 0.071311601 0.16146782
-0.045899436 0.069508344 0.16283166
-0.046769202 0.067720175 0.16418403
-0.047631741 0.065946914 0.16552517
-0.048487097 0.064188406 0.1668551
-0.049335346 0.06244443 0.16817403
-0.050176665 0.060714826 0.16948214
-0.051011071 0.058999408 0.1707795
-0.051838621 0.05729802 0.17206627
-0.052659526 0.055610452 0.17334262
-0.053473711 0.05393656 0.17460862
-0.054281369 0.052276175 0.17586431
-0.0550825 0.050629135 0.17711002
-0.055877239 0.048995286 0.17834574
-0.056665614 0.047374487 0.17957151
-0.057447761 0.045766547 0.18078759
-0.058223665 0.04417133 0.18199405
-0.058993533 0.042588681 0.18319109
-0.059757292 0.041018464 0.18437865
-0.060515091 0.039460521 0.18555689
-0.061267003 0.037914719 0.186726
-0.062013075 0.036380902 0.187886
-0.062753394 0.034858931 0.18903711
-0.063488021 0.033348683 0.19017938
-0.064216986 0.031850025 0.19131282
-0.052355155 -0.061408568 0.1837256
-0.051998913 -0.062464252 0.1833367
-0.05164206 -0.06352184 0.18294701
-0.051284537 -0.064581335 0.18255675
-0.050926372 -0.065642774 0.1821658
-0.050567552 -0.066706121 0.18177408
-0.049790218 -0.067753583 0.18080959
-0.048832983 -0.068799883 0.1795994
-0.04786928 -0.069853321 0.17838094
-0.046898961 -0.070913918 0.17715421
-0.045922056 -0.071981788 0.17591912
-0.04493843 -0.073056981 0.17467558
-0.04394801 -0.074139595 0.17342344
-0.042950764 -0.075229689 0.17216265
-0.04194656 -0.076327331 0.17089304
-0.040935382 -0.077432618 0.1696147
-0.039917186 -0.07854563 0.16832736
-0.038891792 -0.079666466 0.16703099
-0.037859187 -0.080795154 0.1657255
-0.036819354 -0.081931829 0.16441086
-0.035772115 -0.083076552 0.16308686
-0.034717456 -0.084229425 0.16175351
-0.033655226 -0.085390523 0.16041058
-0.032585442 -0.086559922 0.159058
-0.031507909 -0.087737724 0.15769571
-0.030422628 -0.088924035 0.15632364
-0.029329509 -0.09011893 0.15494165
-0.028228417 -0.091322511 0.15354961
-0.027119339 -0.092534855 0.15214738
-0.026002124 -0.093756065 0.15073493
-0.024876699 -0.09498626 0.14931214
-0.023742944 -0.09622553 0.14787874
-0.022600845 -0.097473964 0.14643481
-0.021450236 -0.098731667 0.14498013
-0.02029109 -0.099998757 0.14351469
-0.017869562 -0.10138278 0.14033666
-0.011240944 -0.10316548 0.13145214
-0.0042887181 -0.10503498 0.12213394
0.013372496 -0.10802107 0.098299414
-0.046618089 0.070881471 0.16167551
-0.047486484 0.069084212 0.1630353
-0.048347622 0.067301959 0.16438368
-0.049201563 0.065534532 0.16572088
-0.050048485 0.063781753 0.16704693
-0.050888374 0.062043447 0.16836208
-0.051721349 0.060319435 0.16966638
-0.052547574 0.058609512 0.1709601
-0.053367019 0.056913532 0.17224324
-0.054179817 0.055231318 0.17351604
-0.05498606 0.053562716 0.17477843
-0.05578582 0.051907532 0.1760307
-0.056579158 0.050265636 0.17727292
-0.057366133 0.048636865 0.17850524
-0.058146894 0.047021043 0.17972776
-0.058921427 0.045418028 0.18094054
-0.059689835 0.04382769 0.18214375
-0.060452223 0.042249832 0.18333754
-0.061208636 0.040684354 0.18452197
-0.061959147 0.039131075 0.18569714
-0.062703848 0.037589863 0.18686321
-0.063442737 0.036060601 0.18802017
-0.064175949 0.034543123 0.18916833
-0.064903527 0.033037305 0.19030756
-0.065625563 0.031543009 0.19143811
-0.053238168 -0.062558711 0.18321127
-0.05288285 -0.063615017 0.18282205
-0.052526936 -0.06467323 0.18243217
-0.052170366 -0.065733343 0.18204159
-0.051813141 -0.066795394 0.18165025
-0.050961658 -0.067838386 0.18057868
-0.05000934 -0.068883948 0.17936888
-0.049050584 -0.069936633 0.17815092
-0.048085272 -0.070996456 0.17692465
-0.047113389 -0.07206355 0.17568997
-0.04613477 -0.073137954 0.17444685
-0.04514949 -0.074219748 0.17319521
-0.044157386 -0.075309023 0.17193484
-0.043158382 -0.076405838 0.17066577
-0.042152479 -0.077510282 0.16938788
-0.041139543 -0.078622431 0.1681011
-0.040119454 -0.079742394 0.16680524
-0.039092287 -0.080870196 0.16550034
-0.038057789 -0.082005993 0.16418627
-0.037016019 -0.083149798 0.16286284
-0.035966843 -0.084301725 0.16152999
-0.034910202 -0.085461855 0.16018766
-0.033845991 -0.086630315 0.15883574
-0.03277415 -0.087807156 0.1574741
-0.031694561 -0.088992454 0.15610266
-0.030607179 -0.090186343 0.15472126
-0.029511899 -0.091388896 0.15332988
-0.028408632 -0.092600212 0.15192842
-0.027297348 -0.093820363 0.1505166
-0.026177868 -0.095049486 0.14909452
-0.025050148 -0.096287638 0.14766189
-0.023914054 -0.097534955 0.14621869
-0.022769615 -0.098791547 0.14476478
-0.021616608 -0.10005747 0.14330015
-0.018590257 -0.1014939 0.1392796
-0.011970431 -0.10328144 0.13035884
-0.0050273091 -0.10515607 0.12100238
0.009957701 -0.10788956 0.10068631
-0.029246405 0.083446577 0.13448325
-0.048206493 0.070453331 0.16188225
-0.049066186 0.068662018 0.16323802
-0.049918756 0.066885635 0.1645824
-0.050764233 0.065124013 0.1659157
-0.051602736 0.063376948 0.16723794
-0.052434295 0.061644278 0.16854933
-0.05325909 0.059925817 0.16984996
-0.054077089 0.058221366 0.1711399
-0.054888487 0.056530785 0.17241946
-0.055693328 0.054853894 0.17368856
-0.056491673 0.053190526 0.17494753
-0.05728358 0.051540531 0.17619634
-0.05806917 0.049903758 0.17743513
-0.058848485 0.048280016 0.17866412
-0.059621617 0.046669159 0.1798833
-0.060388625 0.045071054 0.18109283
-0.061149612 0.04348553 0.18229285
-0.061904594 0.041912451 0.18348339
-0.062653705 0.040351674 0.1846647
-0.063396975 0.038803048 0.18583679
-0.064134464 0.037266422 0.18699977
-0.064866304 0.035741668 0.18815386
-0.065592468 0.034228653 0.18929893
-0.066313058 0.032727242 0.19043532
-0.053766057 -0.064764857 0.1823079
-0.053411096 -0.065823682 0.18191764
-0.053055465 -0.066884428 0.18152681
-0.052130789 -0.067923024 0.18034825
-0.051183417 -0.068967849 0.17913893
-0.05022952 -0.070019752 0.17792132
-0.049269199 -0.071078837 0.1766955
-0.048302352 -0.072145134 0.17546129
-0.04732877 -0.073218748 0.1742186
-0.046348602 -0.074299745 0.1729674
-0.045361623 -0.075388208 0.17170751
-0.044367775 -0.076484188 0.17043895
-0.043367088 -0.077587798 0.16916153
-0.042359397 -0.078699097 0.16787529
-0.041344658 -0.079818174 0.16657996
-0.04032281 -0.080945097 0.16527563
-0.039293751 -0.082079969 0.16396213
-0.038257405 -0.083222866 0.16263917
-0.037213713 -0.084373862 0.16130701
-0.0361626 -0.085533068 0.15996528
-0.035103962 -0.086700559 0.15861386
-0.034037724 -0.087876424 0.15725294
-0.032963827 -0.089060746 0.15588209
-0.031882197 -0.090253614 0.15450144
-0.030792654 -0.091455132 0.15311068
-0.029695243 -0.092665397 0.15170982
-0.0285898 -0.093884513 0.1502988
-0.027476251 -0.095112547 0.14887738
-0.026354551 -0.096349612 0.1474455
-0.025224507 -0.097595833 0.14600304
-0.024086148 -0.098851278 0.14454994
-0.02293925 -0.10011607 0.14308605
-0.019312724 -0.1016053 0.13822007
-0.012701705 -0.10339767 0.12926283
-0.005767718 -0.1052775 0.11986798
0.0065933913 -0.10776 0.10303795
-0.044617757 0.074503154 0.15448466
-0.049787462 0.070027202 0.16208795
-0.050638586 0.068241805 0.16343978
-0.051482633 0.066471264 0.16478026
-0.052319705 0.064715393 0.16610965
-0.053149879 0.062974006 0.16742811
-0.053973243 0.061246917 0.16873565
-0.054789796 0.059533969 0.17003256
-0.055599794 0.057834972 0.17131892
-0.056403145 0.056149766 0.17259482
-0.057200059 0.054478157 0.17386046
-0.057990521 0.052820019 0.17511585
-0.05877471 0.051175166 0.17636123
-0.05955261 0.049543466 0.17759663
-0.060324296 0.047924723 0.17882228
-0.061089888 0.046318825 0.18003806
-0.061849445 0.044725582 0.1812444
-0.062603027 0.043144871 0.18244126
-0.063350692 0.041576538 0.18362862
-0.064092547 0.040020436 0.18480679
-0.064828619 0.038476419 0.18597585
-0.065558985 0.03694436 0.18713576
-0.066283733 0.035424106 0.18828684
-0.067002937 0.03391552 0.18942907
-0.054648608 -0.065913782 0.18179414
-0.054233909 -0.066970393 0.18131918
-0.053297669 -0.068007484 0.18011829
-0.052355126 -0.069051579 0.17890936
-0.05140619 -0.070102736 0.17769223
-0.050450802 -0.071161039 0.17646679
-0.049488902 -0.072226577 0.17523304
-0.048520401 -0.073299393 0.17399082
-0.047545254 -0.074379586 0.1727401
-0.046563447 -0.075467214 0.17148077
-0.045574769 -0.07656239 0.17021257
-0.044579223 -0.07766515 0.16893569
-0.043576792 -0.078775585 0.16764992
-0.042567328 -0.07989379 0.16635522
-0.0415508 -0.081019849 0.16505131
-0.040527135 -0.082153812 0.16373834
-0.039496228 -0.083295807 0.16241604
-0.03845799 -0.084445879 0.16108438
-0.037412375 -0.085604139 0.15974328
-0.036359325 -0.086770654 0.15839258
-0.035298675 -0.087945551 0.1570321
-0.034230471 -0.089128874 0.15566203
-0.033154488 -0.090320736 0.15428197
-0.032070756 -0.091521248 0.15289196
-0.030979142 -0.092730455 0.15149182
-0.02987954 -0.093948521 0.15008143
-0.028771907 -0.095175497 0.14866069
-0.027656138 -0.096411474 0.14722955
-0.026532128 -0.097656585 0.14578792
-0.025399804 -0.098910883 0.1443356
-0.024259076 -0.10017453 0.14287239
-0.020036861 -0.10171695 0.13715801
-0.013434783 -0.10351418 0.12816423
-0.0065100193 -0.10539919 0.11873081
0.0032784492 -0.10763235 0.10535508
-0.050511375 0.071397498 0.16093364
-0.051361114 0.069603041 0.16229278
-0.05220373 0.067823529 0.16364056
-0.053039357 0.066058792 0.1649771
-0.05386807 0.064308643 0.16630265
-0.054689944 0.062572896 0.16761726
-0.055505112 0.060851384 0.16892114
-0.056313649 0.059143905 0.17021441
-0.05711557 0.057450324 0.17149714
-0.057911023 0.055770438 0.17276943
-0.058700085 0.05410409 0.17403153
-0.059482768 0.05245116 0.17528343
-0.060259223 0.050811432 0.17652538
-0.061029494 0.049184758 0.17775744
-0.061793596 0.047571007 0.17897967
-0.062551752 0.045970008 0.18019232
-0.063303903 0.044381618 0.18139535
-0.064050093 0.042805701 0.18258891
-0.064790487 0.041242082 0.18377325
-0.065525144 0.039690632 0.18494833
-0.066254079 0.038151205 0.18611425
-0.066977426 0.036623672 0.18727127
-0.067695171 0.035107896 0.18841925
-0.068407416 0.033603728 0.18955851
-0.055393666 -0.067055434 0.18108922
-0.054462254 -0.068091795 0.17988876
-0.053524584 -0.069135129 0.17868021
-0.052580521 -0.070185542 0.17746353
-0.051630065 -0.071243092 0.17623854
-0.050673142 -0.072307847 0.1750052
-0.049709678 -0.073379867 0.17376348
-0.048739552 -0.07445927 0.17251319
-0.047762811 -0.075546086 0.17125431
-0.04677926 -0.076640427 0.1699867
-0.045788959 -0.077742338 0.16871029
-0.044791743 -0.078851923 0.16742513
-0.043787554 -0.079969272 0.16613081
-0.042776316 -0.081094414 0.16482756
-0.041757986 -0.082227513 0.16351509
-0.040732503 -0.083368585 0.16219333
-0.039699703 -0.084517732 0.16086233
-0.038659602 -0.085675038 0.15952182
-0.037612066 -0.086840615 0.15817168
-0.036557004 -0.088014528 0.15681192
-0.035494402 -0.089196861 0.15544242
-0.034424156 -0.090387724 0.15406299
-0.033346131 -0.091587208 0.1526736
-0.032260329 -0.092795387 0.15127417
-0.031166583 -0.094012395 0.14986449
-0.030064821 -0.095238298 0.14844453
-0.028954953 -0.096473195 0.14701411
-0.027836949 -0.097717166 0.1455732
-0.026710659 -0.098970383 0.14412159
-0.025575995 -0.10023287 0.14265925
-0.020762712 -0.10182885 0.1360935
-0.014169633 -0.10363099 0.12706289
-0.0072541535 -0.10552122 0.1175907
1.1906028e-05 -0.10750654 0.10763839
-0.052086353 0.070969343 0.16114154
-0.052927509 0.069180816 0.1624966
-0.053761676 0.067407176 0.16384044
-0.054588944 0.065648206 0.16517317
-0.055409342 0.063903742 0.16649485
-0.056223065 0.062173586 0.16780573
-0.057030112 0.060457613 0.16910589
-0.057830602 0.058755588 0.1703954
-0.058624566 0.057067391 0.17167452
-0.059412122 0.055392817 0.17294326
-0.060193375 0.053731713 0.17420182
-0.060968369 0.052083917 0.17545033
-0.061737165 0.050449278 0.17668885
-0.062499836 0.048827644 0.17791751
-0.063256517 0.047218837 0.17913643
-0.064007193 0.045622725 0.18034574
-0.064751983 0.04403916 0.18154564
-0.065490931 0.042467982 0.1827361
-0.066224143 0.040909052 0.18391719
-0.066951618 0.039362241 0.1850892
-0.067673475 0.037827384 0.18625212
-0.068389803 0.036304347 0.18740612
-0.069100618 0.034793016 0.18855113
-0.055624574 -0.068175927 0.17965969
-0.054691747 -0.069218531 0.1784516
-0.053752556 -0.070268199 0.17723531
-0.052807033 -0.071324974 0.17601079
-0.051855043 -0.072388947 0.17477787
-0.050896555 -0.073460191 0.17353663
-0.049931526 -0.074538782 0.17228678
-0.048959792 -0.075624801 0.17102838
-0.047981396 -0.076718301 0.16976118
-0.046996236 -0.077819392 0.16848543
-0.046004206 -0.07892812 0.16720062
-0.045005292 -0.080044575 0.16590694
-0.043999344 -0.081168868 0.16460422
-0.042986333 -0.082301036 0.16329232
-0.0419662 -0.083441205 0.16197115
-0.040938869 -0.084589437 0.16064066
-0.039904222 -0.085745797 0.15930077
-0.038862228 -0.086910412 0.15795127
-0.037812769 -0.088083349 0.15659213
-0.03675577 -0.089264706 0.15522322
-0.035691157 -0.090454578 0.15384451
-0.034618825 -0.091653049 0.15245578
-0.033538759 -0.092860192 0.151057
-0.03245084 -0.094076142 0.14964804
-0.031354934 -0.095300965 0.14822876
-0.030250996 -0.096534766 0.14679909
-0.029138982 -0.09777768 0.14535901
-0.028018698 -0.099029735 0.14390811
-0.026890114 -0.1002911 0.14244649
-0.021490172 -0.10194105 0.13502616
-0.014906257 -0.10374808 0.12595886
-0.0080001503 -0.10564355 0.1164479
-0.00074768066 -0.10763404 0.10645983
-0.053653955 0.0705432 0.16134843
-0.054486662 0.068760559 0.16269952
-0.055312455 0.06699273 0.16403937
-0.056131408 0.065239504 0.16536823
-0.056943625 0.063500687 0.16668615
-0.057749197 0.061776124 0.16799322
-0.058548182 0.060065635 0.16928971
-0.059340686 0.05836904 0.17057559
-0.060126796 0.056686185 0.1718511
-0.060906559 0.055016872 0.17311633
-0.061680064 0.053360984 0.17437139
-0.062447399 0.051718321 0.17561644
-0.06320864 0.050088726 0.1768516
-0.063963786 0.048472088 0.17807689
-0.064713031 0.046868201 0.17929253
-0.065456316 0.045276958 0.18049863
-0.066193789 0.043698188 0.18169522
-0.066925541 0.042131729 0.18288255
-0.067651555 0.040577471 0.1840606
-0.068371966 0.039035257 0.18522948
-0.069086805 0.037504934 0.18638939
-0.06979613 0.035986401 0.18754035
-0.070500061 0.034479477 0.18868253
-0.056784615 -0.068259902 0.17943111
-0.055856571 -0.069301777 0.17822334
-0.054922268 -0.070350677 0.17700753
-0.053981632 -0.071406692 0.17578343
-0.053034589 -0.072469898 0.17455101
-0.052081048 -0.07354036 0.17331016
-0.051121041 -0.074618146 0.17206079
-0.050154403 -0.075703338 0.17080286
-0.049181089 -0.076796018 0.16953626
-0.048201069 -0.077896267 0.16826093
-0.04721427 -0.079004139 0.16697666
-0.046220541 -0.080119766 0.16568348
-0.045219868 -0.08124315 0.1643813
-0.044212222 -0.082374431 0.16306996
-0.043197438 -0.083513685 0.16174942
-0.042175457 -0.084660977 0.1604194
-0.041146293 -0.085816436 0.15908009
-0.040109769 -0.08698009 0.15773126
-0.039065853 -0.088152058 0.15637276
-0.038014457 -0.089332432 0.1550045
-0.036955506 -0.090521276 0.1536265
-0.03588888 -0.091718726 0.1522384
-0.034814522 -0.092924848 0.15084028
-0.03373237 -0.09413974 0.14943206
-0.03264235 -0.095363498 0.1480135
-0.031544313 -0.096596226 0.14658451
-0.0304382 -0.097838007 0.14514515
-0.029323936 -0.099088967 0.14369509
-0.028201416 -0.10034917 0.14223433
-0.022219226 -0.10205352 0.13395607
-0.01564467 -0.10386546 0.12485209
-0.0087480098 -0.10576617 0.11530215
-0.0015049875 -0.10776231 0.1052725
-0.035206452 0.084092952 0.13175568
-0.05521439 0.070118994 0.16155431
-0.056038663 0.068342239 0.16290149
-0.056856126 0.066580191 0.16423744
-0.057666883 0.064832628 0.16556248
-0.058470935 0.063099474 0.16687655
-0.0592684 0.06138045 0.16817996
-0.060059413 0.059675418 0.16947272
-0.060844019 0.057984229 0.17075494
-0.061622307 0.056306679 0.17202687
-0.062394321 0.054642621 0.17328855
-0.063160181 0.052991871 0.17454022
-0.063919872 0.05135433 0.17578182
-0.064673558 0.049729783 0.17701355
-0.065421283 0.048118085 0.17823562
-0.066163152 0.046519108 0.17944795
-0.066899151 0.044932678 0.18065083
-0.067629382 0.043358665 0.18184423
-0.068353906 0.041796945 0.18302837
-0.069072857 0.04024731 0.18420336
-0.069786221 0.03870967 0.18536919
-0.070494115 0.03718387 0.18652606
-0.071196541 0.035669785 0.18767405
-0.05794239 -0.068343706 0.17920294
-0.057019174 -0.069384843 0.17799565
-0.056089729 -0.070433006 0.17678016
-0.055153906 -0.071488246 0.17555654
-0.054211825 -0.072550684 0.17432454
-0.053263277 -0.073620357 0.17308417
-0.052308217 -0.074697353 0.17183527
-0.051346645 -0.075781748 0.17057782
-0.050378397 -0.0768736 0.1693117
-0.049403504 -0.077973008 0.16803685
-0.048421845 -0.079080015 0.16675317
-0.047433361 -0.080194764 0.16546047
-0.046437934 -0.081317283 0.16415885
-0.045435548 -0.08244767 0.16284809
-0.044426128 -0.083586022 0.16152802
-0.043409571 -0.084732398 0.16019872
-0.042385802 -0.085886896 0.15886
-0.041354746 -0.087049603 0.15751171
-0.040316358 -0.088220604 0.15615386
-0.039270535 -0.089399993 0.15478626
-0.038217172 -0.090587869 0.15340883
-0.037156254 -0.091784284 0.15202144
-0.036087617 -0.09298937 0.15062404
-0.035011262 -0.094203219 0.1492165
-0.033927009 -0.095425919 0.14779866
-0.032834828 -0.096657559 0.14637047
-0.031734645 -0.097898245 0.14493176
-0.030626342 -0.099148065 0.14348251
-0.029212281 -0.10043268 0.14160252
-0.022950009 -0.10216627 0.1328834
-0.0163849 -0.10398312 0.12374264
-0.0094977617 -0.10588909 0.11415344
-0.0022643059 -0.10789089 0.10408205
-0.050234914 0.075123526 0.15188548
-0.056767568 0.069696769 0.16175935
-0.057583526 0.067925841 0.16310257
-0.058392763 0.066169523 0.16443467
-0.059195325 0.064427666 0.16575584
-0.0599913 0.062700063 0.16706616
-0.060780808 0.060986549 0.16836584
-0.061563879 0.059286952 0.16965491
-0.062340662 0.057601109 0.17093357
-0.063111156 0.055928852 0.17220187
-0.063875452 0.054270025 0.17346013
-0.064633667 0.052624427 0.17470825
-0.065385863 0.050991934 0.1759465
-0.066132084 0.049372394 0.1771749
-0.066872418 0.047765646 0.1783936
-0.067606926 0.046171531 0.17960268
-0.068335652 0.044589918 0.18080232
-0.069058761 0.043020643 0.18199253
-0.069776177 0.04146358 0.18317363
-0.070488051 0.039918564 0.18434545
-0.07119444 0.038385492 0.18550828
-0.071895406 0.03686418 0.18666214
-0.072590977 0.035354521 0.1878072
-0.058179498 -0.069467753 0.17776838
-0.057254821 -0.070515156 0.17655328
-0.056323946 -0.071569651 0.17533004
-0.055386707 -0.072631314 0.17409849
-0.054443121 -0.073700212 0.1728586
-0.053493038 -0.074776404 0.17161024
-0.052536458 -0.075859979 0.1703532
-0.051573321 -0.076950997 0.16908762
-0.050603509 -0.078049585 0.16781324
-0.049627021 -0.079155758 0.16653004
-0.048643678 -0.08026962 0.16523799
-0.047653511 -0.08139126 0.16393685
-0.046656385 -0.082520768 0.16262665
-0.045652285 -0.083658211 0.16130719
-0.044641092 -0.084803663 0.15997845
-0.043622747 -0.085957229 0.15864027
-0.042597175 -0.087118983 0.15729266
-0.041564286 -0.088289022 0.15593541
-0.040524006 -0.089467421 0.1545684
-0.039476261 -0.090654299 0.15319169
-0.03842096 -0.091849707 0.15180498
-0.03735806 -0.093053766 0.1504083
-0.036287382 -0.094266549 0.14900139
-0.03520897 -0.095488176 0.14758429
-0.034122646 -0.096718743 0.14615691
-0.033028319 -0.097958334 0.14471892
-0.031925991 -0.099207044 0.1432704
-0.029935688 -0.10054106 0.14056247
-0.023682579 -0.10227928 0.13180828
-0.017126963 -0.10410108 0.12263051
-0.010249391 -0.10601234 0.11300191
-0.0030255467 -0.10801982 0.10288861
-0.057499155 0.071056336 0.16061294
-0.058313563 0.069276482 0.16196331
-0.059121281 0.06751135 0.16330263
-0.059922338 0.065760761 0.16463086
-0.060716808 0.064024508 0.16594824
-0.061504781 0.062302474 0.16725484
-0.062286362 0.060594436 0.16855085
-0.06306158 0.058900252 0.16983625
-0.063830569 0.057219729 0.17111132
-0.064593375 0.055552736 0.17237616
-0.065350071 0.053899065 0.17363086
-0.066100702 0.052258596 0.17487559
-0.066845432 0.050631151 0.17611039
-0.067584261 0.049016573 0.17733547
-0.068317249 0.047414735 0.17855087
-0.069044471 0.045825463 0.1797567
-0.069766045 0.044248637 0.18095317
-0.070481941 0.042684067 0.18214026
-0.071192294 0.041131653 0.18331814
-0.071897179 0.039591234 0.18448696
-0.072596684 0.038062666 0.18564674
-0.073290735 0.036545828 0.18679771
-0.059337541 -0.069550499 0.17754143
-0.058417678 -0.070597172 0.17632684
-0.057491615 -0.0716509 0.17510408
-0.056559294 -0.072711796 0.17387298
-0.055620581 -0.073779896 0.17263353
-0.054675534 -0.074855283 0.17138559
-0.053723946 -0.075938053 0.17012912
-0.052765846 -0.077028275 0.16886398
-0.0518011 -0.078125998 0.16759011
-0.050829753 -0.079231329 0.16630745
-0.049851581 -0.080344334 0.16501588
-0.048866615 -0.081465095 0.1637153
-0.047874764 -0.082593709 0.16240561
-0.046875939 -0.083730236 0.1610868
-0.04587011 -0.084874779 0.15975863
-0.044857174 -0.086027414 0.15842104
-0.043837026 -0.087188214 0.15707406
-0.042809606 -0.088357285 0.15571743
-0.041774854 -0.0895347 0.15435115
-0.040732697 -0.090720579 0.15297499
-0.039683014 -0.091914997 0.15158889
-0.038625762 -0.093118012 0.15019292
-0.03756085 -0.094329767 0.14878678
-0.036488205 -0.095550321 0.14737043
-0.035407707 -0.096779794 0.14594367
-0.034319311 -0.098018289 0.14450645
-0.033222854 -0.099265903 0.14305875
-0.030660793 -0.1006497 0.13952005
-0.024416894 -0.10239257 0.13073048
-0.017870873 -0.10421932 0.12151557
-0.011002868 -0.10613588 0.11184749
-0.0037887394 -0.10814907 0.10169208
-0.059046403 0.07063213 0.16081998
-0.059852555 0.068858102 0.16216651
-0.060652062 0.067098729 0.16350186
-0.061444998 0.065353826 0.16482627
-0.062231421 0.06362319 0.16613981
-0.063011453 0.061906662 0.16744274
-0.063785166 0.060204066 0.168735
-0.06455259 0.058515258 0.17001683
-0.065313846 0.056840044 0.17128831
-0.066068992 0.055178266 0.17254958
-0.066818103 0.053529773 0.17380086
-0.067561284 0.051894367 0.17504212
-0.068298593 0.050271936 0.17627361
-0.069030032 0.048662324 0.17749533
-0.069755718 0.047065359 0.17870745
-0.070475757 0.045480903 0.17991012
-0.071190163 0.043908812 0.18110335
-0.071899042 0.042348944 0.18228731
-0.072602376 0.040801156 0.18346211
-0.073300347 0.039265294 0.18462789
-0.073992923 0.037741233 0.18578467
-0.074680209 0.036228847 0.18693262
-0.060493335 -0.069633082 0.17731503
-0.059578285 -0.070679009 0.17610085
-0.058657035 -0.071731977 0.17487848
-0.057729572 -0.072792098 0.17364791
-0.056795791 -0.073859416 0.17240885
-0.055855632 -0.074934036 0.17116135
-0.05490908 -0.076015979 0.16990539
-0.053955957 -0.077105358 0.16864076
-0.052996293 -0.078202255 0.16736743
-0.052030027 -0.079306751 0.1660853
-0.051057056 -0.0804189 0.16479421
-0.050077319 -0.081538796 0.1634942
-0.049090698 -0.082666509 0.1621851
-0.048097178 -0.083802134 0.16086686
-0.047096625 -0.084945768 0.15953919
-0.046089023 -0.086097464 0.15820232
-0.045074314 -0.087257303 0.15685585
-0.044052377 -0.088425413 0.15549985
-0.043023139 -0.089601859 0.15413418
-0.04198654 -0.09078674 0.15275878
-0.040942445 -0.091980129 0.15137342
-0.039890841 -0.093182117 0.14997801
-0.038831666 -0.094392836 0.14857256
-0.037764728 -0.095612332 0.14715692
-0.036690041 -0.096840732 0.14573094
-0.035607472 -0.098078139 0.1442945
-0.03451696 -0.099324614 0.14284754
-0.031387568 -0.10075857 0.13847512
-0.025152981 -0.10250615 0.12965021
-0.018616587 -0.10433785 0.12039796
-0.011758283 -0.10625975 0.11069018
-0.0045538992 -0.10827866 0.10049239
-0.060586527 0.070209891 0.16102609
-0.061384469 0.068441674 0.16236866
-0.062175825 0.066688031 0.16370016
-0.062960714 0.064948753 0.16502073
-0.063739195 0.06322369 0.16633055
-0.064511359 0.061512649 0.16762972
-0.065277219 0.059815489 0.16891828
-0.06603691 0.058132 0.17019656
-0.066790536 0.056462049 0.17146447
-0.067538112 0.054805458 0.17272231
-0.068279684 0.053162094 0.17397007
-0.069015428 0.051531754 0.17520797
-0.069745362 0.049914289 0.17643613
-0.070469543 0.048309594 0.17765459
-0.071187973 0.046717506 0.17886338
-0.071900874 0.045137823 0.18006277
-0.072608203 0.043570459 0.1812529
-0.073310032 0.042015254 0.18243375
-0.074006423 0.04047206 0.18360546
-0.074697495 0.038940735 0.1847682
-0.075383231 0.037421167 0.18592197
-0.061646834 -0.069715515 0.17708904
-0.060736552 -0.070760697 0.17587528
-0.05982016 -0.071812905 0.17465341
-0.058897525 -0.072872251 0.17342323
-0.057968661 -0.073938794 0.17218468
-0.05703342 -0.075012594 0.17093763
-0.05609183 -0.076093748 0.16968215
-0.055143759 -0.077182323 0.16841808
-0.054189131 -0.078278378 0.16714519
-0.053227916 -0.079382017 0.16586351
-0.052260101 -0.080493301 0.16457304
-0.051285461 -0.081612334 0.16327351
-0.0503041 -0.082739152 0.16196501
-0.04931584 -0.083873875 0.16064727
-0.048320606 -0.085016571 0.15932027
-0.047318429 -0.08616735 0.15798396
-0.046309039 -0.087326251 0.15663815
-0.045292571 -0.088493399 0.15528277
-0.044268802 -0.08966887 0.15391779
-0.043237746 -0.090852752 0.15254292
-0.042199254 -0.092045128 0.15115827
-0.041153297 -0.093246117 0.14976364
-0.04009977 -0.094455779 0.14835894
-0.039038539 -0.095674224 0.1469439
-0.037969649 -0.096901536 0.14551869
-0.036892936 -0.098137826 0.14408302
-0.03580828 -0.099383205 0.14263678
-0.032116041 -0.10086773 0.13742772
-0.025890797 -0.10261996 0.12856719
-0.019364119 -0.10445666 0.11927757
-0.012515619 -0.10638393 0.10952994
-0.0053210407 -0.10840859 0.099289685
-0.041153237 0.084737867 0.12903416
-0.062119588 0.069789559 0.16123125
-0.06290938 0.068027124 0.16256991
-0.063692719 0.066279158 0.16389757
-0.064469576 0.064545505 0.16521439
-0.06524016 0.062825978 0.16652042
-0.06600447 0.06112041 0.16781586
-0.066762596 0.059428629 0.16910082
-0.067514643 0.057750449 0.17037547
-0.068260625 0.056085736 0.17163995
-0.069000691 0.054434318 0.17289421
-0.069734871 0.052796021 0.17413861
-0.07046321 0.051170722 0.17537311
-0.071185797 0.04955823 0.17659789
-0.071902737 0.047958415 0.17781302
-0.072614074 0.046371143 0.17901871
-0.073319823 0.044796228 0.18021491
-0.074020088 0.043233581 0.18140179
-0.074714959 0.041683 0.18257955
-0.075404495 0.040144376 0.18374822
-0.076088697 0.038617566 0.18490788
-0.061892599 -0.070842206 0.17565021
-0.060980976 -0.071893677 0.17442873
-0.060063183 -0.072952256 0.17319894
-0.059139192 -0.074018002 0.17196089
-0.058208883 -0.075091019 0.17071438
-0.057272211 -0.076171361 0.16945937
-0.056329131 -0.077259123 0.16819566
-0.05537957 -0.078354351 0.16692337
-0.054423437 -0.079457141 0.16564223
-0.053460702 -0.080567569 0.16435227
-0.052491263 -0.081685714 0.16305333
-0.051515058 -0.082811654 0.16174534
-0.050532058 -0.083945476 0.16042823
-0.049542129 -0.085087255 0.15910181
-0.048545212 -0.086237088 0.15776607
-0.047541276 -0.087395065 0.15642089
-0.046530187 -0.088561244 0.15506613
-0.045511901 -0.089735746 0.15370172
-0.044486314 -0.090918623 0.15232754
-0.043453425 -0.092109993 0.15094355
-0.042413086 -0.093309946 0.14954963
-0.041365191 -0.094518587 0.14814562
-0.040309712 -0.095735952 0.14673138
-0.039246574 -0.096962214 0.14530683
-0.038175642 -0.098197423 0.1438719
-0.037096858 -0.099441692 0.14242646
-0.032846272 -0.10097712 0.1363779
-0.026630431 -0.10273407 0.12748167
-0.020113483 -0.10457578 0.11815441
-0.013274878 -0.10650842 0.10836676
-0.0060901791 -0.10853884 0.098083764
-0.055840194 0.075742595 0.14929184
-0.063645616 0.069371179 0.16143548
-0.064427346 0.067614473 0.16277021
-0.065202668 0.065872177 0.16409409
-0.065971613 0.06414409 0.16540706
-0.066734359 0.062430058 0.16670939
-0.067490891 0.060729917 0.16800123
-0.068241373 0.059043482 0.16928256
-0.06898579 0.057370588 0.17055368
-0.069724232 0.055711076 0.17181459
-0.070456833 0.054064795 0.17306542
-0.071183562 0.052431583 0.17430636
-0.071904659 0.050811257 0.1755375
-0.07261999 0.049203712 0.176759
-0.073329747 0.047608778 0.1779708
-0.074033961 0.046026275 0.17917323
-0.074732661 0.044456113 0.18036631
-0.075425968 0.042898115 0.18155012
-0.076113954 0.041352149 0.18272477
-0.076796561 0.039818093 0.18389037
-0.077473998 0.038295779 0.18504703
-0.063046426 -0.070923582 0.17542556
-0.062139541 -0.07197427 0.17420447
-0.061226591 -0.073032081 0.17297518
-0.060307398 -0.07409706 0.17173752
-0.059381992 -0.07516928 0.17049155
-0.058450267 -0.076248825 0.16923696
-0.057512134 -0.07733576 0.16797382
-0.056567609 -0.078430161 0.16670203
-0.055616558 -0.079532102 0.1654214
-0.05465889 -0.080641672 0.16413203
-0.053694576 -0.081758954 0.1628336
-0.052723616 -0.082883999 0.1615262
-0.051745772 -0.084016927 0.16020957
-0.050761148 -0.085157812 0.15888381
-0.049769521 -0.086306706 0.15754864
-0.048770934 -0.087463722 0.15620404
-0.047765255 -0.088628948 0.15484995
-0.046752453 -0.089802474 0.15348622
-0.045732394 -0.090984367 0.15211272
-0.044704944 -0.092174739 0.15072936
-0.043670207 -0.093373671 0.14933607
-0.042627975 -0.094581246 0.14793277
-0.041578189 -0.095797583 0.14651927
-0.040520757 -0.097022772 0.14509547
-0.039455637 -0.098256886 0.14366132
-0.038382724 -0.09950003 0.14221659
-0.033578247 -0.10108678 0.13532567
-0.027371824 -0.10284844 0.12639347
-0.020864725 -0.10469521 0.1170285
-0.014036015 -0.10663322 0.10720065
-0.0068612844 -0.10866945 0.096874774
-0.064384595 0.070720181 0.16029689
-0.0651647 0.068954691 0.16163874
-0.065938413 0.067203686 0.16296965
-0.066705748 0.065467022 0.16428971
-0.067466885 0.063744478 0.16559896
-0.068221852 0.062035918 0.16689759
-0.06897068 0.060341176 0.16818568
-0.069713533 0.058660053 0.16946346
-0.07045041 0.056992415 0.17073101
-0.071181387 0.055338092 0.1719884
-0.071906537 0.053696908 0.17323589
-0.072625965 0.05206874 0.17447335
-0.073339745 0.050453395 0.17570117
-0.074047893 0.048850738 0.17691934
-0.074750572 0.047260623 0.17812794
-0.075447708 0.045682907 0.17932716
-0.07613939 0.044117458 0.18051705
-0.076825798 0.042564109 0.18169773
-0.077506885 0.041022725 0.18286929
-0.078182757 0.039493181 0.1840319
-0.064197958 -0.071004771 0.17520127
-0.063295826 -0.072054714 0.17398065
-0.062387675 -0.073111773 0.17275181
-0.06147337 -0.074175969 0.17151469
-0.060552791 -0.0752474 0.17026913
-0.059625998 -0.076326132 0.16901502
-0.058692798 -0.077412255 0.16775236
-0.05775322 -0.078505829 0.16648102
-0.05680722 -0.079606928 0.16520098
-0.055854663 -0.080715641 0.16391212
-0.054895505 -0.081832036 0.16261432
-0.053929657 -0.08295621 0.16130742
-0.052957058 -0.084088229 0.15999144
-0.051977679 -0.08522819 0.15866619
-0.050991356 -0.086376183 0.15733162
-0.049998075 -0.08753226 0.15598768
-0.048997775 -0.088696517 0.15463412
-0.047990397 -0.089869067 0.15327108
-0.046975806 -0.091049969 0.15189826
-0.045953915 -0.092239335 0.15051559
-0.044924751 -0.09343724 0.14912298
-0.043888092 -0.094643801 0.14772037
-0.042843997 -0.095859073 0.14630759
-0.041792274 -0.097083181 0.14488453
-0.04073292 -0.098316193 0.14345106
-0.039665803 -0.099558249 0.14200717
-0.034311861 -0.1011967 0.13427088
-0.028115004 -0.1029631 0.1253027
-0.02161783 -0.1048149 0.11589977
-0.014799103 -0.10675835 0.10603157
-0.0076344311 -0.10880039 0.095662653
-0.065904781 0.070299849 0.16050315
-0.06667687 0.068540096 0.16184115
-0.067442626 0.066794768 0.16316819
-0.068202153 0.065063693 0.16448447
-0.068955466 0.063346669 0.16578996
-0.06970267 0.061643548 0.16708493
-0.070443898 0.059954163 0.16836938
-0.071179152 0.058278333 0.16964364
-0.071908534 0.056615915 0.17090756
-0.072632074 0.05496674 0.17216149
-0.073349893 0.053330641 0.17340553
-0.074062109 0.051707465 0.17463976
-0.074768633 0.050097067 0.17586416
-0.075469673 0.04849929 0.17707905
-0.076165229 0.046913989 0.17828438
-0.076855347 0.045341033 0.17948043
-0.077540174 0.043780245 0.18066716
-0.078219652 0.042231519 0.18184474
-0.07889396 0.04069471 0.18301323
-0.079563051 0.039169662 0.18417278
-0.064449877 -0.072135016 0.17375731
-0.063546494 -0.0731913 0.17252892
-0.062636986 -0.074254721 0.17129225
-0.061721295 -0.075325355 0.17004719
-0.060799375 -0.07640329 0.16879359
-0.059871182 -0.077488586 0.16753143
-0.058936596 -0.078581333 0.16626063
-0.057995558 -0.079681583 0.1649811
-0.057048053 -0.080789447 0.16369274
-0.056093991 -0.081904978 0.16239536
-0.055133253 -0.083028272 0.16108906
-0.054165885 -0.084159397 0.15977371
-0.053191677 -0.085298449 0.15844905
-0.052210689 -0.086445495 0.15711507
-0.051222771 -0.087600626 0.15577179
-0.050227776 -0.088763952 0.15441883
-0.049225807 -0.089935511 0.15305644
-0.048216671 -0.091115445 0.15168419
-0.047200292 -0.092303813 0.1503022
-0.046176657 -0.093500704 0.14891034
-0.045145631 -0.094706208 0.14750841
-0.044107154 -0.095920429 0.14609635
-0.043061107 -0.097143464 0.14467403
-0.042007476 -0.098375425 0.14324138
-0.040946156 -0.099616364 0.1417982
-0.035047203 -0.10130688 0.13321364
-0.028859988 -0.10307804 0.12420925
-0.022372782 -0.1049349 0.11476836
-0.015564114 -0.10688377 0.10485956
-0.0084095597 -0.10893167 0.094447345
-0.067418039 0.069881439 0.16070846
-0.068182141 0.068127401 0.16204256
-0.068940014 0.06638772 0.16336584
-0.069691688 0.064662181 0.16467831
-0.070437312 0.062950656 0.16598004
-0.071176887 0.061252937 0.16727135
-0.071910501 0.059568893 0.16855222
-0.072638273 0.057898317 0.16982287
-0.07336022 0.056241095 0.17108336
-0.074076414 0.054597013 0.17233387
-0.074786931 0.052965969 0.17357451
-0.075491861 0.051347788 0.17480525
-0.076191276 0.049742289 0.1760264
-0.076885268 0.048149362 0.17723802
-0.077573746 0.046568856 0.17844012
-0.07825698 0.045000609 0.17963299
-0.078934863 0.043444488 0.18081659
-0.079607561 0.041900359 0.1819911
-0.080275089 0.040368069 0.18315664
-0.065601692 -0.072215155 0.17353439
-0.064703047 -0.073270664 0.17230648
-0.063798338 -0.07433331 0.17107025
-0.062887475 -0.075403169 0.16982558
-0.061970443 -0.076480292 0.16857249
-0.061047137 -0.077564776 0.16731089
-0.060117513 -0.078656688 0.1660406
-0.059181497 -0.079756103 0.16476154
-0.058239058 -0.080863118 0.16347376
-0.057290092 -0.081977785 0.162177
-0.056334466 -0.083100185 0.16087121
-0.055372253 -0.084230408 0.15955636
-0.054403275 -0.085368551 0.15823233
-0.053427488 -0.086514674 0.15689895
-0.052444845 -0.087668888 0.1555562
-0.051455259 -0.088831231 0.15420404
-0.05045864 -0.090001851 0.15284222
-0.049454942 -0.091180794 0.15147066
-0.048444033 -0.092368141 0.15008938
-0.047425911 -0.093564019 0.14869815
-0.046400473 -0.094768494 0.14729688
-0.045367628 -0.095981658 0.14588559
-0.044327304 -0.097203642 0.14446402
-0.043279365 -0.098434485 0.14303207
-0.041680217 -0.099721774 0.14078227
-0.035784304 -0.10141731 0.13215387
-0.02960676 -0.10319325 0.12311319
-0.023129582 -0.10505521 0.11363399
-0.016331077 -0.10700954 0.10368454
-0.0091867298 -0.10906327 0.093228996
-0.047084764 0.085382722 0.12631559
-0.068924367 0.069464915 0.16091287
-0.069680601 0.067716569 0.16224322
-0.070430651 0.065982483 0.1635626
-0.071174577 0.064262494 0.16487125
-0.071912497 0.062556416 0.16616929
-0.072644472 0.060864076 0.16745701
-0.073370621 0.059185322 0.16873428
-0.074090913 0.057519976 0.17000133
-0.074805453 0.055867907 0.17125836
-0.075514391 0.054228932 0.17250544
-0.076217696 0.052602906 0.17374256
-0.076915488 0.050989665 0.17497006
-0.077607796 0.049389072 0.17618796
-0.078294709 0.047800954 0.1773963
-0.078976259 0.046225201 0.17859524
-0.079652563 0.044661652 0.17978498
-0.080323651 0.043110166 0.18096542
-0.080989525 0.041570611 0.1821368
-0.081650376 0.040042836 0.18329927
-0.066751167 -0.072295129 0.17331183
-0.065857291 -0.073349886 0.17208442
-0.06495741 -0.07441175 0.17084864
-0.06405139 -0.075480819 0.16960451
-0.063139215 -0.076557145 0.16835189
-0.062220827 -0.077640817 0.16709074
-0.061296105 -0.078731894 0.16582102
-0.060365081 -0.079830483 0.1645425
-0.059427664 -0.080936641 0.16325518
-0.058483735 -0.082050428 0.16195899
-0.057533219 -0.083171964 0.16065383
-0.056576177 -0.084301293 0.15933955
-0.055612326 -0.085438527 0.15801603
-0.054641828 -0.086583734 0.15668327
-0.053664491 -0.087736964 0.15534118
-0.052680224 -0.088898405 0.15398961
-0.051688954 -0.090068012 0.15262839
-0.050690666 -0.091245972 0.15125757
-0.049685225 -0.092432335 0.14987692
