# .PCD v0.7 - Point Cloud Data file format
VERSION 0.7
FIELDS x y z
SIZE 4 4 4
TYPE F F F
COUNT 1 1 1
WIDTH 1331
HEIGHT 1
VIEWPOINT 0 0 0 1 0 0 0
POINTS 1331
DATA ascii
-0.07480067 0.0099002803 0.19437322
-0.076265298 0.010074905 0.19424862
-0.077733681 0.010249947 0.19412369
-0.079205759 0.010425407 0.19399852
-0.080681592 0.010601343 0.19387293
-0.082161143 0.010777711 0.19374707
-0.083644487 0.010954526 0.19362092
-0.085131615 0.011131788 0.19349441
-0.086622491 0.011309541 0.19336757
-0.08811722 0.011487696 0.19324037
-0.08961574 0.01166633 0.19311294
-0.091118135 0.011845409 0.19298506
-0.092624322 0.012024965 0.19285697
-0.094134405 0.012204984 0.19272849
-0.095648393 0.01238542 0.19259971
-0.097166248 0.012566361 0.19247058
-0.098688021 0.012747779 0.19234115
-0.10021369 0.01292963 0.19221136
-0.10174332 0.013111973 0.19208118
-0.10327692 0.013294792 0.19195074
-0.10481445 0.013478087 0.19181997
-0.10635598 0.013661875 0.1916889
-0.10790155 0.01384608 0.19155732
-0.10945111 0.014030791 0.19142553
-0.11100473 0.014215979 0.19129339
-0.11256239 0.014401644 0.19116086
-0.1141241 0.01458783 0.19102803
-0.11568987 0.014774478 0.19089478
-0.11725976 0.014961603 0.19076121
-0.11883378 0.015149234 0.19062737
-0.1204119 0.015337342 0.19049305
-0.12199419 0.015525957 0.19035852
-0.12358063 0.015715094 0.19022354
-0.12517126 0.015904706 0.19008818
-0.12676607 0.016094826 0.18995255
-0.12836507 0.016285406 0.1898165
-0.12996832 0.016476525 0.18968019
-0.13157584 0.016668148 0.1895434
-0.13318756 0.016860293 0.18940625
-0.13480361 0.017052947 0.18926883
-0.13642395 0.01724609 0.18913093
-0.1380486 0.01743974 0.18899277
-0.13967758 0.017633926 0.18885416
-0.14131087 0.017828619 0.18871528
-0.14294858 0.018023849 0.18857592
-0.14459068 0.018219585 0.18843621
-0.14623713 0.018415857 0.18829617
-0.14788803 0.018612621 0.18815571
0.14910933 -0.091581136 0.11909029
0.14910866 -0.085733317 0.12634507
0.14910796 -0.080090448 0.1333456
0.14910629 -0.074646473 0.14009911
0.14910471 -0.069386676 0.14662421
0.14910313 -0.064301811 0.15293223
0.14910164 -0.059383385 0.15903383
0.1491003 -0.054622728 0.16493967
0.14909947 -0.050010975 0.17066094
0.14909868 -0.045543104 0.17620367
0.075028822 -0.013980642 0.19798341
0.073953785 -0.013747822 0.19802007
0.07287731 -0.013514703 0.19805673
0.071799368 -0.013281257 0.19809353
0.070720024 -0.013047498 0.19813028
0.069639198 -0.01281347 0.19816706
0.068556964 -0.012579086 0.19820392
0.067473277 -0.012344388 0.19824082
0.066388093 -0.012109393 0.1982778
0.065301493 -0.011874084 0.19831482
0.06421341 -0.011638463 0.19835186
0.063123882 -0.011402498 0.19838899
0.062032882 -0.011166236 0.19842613
0.060940389 -0.010929676 0.19846329
0.059846453 -0.010692758 0.19850057
0.058751054 -0.010455512 0.19853786
0.057654168 -0.010217984 0.19857523
0.056555808 -0.0099801281 0.19861269
0.055455949 -0.0097419443 0.19865015
0.054354608 -0.0095034167 0.19868764
0.053251777 -0.0092646061 0.19872516
0.052147467 -0.0090254685 0.1987628
0.051041637 -0.0087860031 0.19880044
0.04993435 -0.0085462099 0.19883814
0.048825514 -0.0083060889 0.19887593
0.047715213 -0.0080656549 0.19891372
0.046603363 -0.0078248782 0.1989516
0.045490056 -0.0075837434 0.19898957
0.044375215 -0.0073423111 0.19902751
0.043258835 -0.0071005807 0.19906554
0.042140964 -0.0068584783 0.19910362
0.041021578 -0.0066160625 0.19914177
0.039900642 -0.0063733188 0.19917992
0.038778171 -0.0061302483 0.19921815
0.037654188 -0.005886849 0.19925648
0.036528662 -0.0056431075 0.19929475
0.035401601 -0.0053990227 0.19933316
0.034272976 -0.0051546255 0.19937161
0.033142842 -0.0049098856 0.19941011
0.032011177 -0.0046647731 0.19944862
0.030877931 -0.0044193622 0.19948724
0.02974312 -0.004173609 0.19952589
0.028606759 -0.0039275284 0.19956461
0.027468849 -0.00368109 0.19960335
0.026329346 -0.0034343533 0.19964218
0.025188291 -0.003187259 0.19968104
0.024045685 -0.0029397926 0.19971994
0.022901503 -0.0026920128 0.19975889
0.021755725 -0.0024439057 0.19979793
0.020608384 -0.0021954407 0.19983694
0.019459447 -0.0019466332 0.19987616
0.018308962 -0.0016974531 0.19991535
0.017156836 -0.0014479602 0.19995457
0.01600313 -0.0011981096 0.19999391
0.014847846 -0.00094793126 0.20003322
0.013690921 -0.00069741026 0.20007262
0.012532448 -0.00044650183 0.20011207
0.011372336 -0.00019528052 0.20015156
0.01021063 5.6298373e-05 0.20019111
0.0090472838 0.00030820505 0.20023075
0.0078823576 0.00056048424 0.20027041
0.0067157783 0.00081312098 0.20031014
0.0055475901 0.0010660706 0.20034993
0.0043778066 0.0013194524 0.2003898
0.0032063399 0.0015731172 0.20042968
0.0020332786 0.0018271694 0.20046964
0.00085856323 0.0020815644 0.20050967
-0.00034398644 0.0023105827 0.20051166
-0.0016254348 0.0024648863 0.20040241
-0.0029099528 0.0026195324 0.20029292
-0.0041974955 0.0027745515 0.20018318
-0.005488093 0.0029299576 0.20007321
-0.0067817606 0.0030857213 0.199963
-0.0080784969 0.0032418873 0.19985247
-0.0093783177 0.0033983663 0.19974169
-0.010681238 0.0035552324 0.19963065
-0.011987274 0.0037125158 0.19951931
-0.013296408 0.0038701568 0.19940779
-0.014608701 0.004028155 0.19929591
-0.015924107 0.0041865264 0.19918379
-0.017242676 0.0043453141 0.19907147
-0.018564431 0.0045044599 0.19895875
-0.019889314 0.0046639931 0.19884586
-0.021217434 0.004823884 0.19873264
-0.022548726 0.0049841916 0.19861925
-0.02388325 0.0051448867 0.19850549
-0.025220994 0.0053059543 0.19839144
-0.026561927 0.0054674093 0.19827715
-0.027906138 0.0056292661 0.19816259
-0.029253606 0.0057914965 0.19804776
-0.030604322 0.0059541431 0.19793263
-0.03195836 0.0061171921 0.19781724
-0.033315666 0.0062805838 0.19770151
-0.034676298 0.0064444225 0.19758558
-0.036040224 0.0066086636 0.19746929
-0.037407495 0.0067732767 0.1973528
-0.038778067 0.0069383075 0.19723597
-0.040152024 0.0071037253 0.19711885
-0.041529369 0.0072695604 0.19700146
-0.042910039 0.0074358131 0.1968838
-0.044294126 0.0076024826 0.19676584
-0.045681611 0.0077695539 0.19664758
-0.047072522 0.0079370132 0.19652909
-0.048466861 0.0081048887 0.19641021
-0.049864609 0.0082732122 0.19629112
-0.051265869 0.0084419372 0.19617164
-0.052670557 0.0086110653 0.19605199
-0.054078721 0.0087806098 0.19593194
-0.055490408 0.0089505725 0.1958116
-0.056905542 0.0091209961 0.19569102
-0.058324244 0.0092918072 0.19557008
-0.059746444 0.0094630802 0.19544891
-0.061172217 0.0096347556 0.1953274
-0.062601522 0.0098068481 0.19520557
-0.064034432 0.0099793579 0.19508347
-0.065470912 0.010152345 0.19496098
-0.066911004 0.010325719 0.19483829
-0.068354733 0.010499539 0.19471517
-0.069802038 0.010673806 0.19459182
-0.071253031 0.010848491 0.19446808
-0.072707683 0.011023593 0.1943441
-0.074165963 0.011199157 0.19421977
-0.075627953 0.011375168 0.19409513
-0.077093638 0.011551625 0.19397017
-0.078563027 0.011728531 0.19384494
-0.080036148 0.011905882 0.19371936
-0.081512995 0.012083651 0.19359344
-0.082993597 0.012261925 0.19346726
-0.084477946 0.012440634 0.19334072
-0.08596611 0.012619788 0.19321385
-0.087458052 0.012799389 0.19308665
-0.0889538 0.012979467 0.19295913
-0.090453357 0.013160007 0.19283134
-0.091956772 0.013341009 0.19270313
-0.093464032 0.013522457 0.19257465
-0.094975159 0.013704384 0.19244584
-0.096490167 0.0138868 0.19231671
-0.098009057 0.014069649 0.19218722
-0.099531874 0.014253004 0.1920574
-0.10105863 0.014436808 0.19192722
-0.10258933 0.014621087 0.19179678
-0.10412397 0.014805859 0.19166595
-0.10566263 0.014991062 0.19153476
-0.10720527 0.015176786 0.19140318
-0.10875186 0.015362987 0.19127139
-0.1103025 0.015549666 0.19113919
-0.11185719 0.01573682 0.19100666
-0.11341591 0.015924497 0.1908738
-0.11497871 0.01611262 0.19074053
-0.11654561 0.016301248 0.19060698
-0.11811659 0.016490417 0.19047305
-0.11969166 0.01668003 0.19033882
-0.12127089 0.01687015 0.1902042
-0.12285428 0.01706076 0.19006917
-0.12444177 0.017251924 0.18993387
-0.12603353 0.017443547 0.18979815
-0.12762943 0.017635694 0.18966216
-0.12922956 0.017828315 0.18952566
-0.13083391 0.01802149 0.18938896
-0.13244255 0.018215125 0.18925184
-0.13405542 0.018409312 0.18911433
-0.13567258 0.018604007 0.1889765
-0.13729404 0.018799221 0.18883827
-0.13891985 0.018994927 0.18869963
-0.14054991 0.019191185 0.18856066
-0.14218436 0.019387964 0.18842131
-0.14382321 0.019585265 0.18828169
-0.14546643 0.019783085 0.18814149
-0.14711404 0.019981444 0.18800107
-0.14876607 0.020180339 0.18786022
0.14910986 -0.09182515 0.11677113
0.14910913 -0.085947566 0.12409902
0.14910845 -0.080276772 0.13116899
0.14873259 -0.076493576 0.1357967
0.14869954 -0.071317166 0.14224261
0.14866757 -0.066308774 0.14847937
0.14863664 -0.061460406 0.15451691
0.14860664 -0.056764495 0.16036448
0.14909981 -0.050063439 0.168836
0.14909904 -0.045577783 0.1744284
0.073250778 -0.012366688 0.19785863
0.072174147 -0.012132705 0.19789526
0.07109607 -0.011898439 0.19793183
0.07001657 -0.011663832 0.19796842
0.068935603 -0.011428925 0.19800511
0.067853197 -0.011193691 0.19804192
0.066769339 -0.010958173 0.19807866
0.065684035 -0.010722283 0.1981155
0.064597279 -0.010486126 0.19815239
0.063509032 -0.010249625 0.19818932
0.062419374 -0.010012812 0.19822633
0.061328225 -0.0097757 0.19826341
0.060235597 -0.0095382165 0.19830045
0.059141524 -0.0093004638 0.19833764
0.058045965 -0.0090623694 0.19837475
0.05694893 -0.008823947 0.19841206
0.055850398 -0.0085852547 0.19844928
0.054750413 -0.0083461767 0.19848666
0.053648923 -0.0081068156 0.19852397
0.052545954 -0.0078671267 0.19856146
0.051441465 -0.00762711 0.19859892
0.050335519 -0.0073867505 0.19863644
0.049228054 -0.0071460782 0.19867408
0.048119094 -0.0069050775 0.19871172
0.047008645 -0.006663749 0.19874942
0.045896679 -0.0064220782 0.19878721
0.044783209 -0.0061801095 0.19882494
0.043668214 -0.0059377984 0.19886279
0.042551715 -0.0056951744 0.1989007
0.041433685 -0.0054521775 0.19893867
0.040314134 -0.0052088974 0.1989767
0.039193075 -0.0049652602 0.19901475
0.038070451 -0.0047212946 0.19905281
0.036946341 -0.0044770013 0.19909099
0.035820652 -0.0042323954 0.19912916
0.034693442 -0.003987432 0.19916746
0.033564709 -0.0037421109 0.19920576
0.032434426 -0.0034964767 0.19924417
0.031302597 -0.0032505 0.19928256
0.030169202 -0.0030041805 0.19932103
0.029034274 -0.0027575481 0.19935957
0.027897764 -0.002510573 0.19939813
0.026759703 -0.0022632554 0.19943678
0.025620066 -0.00201558 0.19947541
0.024478892 -0.0017675771 0.19951418
0.02333614 -0.0015192314 0.19955295
0.022191808 -0.0012705578 0.19959185
0.02104591 -0.0010215265 0.19963074
0.019898418 -0.00077213778 0.19966969
0.018749362 -0.00052243617 0.19970867
0.017598698 -0.00027236209 0.19974768
0.016446467 -2.1960168e-05 0.19978684
0.015292614 0.00022879934 0.19982597
0.014137181 0.00047988663 0.19986528
0.012980138 0.00073131657 0.19990453
0.011821516 0.00098311901 0.19994381
0.010661269 0.0012352791 0.19998324
0.0094994279 0.001487767 0.20002261
0.0083359629 0.0017405975 0.20006219
0.0071708737 0.0019937856 0.20010167
0.0060041896 0.0022473759 0.20014125
0.0048358669 0.0025012495 0.20018098
0.0036659196 0.0027554955 0.2002207
0.0024943484 0.0030100991 0.2002604
0.0013211381 0.0032650603 0.20030019
0.0001463035 0.003520394 0.20034015
-0.0011187989 0.0036898968 0.20025161
-0.0024011859 0.0038457948 0.20014209
-0.0036865831 0.0040021106 0.20003229
-0.0049750051 0.004158753 0.19992232
-0.0062665115 0.0043158135 0.199812
-0.0075610876 0.004473201 0.19970143
-0.0088587189 0.0046310066 0.19959059
-0.010159449 0.004789154 0.19947952
-0.011463278 0.0049477038 0.19936815
-0.012770222 0.0051065967 0.19925651
-0.014080266 0.0052658916 0.19914463
-0.015393468 0.0054255743 0.19903249
-0.016709814 0.0055856137 0.19892007
-0.018029274 0.0057460708 0.19880739
-0.019351939 0.0059069004 0.19869444
-0.020677792 0.0060681021 0.1985811
-0.022006834 0.0062296763 0.19846761
-0.02333905 0.0063916682 0.19835389
-0.024674485 0.0065540471 0.1982398
-0.026013166 0.0067168279 0.19812542
-0.027355053 0.0068799672 0.19801086
-0.028700188 0.0070435377 0.197896
-0.030048601 0.007207511 0.19778085
-0.031400263 0.0073718713 0.19766536
-0.032755218 0.0075366041 0.1975497
-0.034113474 0.0077017546 0.19743362
-0.035475031 0.0078672916 0.19731739
-0.036839902 0.0080332756 0.19720078
-0.038208116 0.0081996173 0.19708392
-0.03957966 0.008366392 0.19696683
-0.04095456 0.008533583 0.19684938
-0.042332843 0.0087011615 0.19673169
-0.043714508 0.0088691721 0.19661361
-0.045099534 0.009037585 0.19649532
-0.046488009 0.0092064003 0.19637677
-0.047879878 0.0093756318 0.19625786
-0.049275182 0.0095452964 0.19613874
-0.050673932 0.0097153774 0.19601929
-0.052076116 0.0098858764 0.19589955
-0.05348178 0.010056807 0.1957795
-0.054890942 0.01022814 0.19565916
-0.056303564 0.010399935 0.19553846
-0.057719741 0.010572117 0.19541752
-0.059139408 0.010744716 0.19529629
-0.060562622 0.010917762 0.19517472
-0.061989401 0.011091242 0.19505286
-0.063419692 0.011265181 0.19493067
-0.064853586 0.011439508 0.19480819
-0.066291124 0.011614269 0.1946854
-0.067732207 0.011789475 0.19456229
-0.069176935 0.011965114 0.19443884
-0.070625283 0.012141214 0.19431517
-0.072077274 0.012317731 0.1941911
-0.073532932 0.012494696 0.19406676
-0.074992239 0.012672108 0.19394207
-0.076455235 0.012849965 0.19381714
-0.077921949 0.013028286 0.19369182
-0.079392366 0.013207054 0.1935662
-0.080866501 0.013386267 0.19344029
-0.082344361 0.013565945 0.19331402
-0.083825983 0.013746097 0.19318745
-0.085311383 0.013926666 0.19306055
-0.086800575 0.014107699 0.19293332
-0.08829356 0.014289223 0.19280577
-0.089790277 0.014471208 0.19267794
-0.091290921 0.014653625 0.19254977
-0.09279535 0.014836549 0.19242126
-0.09430366 0.015019935 0.19229239
-0.095815845 0.015203782 0.19216323
-0.097331911 0.015388062 0.19203371
-0.098851897 0.015572864 0.19190383
-0.10037574 0.01575814 0.19177362
-0.1019036 0.015943881 0.19164315
-0.10343536 0.016130097 0.19151226
-0.10497106 0.01631679 0.1913811
-0.10651077 0.016503975 0.19124949
-0.10805444 0.016691666 0.19111767
-0.10960215 0.016879821 0.19098544
-0.11115385 0.017068481 0.19085288
-0.11270961 0.017257633 0.19071999
-0.11426942 0.017447261 0.19058675
-0.11583332 0.017637381 0.19045314
-0.11740125 0.017828023 0.19031921
-0.11897331 0.01801917 0.19018489
-0.12054948 0.01821078 0.19005033
-0.12212981 0.018402912 0.18991524
-0.1237143 0.018595548 0.18977988
-0.12530293 0.018788679 0.18964425
-0.12689577 0.018982328 0.18950814
-0.12849279 0.019176487 0.18937171
-0.13009402 0.019371165 0.18923488
-0.1316995 0.019566337 0.18909776
-0.13330923 0.019762043 0.18896025
-0.13492323 0.019958271 0.18882233
-0.13654153 0.020155007 0.18868408
-0.13816407 0.020352293 0.1885455
-0.139791 0.02055007 0.18840653
-0.14142223 0.020748399 0.18826714
-0.14305782 0.020947233 0.18812746
-0.14469779 0.021146605 0.1879873
-0.14634208 0.021346543 0.18784693
-0.14799085 0.021546988 0.18770608
0.14911035 -0.092071362 0.11443135
0.14910962 -0.086163633 0.12183332
0.14910884 -0.080465056 0.12897322
0.1482624 -0.078779005 0.1308831
0.14727212 -0.077776104 0.13190261
0.14700168 -0.073665246 0.13698861
0.14699723 -0.068551697 0.14339471
0.14699292 -0.063603655 0.14959335
0.14910018 -0.050116338 0.16699693
0.14909939 -0.045612726 0.17263958
0.14909859 -0.041248471 0.17810765
0.072548203 -0.010986389 0.19769734
0.071471401 -0.010751558 0.1977337
0.070393197 -0.010516413 0.19777021
0.069313526 -0.010280984 0.19780675
0.068232417 -0.010045183 0.19784331
0.06714984 -0.009809115 0.19787994
0.066065848 -0.0095727332 0.19791657
0.064980388 -0.0093359947 0.19795331
0.063893504 -0.0090989573 0.19799012
0.062805124 -0.0088616228 0.1980269
0.061715312 -0.0086239148 0.19806379
0.060623966 -0.0083859544 0.19810072
0.059531219 -0.0081476206 0.1981377
0.058436986 -0.0079090036 0.19817472
0.057341278 -0.0076700598 0.19821179
0.056244101 -0.0074307732 0.19824889
0.055145428 -0.0071911733 0.19828603
0.054045293 -0.0069512608 0.19832328
0.052943651 -0.0067110197 0.1983605
0.051840533 -0.0064704516 0.19839785
0.050735928 -0.0062295403 0.19843519
0.049629819 -0.0059883464 0.19847265
0.048522215 -0.00574678 0.19851011
0.047413122 -0.0055048857 0.19854766
0.046302527 -0.0052626785 0.19858521
0.045190394 -0.0050201733 0.19862288
0.044076774 -0.0047773253 0.19866049
0.042961646 -0.0045341351 0.19869822
0.041845001 -0.0042906166 0.19873595
0.040726822 -0.0040467554 0.1987738
0.039607134 -0.0038025666 0.19881171
0.038485911 -0.0035580648 0.19884959
0.037363172 -0.0033132052 0.19888759
0.036238883 -0.0030680329 0.19892564
0.035113104 -0.0028225034 0.19896373
0.033985738 -0.0025766457 0.19900188
0.032856844 -0.0023304601 0.19904006
0.031726431 -0.0020839323 0.19907829
0.030594466 -0.0018370911 0.19911659
0.02946092 -0.0015898776 0.19915497
0.028325843 -0.0013423214 0.19919336
0.027189199 -0.0010944672 0.19923177
0.026051007 -0.00084624061 0.19927028
0.024911234 -0.00059768616 0.19930887
0.023769911 -0.00034880397 0.19934747
0.022627024 -9.9534329e-05 0.19938612
0.021482542 0.00015006308 0.19942486
0.020336527 0.00040000319 0.19946364
0.019188901 0.00065027107 0.19950247
0.018039668 0.00090086675 0.1995413
0.016888896 0.001151835 0.19958028
0.015736487 0.0014031606 0.19961923
0.014582516 0.0016547993 0.19965824
0.013426962 0.0019068106 0.19969735
0.012269785 0.0021591792 0.19973648
0.011111014 0.0024118908 0.19977567
0.0099506332 0.0026649449 0.19981495
0.0087886583 0.0029183417 0.19985431
0.0076250741 0.003172111 0.19989362
0.0064598504 0.0034262377 0.19993305
0.0052930326 0.0036806776 0.19997251
0.0041245604 0.0039354898 0.20001206
0.0029544795 0.0041906894 0.20005167
0.0017827593 0.004446202 0.20009127
0.00060942973 0.004702087 0.200131
-0.00061338476 0.0049119573 0.20010114
-0.0018936113 0.0050691515 0.19999158
-0.0031768924 0.0052267038 0.19988179
-0.0044631688 0.0053846277 0.19977173
-0.0057525295 0.0055429102 0.19966134
-0.0070449007 0.0057015796 0.19955075
-0.0083404006 0.0058606216 0.19943985
-0.00963894 0.0060200505 0.19932869
-0.010940565 0.0061798673 0.19921729
-0.012245318 0.0063400418 0.19910562
-0.013553156 0.006500633 0.19899374
-0.014864123 0.0066615818 0.19888145
-0.01617825 0.0068229181 0.198769
-0.017495489 0.0069846418 0.19865632
-0.01881589 0.0071467678 0.19854328
-0.020139463 0.007309251 0.19843
-0.021466224 0.0074721514 0.19831648
-0.022796189 0.0076354248 0.19820261
-0.024129316 0.0077991299 0.19808856
-0.025465688 0.0079631926 0.19797415
-0.02680528 0.0081276726 0.19785956
-0.028148105 0.00829254 0.19774461
-0.029494185 0.0084578088 0.19762939
-0.030843537 0.008623451 0.19751394
-0.032196146 0.0087895095 0.19739819
-0.033552047 0.0089560011 0.19728214
-0.034911241 0.0091228792 0.19716579
-0.036273737 0.0092901457 0.19704914
-0.037639588 0.0094578434 0.1969322
-0.039008714 0.0096259443 0.19681504
-0.040381223 0.0097944615 0.19669765
-0.041757088 0.0099633811 0.19657987
-0.043136317 0.010132718 0.1964618
-0.044518922 0.010302472 0.19634351
-0.045904931 0.010472642 0.19622487
-0.047294352 0.010643216 0.19610599
-0.048687235 0.010814192 0.19598675
-0.050083496 0.01098563 0.19586724
-0.051483214 0.011157484 0.19574744
-0.052886374 0.011329771 0.19562736
-0.054293022 0.011502475 0.19550696
-0.055703156 0.01167558 0.19538626
-0.057116784 0.011849148 0.19526526
-0.058533903 0.012023133 0.19514397
-0.059954572 0.012197566 0.19502237
-0.061378773 0.012372415 0.19490051
-0.062806547 0.012547697 0.19477829
-0.064237893 0.012723395 0.19465572
-0.065672792 0.012899554 0.19453299
-0.067111291 0.013076133 0.19440979
-0.068553425 0.013253157 0.19428632
-0.069999136 0.013430643 0.19416261
-0.071448468 0.013608577 0.19403854
-0.072901495 0.013786927 0.19391412
-0.074358165 0.013965739 0.19378939
-0.075818472 0.014145029 0.19366437
-0.077282496 0.014324734 0.19353905
-0.078750208 0.014504902 0.19341344
-0.080221638 0.014685532 0.19328746
-0.081696779 0.014866654 0.19316119
-0.083175682 0.015048208 0.19303459
-0.084658302 0.015230208 0.19290766
-0.086144738 0.015412685 0.19278046
-0.087634958 0.015595609 0.19265282
-0.089128979 0.015779011 0.19252497
-0.090626806 0.015962858 0.19239676
-0.092128456 0.016147228 0.19226819
-0.09363395 0.016332028 0.19213936
-0.095143281 0.016517337 0.19201007
-0.096656524 0.016703077 0.19188052
-0.098173678 0.016889308 0.19175065
-0.099694699 0.017076017 0.19162041
-0.1012196 0.017263219 0.19148993
-0.10274848 0.01745091 0.19135904
-0.10428133 0.017639063 0.19122785
-0.1058181 0.017827723 0.19109625
-0.10735887 0.018016845 0.19096431
-0.10890362 0.018206488 0.19083214
-0.11045236 0.018396653 0.19069955
-0.11200512 0.01858725 0.19056663
-0.11356197 0.018778369 0.19043338
-0.11512287 0.018969979 0.19029972
-0.11668783 0.019162081 0.19016573
-0.1182569 0.019354705 0.19003147
-0.11983003 0.019547833 0.18989682
-0.12140731 0.019741455 0.18976176
-0.12298876 0.019935584 0.18962634
-0.12457432 0.020130232 0.18949062
-0.12616405 0.020325374 0.18935457
-0.12775801 0.020521035 0.18921807
-0.1293561 0.020717235 0.18908125
-0.13095847 0.02091394 0.18894407
-0.13256505 0.021111153 0.18880656
-0.13417591 0.021308901 0.18866867
-0.135791 0.02150717 0.18853039
-0.1374104 0.021705963 0.18839177
-0.13903408 0.02190532 0.18825281
-0.14066212 0.022105152 0.18811345
-0.14229448 0.022305552 0.18797374
-0.14393118 0.022506459 0.18783364
-0.14557229 0.022707917 0.18769306
-0.14721778 0.022909911 0.18755227
-0.14886768 0.023112472 0.18741098
0.14911085 -0.092319787 0.11207059
0.14911009 -0.086381659 0.11954772
0.14910924 -0.080655031 0.12675843
0.14822647 -0.07910832 0.12849256
0.14723153 -0.078100033 0.12952155
0.14624041 -0.07709571 0.13054654
0.14525734 -0.076077648 0.13159069
0.14528187 -0.070855036 0.13817295
0.14530563 -0.065803669 0.14453942
0.14909974 -0.045647878 0.17083704
0.1490989 -0.04126671 0.17635369
0.070769079 -0.0093712425 0.19757235
0.069690704 -0.0091352481 0.19760871
0.068610907 -0.0088989269 0.19764516
0.067529634 -0.0086622918 0.19768164
0.06644693 -0.0084253736 0.19771805
0.065362781 -0.0081881285 0.19775465
0.064277165 -0.0079505397 0.19779125
0.063190125 -0.007712638 0.19782788
0.06210161 -0.007474409 0.19786465
0.06101162 -0.0072358968 0.19790143
0.059920184 -0.0069970423 0.19793817
0.058827262 -0.0067578745 0.19797501
0.05773288 -0.0065183486 0.19801188
0.056637015 -0.0062785698 0.19804883
0.055539683 -0.0060384339 0.19808584
0.05444089 -0.0057979547 0.19812289
0.053340588 -0.0055571632 0.19815996
0.052238811 -0.0053160582 0.19819716
0.051135547 -0.0050746258 0.19823429
0.05003082 -0.0048328205 0.1982716
0.048924547 -0.0045907474 0.19830891
0.047816794 -0.0043483167 0.19834626
0.046707541 -0.004105588 0.1983836
0.045596793 -0.0038624869 0.19842109
0.044484545 -0.0036190876 0.19845855
0.043370772 -0.0033753605 0.1984961
0.042255498 -0.0031313056 0.19853371
0.041138686 -0.0028869228 0.19857135
0.040020403 -0.0026421826 0.19860908
0.03890055 -0.0023970997 0.19864684
0.037779197 -0.002151689 0.19868466
0.036656339 -0.0019059655 0.19872251
0.035531897 -0.0016598991 0.19876042
0.03440595 -0.0014134902 0.19879836
0.033278473 -0.0011667385 0.19883636
0.03214943 -0.00091967394 0.19887441
0.031018864 -0.00067225174 0.19891259
0.029886751 -0.00042451674 0.19895074
0.028753059 -0.00017642412 0.19898894
0.027617846 7.2026116e-05 0.19902724
0.026481053 0.00032078923 0.19906557
0.02534274 0.00056990993 0.19910389
0.024202835 0.00081935839 0.19914234
0.023061378 0.0010691645 0.19918087
0.02191834 0.0013192984 0.19921938
0.02077374 0.0015697898 0.199258
0.01962756 0.0018206091 0.19929659
0.018479787 0.0020718009 0.19933534
0.017330432 0.0023233353 0.19937405
0.016179513 0.0025751975 0.19941282
0.015026986 0.0028274173 0.19945166
0.013872863 0.0030799499 0.19949061
0.012717176 0.003332885 0.19952956
0.011559851 0.0035861328 0.19956857
0.01040096 0.0038397831 0.19960764
0.0092404597 0.0040937462 0.1996468
0.0080783358 0.0043480517 0.19968599
0.0069146026 0.0046027452 0.1997253
0.0057492596 0.0048577511 0.19976449
0.0045822784 0.0051131295 0.19980386
0.0034137019 0.0053688656 0.19984329
0.0022434716 0.0056249443 0.19988269
0.0010716172 0.0058813808 0.19992217
-0.00010919244 0.0061310967 0.19995105
-0.001387318 0.0062895282 0.19984147
-0.0026684236 0.0064483467 0.19973159
-0.0039525544 0.0066075083 0.19962141
-0.0052397544 0.0067670713 0.19951105
-0.0065299943 0.0069270078 0.19940037
-0.0078233043 0.0070873015 0.19928941
-0.0091196531 0.0072480119 0.19917828
-0.010419117 0.0074091102 0.19906688
-0.011721651 0.0075705508 0.19895518
-0.013027313 0.0077323788 0.19884312
-0.01433606 0.0078946101 0.19873092
-0.015647935 0.0080572423 0.19861841
-0.016962957 0.008220247 0.19850564
-0.018281106 0.0083836401 0.19839263
-0.019602427 0.0085474495 0.19827926
-0.020926926 0.0087116165 0.19816566
-0.022254612 0.0088762008 0.19805181
-0.023585485 0.0090411426 0.19793764
-0.024919579 0.0092065176 0.19782323
-0.026256863 0.009372293 0.19770858
-0.027597379 0.0095384568 0.19759363
-0.028941149 0.009705008 0.19747832
-0.030288139 0.0098720063 0.19736278
-0.031638443 0.010039361 0.197247
-0.03299199 0.010207149 0.19713095
-0.034348816 0.01037534 0.19701454
-0.035709005 0.010543901 0.19689789
-0.037072454 0.010712911 0.19678098
-0.038439211 0.010882337 0.19666371
-0.03980932 0.011052181 0.1965462
-0.041182775 0.011222427 0.19642839
-0.042559598 0.011393089 0.19631037
-0.043939788 0.011564185 0.196192
-0.045323346 0.011735681 0.19607335
-0.046710324 0.011907611 0.19595435
-0.048100691 0.012079973 0.19583511
-0.049494501 0.012252737 0.19571564
-0.050891746 0.012425932 0.19559574
-0.052292433 0.01259956 0.19547564
-0.05369658 0.012773605 0.19535527
-0.055104204 0.012948112 0.19523451
-0.056515314 0.013123007 0.19511345
-0.057929933 0.013298347 0.19499215
-0.059348073 0.01347412 0.1948705
-0.06076974 0.013650341 0.19474849
-0.062194951 0.013826977 0.19462633
-0.063623719 0.014004047 0.19450366
-0.065056078 0.014181579 0.19438085
-0.066491976 0.014359526 0.19425768
-0.067931488 0.014537952 0.19413418
-0.069374584 0.014716795 0.19401035
-0.070821293 0.014896113 0.19388631
-0.072271667 0.015075864 0.19376189
-0.073725671 0.015256078 0.19363713
-0.075183347 0.015436753 0.19351211
-0.076644644 0.015617874 0.19338673
-0.078109697 0.015799444 0.19326112
-0.079578415 0.015981503 0.19313508
-0.08105088 0.016163966 0.19300875
-0.082527056 0.01634695 0.19288212
-0.08400698 0.016530352 0.19275516
-0.085490651 0.016714273 0.19262791
-0.086978108 0.016898599 0.19250026
-0.088469371 0.017083431 0.19237238
-0.089964405 0.017268723 0.19224408
-0.091463283 0.017454496 0.19211552
-0.092965968 0.017640727 0.19198662
-0.094472498 0.017827451 0.19185743
-0.095982902 0.018014651 0.19172779
-0.097497217 0.018202312 0.19159788
-0.099015385 0.018390467 0.19146767
-0.10053745 0.018579112 0.19133702
-0.10206341 0.018768279 0.19120625
-0.10359333 0.018957892 0.19107494
-0.10512721 0.019148013 0.19094342
-0.10666506 0.01933861 0.19081149
-0.10820688 0.019529685 0.19067916
-0.10975272 0.019721296 0.19054657
-0.11130256 0.019913383 0.19041368
-0.11285642 0.020105945 0.19028035
-0.11441432 0.02029903 0.19014671
-0.11597631 0.020492623 0.19001272
-0.11754235 0.020686721 0.1898784
-0.11911249 0.020881327 0.18974367
-0.12068672 0.021076424 0.18960863
-0.12226511 0.021272056 0.18947324
-0.12384763 0.021468211 0.18933749
-0.12543431 0.021664856 0.18920135
-0.12702516 0.02186201 0.18906489
-0.12862021 0.0220597 0.18892801
-0.1302194 0.022257909 0.18879086
-0.13182284 0.022456655 0.18865335
-0.13343053 0.02265594 0.18851542
-0.13504249 0.022855714 0.18837717
-0.13665873 0.02305604 0.18823853
-0.13827924 0.023256889 0.1880995
-0.13990405 0.023458272 0.18796009
-0.14153321 0.023660176 0.18782035
-0.14316674 0.023862617 0.18768021
-0.14480458 0.024065625 0.18753967
-0.14644681 0.024269154 0.18739885
-0.14809345 0.02447325 0.18725762
0.14911135 -0.092570439 0.10968867
0.14911056 -0.086601742 0.11724171
0.1491096 -0.08084666 0.1245245
0.14819023 -0.079440877 0.12607884
0.14719054 -0.078427061 0.12711757
0.14619473 -0.07741724 0.12815225
0.1452029 -0.076411381 0.12918282
0.14421494 -0.075409472 0.13020936
0.1435197 -0.073221266 0.13280863
0.14910005 -0.045683373 0.16902056
0.14909926 -0.041284993 0.17458656
0.070067167 -0.0079917191 0.19741109
0.068988636 -0.0077548749 0.1974473
0.067908674 -0.0075177033 0.1974836
0.066827282 -0.0072802342 0.19751999
0.0657444 -0.0070424522 0.19755635
0.064660139 -0.0068042977 0.19759279
0.063574381 -0.0065658893 0.19762927
0.062487163 -0.0063271234 0.19766584
0.061398499 -0.0060880599 0.19770235
0.06030836 -0.0058486541 0.19773903
0.059216779 -0.0056089647 0.19777569
0.058123723 -0.0053689177 0.19781244
0.057029188 -0.0051285578 0.19784918
0.055933177 -0.0048878998 0.19788605
0.054835711 -0.0046468996 0.19792289
0.053736735 -0.0044055711 0.19795978
0.052636303 -0.0041639153 0.19799677
0.051534407 -0.0039219162 0.19803378
0.050430991 -0.0036796047 0.19807091
0.049326088 -0.0034369652 0.19810805
0.048219696 -0.0031940129 0.19814521
0.047111809 -0.0029507028 0.19818246
0.046002403 -0.0027071098 0.19821969
0.044891495 -0.0024631443 0.19825703
0.043779109 -0.0022188509 0.1982944
0.042665206 -0.0019742448 0.19833186
0.041549779 -0.0017293257 0.19836929
0.040432852 -0.001484034 0.19840685
0.039314371 -0.0012384296 0.19844443
0.038194418 -0.00099248241 0.19848201
0.037072912 -0.00074617768 0.19851977
0.035949904 -0.00049956003 0.19855747
0.034825329 -0.00025262946 0.19859523
0.033699237 -5.3264503e-06 0.19863307
0.03257161 0.00024230436 0.19867101
0.031442445 0.00049026299 0.19870889
0.030311717 0.0007385494 0.19874689
0.029179454 0.00098720833 0.19878492
0.028045656 0.0012361801 0.19882306
0.026910296 0.0014855093 0.19886121
0.025773384 0.0017351665 0.19889936
0.024634905 0.0019851963 0.19893768
0.023494866 0.0022355686 0.19897592
0.022353275 0.0024862536 0.19901431
0.021210091 0.0027372967 0.19905278
0.020065326 0.0029886523 0.19909123
0.018919012 0.0032403953 0.19912976
0.017771132 0.0034924811 0.19916829
0.016621629 0.0037448946 0.19920692
0.015470562 0.0039976663 0.19924557
0.014317915 0.0042507946 0.19928429
0.013163659 0.0045042662 0.19932309
0.012007808 0.00475808 0.19936192
0.010850392 0.0050122673 0.19940087
0.009691353 0.0052667963 0.19943976
0.0085307043 0.0055216835 0.19947875
0.0073684305 0.005776898 0.19951779
0.0062045632 0.0060324557 0.19955692
0.0050391015 0.0062884297 0.19959608
0.0038720004 0.0065447022 0.19963533
0.0027032602 0.0068013626 0.19967458
0.0015329256 0.0070583499 0.19971389
0.00036095205 0.0073157107 0.19975322
-0.00088217197 0.0075070439 0.19969165
-0.0021611617 0.0076670842 0.19958174
-0.0034431764 0.007827512 0.19947156
-0.0047282162 0.0079883123 0.19936109
-0.0060163103 0.0081495009 0.19925043
-0.0073074447 0.0083110454 0.19913945
-0.0086016329 0.0084730228 0.19902822
-0.0098988768 0.0086353421 0.19891676
-0.011199234 0.0087980647 0.19880503
-0.012502692 0.0089611905 0.19869301
-0.013809264 0.009124672 0.19858071
-0.015118903 0.0092885559 0.19846818
-0.016431719 0.0094528431 0.19835526
-0.017747648 0.0096175168 0.19824222
-0.019066721 0.0097825788 0.19812885
-0.020388953 0.0099480422 0.19801527
-0.021714391 0.010113908 0.19790134
-0.023043014 0.010280131 0.19778708
-0.024374798 0.010446772 0.19767267
-0.025709815 0.010613846 0.19755796
-0.02704802 0.01078132 0.19744289
-0.028389484 0.010949167 0.19732767
-0.029734179 0.011117446 0.19721201
-0.031082116 0.011286113 0.1970962
-0.032433335 0.011455183 0.19698006
-0.033787828 0.011624714 0.19686368
-0.035145607 0.011794602 0.19674698
-0.036506694 0.011964938 0.19663006
-0.037871104 0.012135645 0.19651276
-0.039238814 0.012306816 0.19639519
-0.040609866 0.012478373 0.19627738
-0.04198429 0.012650361 0.19615924
-0.043362059 0.012822784 0.1960409
-0.044743188 0.012995621 0.19592217
-0.046127722 0.013168877 0.19580325
-0.047515649 0.013342565 0.19568393
-0.048906993 0.01351667 0.19556436
-0.050301779 0.013691206 0.19544449
-0.051699992 0.01386616 0.19532433
-0.053101648 0.014041577 0.19520384
-0.054506753 0.014217394 0.19508308
-0.055915397 0.014393644 0.19496202
-0.05732752 0.014570327 0.19484061
-0.058743127 0.014747457 0.19471893
-0.060162261 0.014925017 0.19459692
-0.061584927 0.015102996 0.19447461
-0.063011102 0.015281466 0.19435206
-0.064440869 0.015460353 0.19422913
-0.065874189 0.015639702 0.19410589
-0.067311108 0.015819468 0.19398239
-0.068751574 0.015999727 0.19385859
-0.070195682 0.016180402 0.19373444
-0.071643427 0.016361553 0.19360998
-0.073094785 0.016543137 0.19348526
-0.074549794 0.016725183 0.19336018
-0.076008491 0.01690769 0.19323477
-0.077470846 0.01709066 0.19310907
-0.078936875 0.017274106 0.19298303
-0.080406614 0.017457986 0.19285673
-0.0818801 0.017642342 0.19273007
-0.083357312 0.017827172 0.19260308
-0.084838264 0.018012481 0.19247574
-0.086322986 0.018198237 0.19234812
-0.087811463 0.018384483 0.19222015
-0.089303724 0.018571192 0.19209188
-0.090799809 0.018758377 0.19196326
-0.09229973 0.01894604 0.19183433
-0.093803473 0.019134179 0.19170505
-0.095311001 0.019322826 0.19157547
-0.09682247 0.019511933 0.19144556
-0.098337777 0.019701518 0.19131529
-0.09985701 0.019891609 0.1911847
-0.10138014 0.020082176 0.19105375
-0.1029072 0.020273264 0.19092253
-0.10443819 0.020464802 0.19079086
-0.1059731 0.020656845 0.19065899
-0.10751203 0.020849409 0.19052669
-0.10905492 0.021042434 0.19039398
-0.11060181 0.021235997 0.1902611
-0.11215272 0.021430051 0.19012776
-0.11370766 0.021624612 0.1899941
-0.11526665 0.021819679 0.18986011
-0.11682972 0.022015236 0.1897257
-0.11839684 0.022211302 0.18959099
-0.11996809 0.022407889 0.18945587
-0.12154341 0.022605013 0.18932047
-0.12312283 0.022802642 0.18918476
-0.12470645 0.023000779 0.18904865
-0.12629423 0.023199452 0.18891215
-0.12788616 0.023398615 0.18877527
-0.1294823 0.023598332 0.18863806
-0.13108264 0.023798568 0.18850055
-0.1326872 0.023999328 0.18836257
-0.13429601 0.024200622 0.18822426
-0.13590908 0.024402423 0.18808556
-0.13752644 0.024604807 0.18794659
-0.13914807 0.024807695 0.18780723
-0.14077404 0.025011148 0.18766743
-0.14240432 0.02521511 0.18752727
-0.14403893 0.025419623 0.18738675
-0.14567792 0.025624702 0.18724588
-0.14732128 0.025830332 0.18710461
-0.14896905 0.026036514 0.18696293
0.14911185 -0.092823334 0.10728526
0.14911096 -0.086824059 0.11491504
0.14911002 -0.081039965 0.12227106
0.14815362 -0.079776667 0.12364173
0.14714916 -0.078757271 0.12469029
0.14614862 -0.077741921 0.12573475
0.14515209 -0.076730557 0.12677521
0.14415951 -0.075723194 0.12781134
0.14317079 -0.074719824 0.12884349
0.14218596 -0.073720381 0.12987155
0.1490996 -0.041303426 0.17280594
0.068286985 -0.0063753058 0.19728604
0.067206889 -0.0061373147 0.19732222
0.066125333 -0.0058989665 0.1973584
0.065042339 -0.0056603202 0.1973947
0.063957892 -0.005421361 0.19743103
0.062871985 -0.0051820739 0.19746736
0.061784636 -0.004942474 0.19750378
0.06069582 -0.0047025462 0.19754025
0.05960555 -0.0044622752 0.19757679
0.058513805 -0.0042217216 0.19761327
0.057420596 -0.0039808252 0.1976499
0.056325912 -0.0037396161 0.19768661
0.055229787 -0.0034980495 0.19772327
0.054132152 -0.0032561847 0.19776008
0.053033046 -0.0030140071 0.19779685
0.051932476 -0.002771457 0.19783375
0.050830401 -0.0025286088 0.19787061
0.049726855 -0.0022854328 0.1979076
0.048621818 -0.0020419438 0.19794455
0.047515254 -0.0017981273 0.19798169
0.046407223 -0.0015539532 0.19801873
0.045297686 -0.0013094512 0.19805586
0.044186659 -0.0010646214 0.19809309
0.04307409 -0.00081949367 0.19813037
0.041960053 -0.00057399337 0.19816762
0.040844481 -0.00032816533 0.19820502
0.039727386 -8.2039303e-05 0.1982424
0.03860883 0.00016451883 0.19827989
0.037488714 0.00041131533 0.19831744
0.036367048 0.00065845455 0.19835499
0.035243873 0.00090596627 0.19839251
0.034119181 0.0011537909 0.19843018
0.032992937 0.0014019879 0.19846788
0.031865157 0.001650483 0.19850567
0.030735847 0.0018993207 0.19854349
0.029605001 0.002148516 0.19858128
0.028472604 0.0023980392 0.19861925
0.027338672 0.0026479349 0.19865721
0.026203146 0.0028981434 0.1986953
0.025066115 0.0031487246 0.19873342
0.023927506 0.0033996333 0.19877154
0.022787329 0.0036508697 0.19880965
0.021645576 0.0039024639 0.19884795
0.020502271 0.0041544009 0.19888622
0.019357387 0.0044066655 0.19892454
0.018210925 0.0046593174 0.1989629
0.017062882 0.0049122525 0.19900131
0.015913261 0.0051656049 0.19903982
0.014762043 0.005419285 0.19907841
0.013609262 0.0056733079 0.19911698
0.012454901 0.0059276884 0.19915569
0.0112989 0.0061824112 0.1991944
0.010141321 0.0064374921 0.19923311
0.008982148 0.0066929152 0.19927195
0.0078213643 0.0069487114 0.19931078
0.0066589727 0.0072048497 0.19934973
0.0054949713 0.0074613462 0.19938865
0.0043293601 0.0077182148 0.19942772
0.0031621251 0.0079753809 0.19946685
0.0019932804 0.0082329651 0.19950601
0.00082279695 0.0084908912 0.19954517
-0.00037823291 0.0087216236 0.19954222
-0.0016551217 0.0088829156 0.19943225
-0.0029349907 0.0090445802 0.19932202
-0.0042178999 0.009206648 0.19921157
-0.0055038328 0.0093690567 0.19910079
-0.0067928066 0.0095318845 0.19898987
-0.0080848495 0.009695054 0.19887859
-0.0093799476 0.0098586697 0.19876701
-0.010678099 0.010022644 0.19865525
-0.011979382 0.010186975 0.19854316
-0.013283717 0.010351754 0.19843078
-0.014591197 0.010516875 0.19831821
-0.015901778 0.010682428 0.19820532
-0.017215472 0.010848369 0.19809219
-0.01853231 0.011014712 0.19797882
-0.019852309 0.011181458 0.19786519
-0.021175463 0.011348589 0.19775116
-0.022501823 0.011516125 0.19763696
-0.023831328 0.011684061 0.19752249
-0.025164066 0.011852386 0.19740766
-0.02649999 0.012021142 0.19729266
-0.027839135 0.012190287 0.19717732
-0.029181529 0.012359862 0.19706169
-0.030527141 0.012529841 0.19694582
-0.031876016 0.012700221 0.19682974
-0.033228192 0.012871004 0.19671324
-0.034583606 0.013042233 0.19659647
-0.035942338 0.013213836 0.19647947
-0.037304372 0.01338587 0.19636217
-0.038669698 0.013558351 0.19624466
-0.040038392 0.013731219 0.1961267
-0.041410379 0.013904535 0.19600856
-0.042785741 0.014078268 0.1958901
-0.044164464 0.014252432 0.19577143
-0.045546576 0.014427014 0.1956524
-0.046932064 0.014602013 0.19553307
-0.048320942 0.014777473 0.19541347
-0.049713254 0.014953322 0.19529358
-0.051109046 0.015129587 0.19517332
-0.052508228 0.01530633 0.19505286
-0.053910863 0.015483474 0.19493195
-0.055316996 0.015661079 0.19481087
-0.056726601 0.015839119 0.19468948
-0.058139693 0.016017558 0.19456771
-0.059556298 0.016196491 0.19444573
-0.060976386 0.016375842 0.19432339
-0.062400036 0.016555667 0.19420081
-0.063827217 0.016735924 0.19407782
-0.065257967 0.016916614 0.19395462
-0.066692278 0.017097767 0.19383106
-0.068130188 0.017279366 0.1937072
-0.069571689 0.017461414 0.19358301
-0.071016788 0.017643951 0.19345859
-0.072465524 0.01782692 0.19333375
-0.073917903 0.018010337 0.19320861
-0.075373918 0.018194215 0.1930832
-0.076833606 0.018378586 0.19295746
-0.078296974 0.018563403 0.1928314
-0.079764031 0.018748682 0.19270504
-0.081234805 0.018934436 0.19257832
-0.082709275 0.019120669 0.19245133
-0.08418753 0.019307364 0.19232398
-0.085669495 0.019494521 0.19219634
-0.087155208 0.019682199 0.19206837
-0.088644728 0.019870309 0.1919401
-0.09013807 0.020058895 0.19181138
-0.091635182 0.020247974 0.19168246
-0.093136117 0.020437557 0.19155312
-0.094640896 0.020627605 0.19142354
-0.096149519 0.020818127 0.19129363
-0.097662002 0.021009158 0.19116333
-0.099178396 0.021200664 0.19103268
-0.10069867 0.021392662 0.19090173
-0.10222284 0.021585152 0.19077042
-0.10375093 0.021778179 0.19063881
-0.10528298 0.021971652 0.19050688
-0.10681898 0.022165647 0.19037452
-0.10835895 0.022360148 0.19024187
-0.10990293 0.022555126 0.19010887
-0.1114509 0.022750655 0.1899755
-0.11300287 0.022946676 0.18984181
-0.11455891 0.023143189 0.18970782
-0.11611894 0.023340238 0.18957347
-0.11768308 0.023537779 0.18943867
-0.11925129 0.023735825 0.18930367
-0.12082359 0.023934424 0.18916816
-0.12240002 0.024133515 0.18903235
-0.12398057 0.024333155 0.18889624
-0.12556528 0.024533287 0.18875977
-0.12715413 0.024733957 0.18862292
-0.1287472 0.024935117 0.18848565
-0.13034442 0.02513686 0.18834805
-0.13194588 0.025339123 0.18821016
-0.13355152 0.025541924 0.18807179
-0.13516147 0.02574526 0.18793312
-0.13677566 0.025949117 0.18779409
-0.13839412 0.026153512 0.18765467
-0.1400169 0.026358472 0.18751487
-0.14164394 0.026563967 0.18737471
-0.14327535 0.026770014 0.18723422
-0.14491107 0.026976643 0.18709335
-0.14655118 0.027183749 0.18695199
-0.14819567 0.02739145 0.18681037
0.14911234 -0.093078628 0.10485998
0.14911135 -0.087048374 0.11256751
0.14911038 -0.081234969 0.11999795
0.14811665 -0.080115706 0.12118086
0.14710735 -0.0790907 0.12223944
0.14610209 -0.078069754 0.12329391
0.14510082 -0.077052832 0.12434414
0.14410351 -0.076039985 0.12539017
0.14311014 -0.075031124 0.12643206
0.14212072 -0.074026227 0.12746987
0.14909993 -0.041322034 0.17101163
0.14909916 -0.037026145 0.17650241
0.067585766 -0.0049965712 0.1971249
0.066505507 -0.0047577159 0.19716093
0.065423824 -0.0045185182 0.19719708
0.064340673 -0.0042790226 0.1972332
0.063256063 -0.004039214 0.19726935
0.062170025 -0.0037990774 0.19730556
0.06108252 -0.0035585982 0.19734192
0.059993546 -0.0033178062 0.19737828
0.058903128 -0.003076701 0.19741458
0.057811245 -0.0028352684 0.19745106
0.056717888 -0.0025935376 0.19748756
0.055623073 -0.0023514642 0.19752407
0.054526765 -0.0021090631 0.19756067
0.053429015 -0.0018662893 0.19759735
0.052329756 -0.0016232474 0.19763404
0.051229022 -0.0013798629 0.19767073
0.050126802 -0.0011361653 0.19770753
0.049023122 -0.00089211029 0.19774431
0.047917914 -0.0006477721 0.19778118
0.046811253 -0.00040304658 0.19781813
0.045703072 -0.00015802302 0.19785514
0.044593386 8.7358116e-05 0.19789219
0.043482203 0.00033305213 0.1979292
0.042369507 0.00057905907 0.19796637
0.041255306 0.00082540867 0.19800353
0.040139627 0.0010721307 0.19804081
0.039022382 0.0013191657 0.1980781
0.037903652 0.0015665434 0.19811538
0.036783401 0.0018142638 0.19815281
0.035661627 0.0020622823 0.19819024
0.034538306 0.002310673 0.1982277
0.033413447 0.0025593766 0.19826525
0.032287084 0.0028084232 0.19830281
0.031159174 0.0030578421 0.19834048
0.030029729 0.0033075442 0.19837818
0.028898716 0.0035576336 0.19841588
0.027766187 0.0038080656 0.19845369
0.026632106 0.0040588253 0.19849157
0.025496474 0.0043099578 0.19852945
0.024359265 0.0045614028 0.19856745
0.02322052 0.004813191 0.19860542
0.022080198 0.0050653219 0.19864354
0.020938324 0.0053177951 0.19868162
0.019794853 0.0055706408 0.19871971
0.018649822 0.0058237994 0.19875792
0.017503239 0.0060773459 0.19879621
0.016355064 0.0063312193 0.19883457
0.015205307 0.0065854364 0.19887292
0.014053985 0.0068399953 0.19891131
0.01290104 0.0070949569 0.19894981
0.011746545 0.0073502315 0.19898838
0.010590412 0.0076058637 0.19902694
0.0094327126 0.0078618377 0.1990656
0.008273405 0.0081181852 0.19910425
0.0071124882 0.0083748903 0.19914302
0.0059499615 0.0086319232 0.19918177
0.0047858255 0.0088893278 0.1992206
0.0036200809 0.0091471057 0.19925952
0.0024526964 0.0094052115 0.1992985
0.001283718 0.009663674 0.19933748
0.00011310031 0.009922524 0.19937655
-0.0011503035 0.010095811 0.19928315
-0.0024280713 0.010258714 0.19917288
-0.0037088345 0.010422003 0.19906235
-0.0049926378 0.010585679 0.19895154
-0.0062794499 0.010749742 0.1988405
-0.0075693177 0.010914193 0.19872919
-0.0088622551 0.011079017 0.19861761
-0.010158246 0.011244243 0.19850582
-0.011457308 0.01140987 0.19839373
-0.012759454 0.011575856 0.19828132
-0.014064729 0.011742258 0.19816867
-0.015373088 0.011909079 0.19805574
-0.016684579 0.012076271 0.19794261
-0.017999196 0.012243866 0.19782919
-0.019316927 0.012411907 0.19771546
-0.020637849 0.012580276 0.19760144
-0.021961929 0.012749093 0.19748718
-0.023289198 0.012918312 0.1973727
-0.024619626 0.013087932 0.19725785
-0.025953287 0.013257955 0.19714275
-0.027290152 0.013428396 0.19702736
-0.028630229 0.013599223 0.19691172
-0.029973537 0.013770497 0.19679582
-0.031320088 0.013942161 0.19667962
-0.032669924 0.014114269 0.19656318
-0.034023002 0.014286751 0.19644636
-0.035379365 0.014459694 0.19632936
-0.036739051 0.014633024 0.19621196
-0.038102038 0.014806772 0.19609427
-0.0394683 0.014981011 0.19597644
-0.040837932 0.015155579 0.19585827
-0.042210903 0.015330622 0.19573972
-0.043587212 0.015506083 0.19562098
-0.044966903 0.015681991 0.19550192
-0.046349958 0.015858317 0.19538257
-0.047736406 0.016035089 0.19526297
-0.04912626 0.016212277 0.19514301
-0.050519556 0.016389871 0.19502267
-0.051916294 0.016567923 0.19490215
-0.053316478 0.016746424 0.19478133
-0.054720096 0.016925355 0.19466016
-0.056127168 0.017104721 0.19453868
-0.057537757 0.017284531 0.19441697
-0.058951821 0.017464805 0.19429493
-0.060369406 0.017645497 0.19417253
-0.061790515 0.017826619 0.19404987
-0.063215137 0.018008249 0.19392687
-0.064643316 0.018190309 0.19380361
-0.066075049 0.018372817 0.19368005
-0.067510359 0.018555772 0.19355619
-0.068949252 0.018739188 0.19343194
-0.070391767 0.018923067 0.19330743
-0.07183785 0.019107407 0.19318256
-0.073287614 0.019292211 0.19305748
-0.074740976 0.01947749 0.19293204
-0.076198012 0.019663217 0.19280627
-0.077658705 0.019849405 0.19268021
-0.079123117 0.02003607 0.19255379
-0.080591142 0.020223256 0.19242707
-0.08206293 0.02041086 0.19230008
-0.083538435 0.020598941 0.19217262
-0.085017696 0.020787511 0.192045
-0.086500719 0.020976515 0.19191697
-0.087987475 0.021166041 0.19178861
-0.089478038 0.021356057 0.1916599
-0.090972356 0.021546567 0.19153097
-0.092470534 0.021737522 0.19140163
-0.093972489 0.021928985 0.19127202
-0.095478281 0.022120953 0.19114202
-0.096987985 0.022313369 0.1910117
-0.098501511 0.022506321 0.19088107
-0.10001896 0.022699764 0.19075003
-0.10154027 0.022893684 0.19061881
-0.10306549 0.023088112 0.19048709
-0.10459468 0.023283016 0.19035506
-0.10612778 0.023478456 0.19022277
-0.1076648 0.023674402 0.19009015
-0.10920584 0.023870856 0.18995711
-0.11075085 0.024067815 0.18982372
-0.1122999 0.024265252 0.18969005
-0.11385296 0.02446324 0.18955603
-0.11541004 0.024661735 0.18942159
-0.11697119 0.024860751 0.18928686
-0.11853641 0.025060259 0.18915173
-0.12010569 0.025260288 0.18901628
-0.1216791 0.025460867 0.18888041
-0.12325663 0.025661955 0.18874428
-0.12483826 0.025863579 0.18860772
-0.12642404 0.026065722 0.1884709
-0.12801403 0.026268387 0.18833363
-0.12960815 0.026471619 0.188196
-0.13120651 0.026675344 0.18805811
-0.13280906 0.026879633 0.18791974
-0.13441584 0.02708446 0.18778104
-0.13602686 0.027289808 0.18764195
-0.13764216 0.027495751 0.18750253
-0.13926171 0.027702188 0.18736279
-0.14088561 0.027909203 0.1872226
-0.1425138 0.028116755 0.18708202
-0.14414635 0.028324874 0.18694115
-0.14578323 0.028533529 0.18679988
-0.14742446 0.028742736 0.1866582
0.14911276 -0.093336575 0.10241219
0.14911175 -0.087274648 0.11019918
0.1490975 -0.081492931 0.11762288
0.14807929 -0.080458052 0.11869594
0.14706516 -0.079427354 0.11976469
0.14605506 -0.078400761 0.12082916
0.14504901 -0.077378236 0.12188941
0.14404696 -0.076359816 0.12294546
0.14304891 -0.075345434 0.12399727
0.1420548 -0.074335061 0.12504491
0.14106466 -0.073328704 0.12608844
0.14909948 -0.037028365 0.17474326
0.066884965 -0.0036186413 0.19696379
0.065804563 -0.0033789368 0.1969997
0.064722694 -0.0031388896 0.19703567
0.06363941 -0.0028985445 0.19707173
0.062554665 -0.0026578864 0.19710779
0.06146846 -0.0024168708 0.19714391
0.060380813 -0.002175587 0.19718009
0.059291691 -0.0019339605 0.19721627
0.058201119 -0.0016919913 0.19725254
0.057109103 -0.0014496943 0.19728887
0.0560156 -0.0012070844 0.19732526
0.054920647 -0.000964117 0.19736171
0.053824209 -0.00072086637 0.19739816
0.052726291 -0.00047725826 0.19743469
0.051626898 -0.000233367 0.19747123
0.050526019 1.0911644e-05 0.19750789
0.04942365 0.00025545849 0.19754449
0.048319813 0.00050039269 0.1975812
0.047214463 0.00074561004 0.19761798
0.046107654 0.00099118485 0.19765472
0.044999335 0.0012370877 0.19769162
0.043889496 0.0014833329 0.19772851
0.042778187 0.0017298913 0.1977655
0.041665357 0.0019768071 0.19780248
0.040551018 0.0022240358 0.19783962
0.039435174 0.0024716074 0.19787672
0.038317829 0.0027195064 0.19791386
0.037198935 0.0029677486 0.19795108
0.036078531 0.003216333 0.19798827
0.034956593 0.0034652457 0.19802558
