# .PCD v0.7 - Point Cloud Data file format
VERSION 0.7
FIELDS x y z
SIZE 4 4 4
TYPE F F F
COUNT 1 1 1
WIDTH 1371
HEIGHT 1
VIEWPOINT 0 0 0 1 0 0 0
POINTS 1371
DATA ascii
0.14180256 -0.074929222 0.11949864
0.14115858 -0.074583158 0.11813247
0.14051102 -0.074235156 0.11675864
0.13985986 -0.073885173 0.11537725
0.13920504 -0.073533237 0.11398807
0.13854651 -0.073179349 0.11259115
0.13788436 -0.072823465 0.11118633
0.1372184 -0.072465599 0.10977355
0.13654871 -0.072105676 0.10835281
0.10917096 0.07301186 0.14662343
0.10847655 0.073582426 0.14529607
0.10777798 0.074156389 0.1439608
0.10707521 0.074733794 0.14261749
0.10636821 0.075314671 0.14126608
0.10565695 0.07589905 0.13990653
0.10494137 0.076487005 0.13853875
0.10422145 0.077078491 0.1371626
0.10349715 0.077673614 0.13577816
0.10276841 0.078272343 0.1343852
0.10203521 0.078874767 0.13298368
0.1012975 0.079480886 0.13157356
0.10055524 0.080090746 0.13015482
0.09980838 0.080704361 0.12872717
0.099056885 0.081321806 0.12729073
0.098300725 0.081943095 0.12584537
0.097539827 0.082568273 0.12439093
0.096774161 0.08319734 0.12292737
0.096003681 0.083830371 0.12145466
0.095228374 0.084467396 0.11997265
0.094448134 0.085108474 0.11848131
0.093662933 0.085753575 0.11698037
0.092872754 0.086402804 0.11547002
0.092077538 0.08705619 0.11394998
0.091020808 0.087448925 0.11157876
0.088798091 0.086667418 0.10540336
0.086508498 0.085862398 0.099042088
0.084148914 0.085032746 0.092486411
0.081716657 0.084177911 0.085729092
0.07920821 0.083296567 0.078760296
0.076619431 0.082387045 0.071568429
0.073946491 0.081447899 0.064142555
0.1491171 -0.094054818 0.12024781
0.14911793 -0.090744749 0.12272069
0.1491188 -0.087481037 0.12515888
0.14911962 -0.084262788 0.12756315
0.14912046 -0.081089109 0.1299341
0.14883125 -0.079290092 0.13054302
0.14822099 -0.078963682 0.12923792
0.1476074 -0.078635499 0.12792566
0.14699043 -0.078305557 0.12660626
0.14637014 -0.077973768 0.12527964
0.14574639 -0.077640191 0.12394571
0.14511928 -0.077304795 0.1226044
0.14448866 -0.076967478 0.12125584
0.14385454 -0.076628357 0.11989969
0.14321697 -0.076287344 0.11853608
0.1425758 -0.075944409 0.11716488
0.14193104 -0.075599596 0.11578605
0.14128272 -0.075252846 0.1143994
0.14063071 -0.074904114 0.1130051
0.13997506 -0.07455346 0.11160293
0.13931572 -0.074200839 0.11019281
0.13865264 -0.073846176 0.10877475
0.1379858 -0.073489547 0.10734856
0.13731515 -0.073130846 0.10591432
0.13664073 -0.072770104 0.10447198
0.1359624 -0.07240735 0.1030212
0.13528019 -0.07204248 0.10156226
0.13459404 -0.071675479 0.10009491
0.13390398 -0.071306407 0.098619014
0.11006562 0.073199779 0.14598262
0.10937358 0.073771119 0.14465278
0.10867737 0.074345902 0.14331499
0.10797699 0.074924126 0.14196911
0.1072724 0.075505853 0.14061522
0.10656357 0.076091066 0.13925308
0.10585041 0.076679841 0.13788268
0.10513294 0.077272177 0.13650399
0.1044111 0.077868149 0.1351169
0.10368483 0.078467742 0.13372132
0.10295412 0.079071045 0.13231719
0.10221891 0.079678029 0.13090438
0.10147916 0.080288753 0.12948287
0.10073482 0.080903292 0.12805256
0.099985868 0.081521615 0.12661341
0.099232256 0.082143798 0.12516519
0.098473936 0.082769901 0.12370801
0.097710863 0.083399877 0.12224168
0.096942976 0.084033832 0.1207661
0.096170247 0.084671795 0.11928129
0.095392644 0.085313812 0.117787
0.094610065 0.085959867 0.11628327
0.093822539 0.086610064 0.11476991
0.093029991 0.087264404 0.11324698
0.091351703 0.087007672 0.10879606
0.089121148 0.086215079 0.10254368
0.086823061 0.085398495 0.096101969
0.084454402 0.084556907 0.089462578
0.082012728 0.083689958 0.082618862
0.079493627 0.082795486 0.075558186
0.076893404 0.081872225 0.068270087
0.14911586 -0.095771343 0.11536178
0.14911672 -0.09241502 0.11789495
0.1491176 -0.089106247 0.12039217
0.14911848 -0.08584401 0.12285426
0.14911924 -0.082627639 0.12528166
0.1490072 -0.079976365 0.12699434
0.14839302 -0.079649493 0.12567008
0.14777544 -0.079320863 0.1243386
0.14715452 -0.078990385 0.12299982
0.14653017 -0.078658119 0.12165365
0.14590234 -0.078324005 0.12029999
0.14527109 -0.077987999 0.11893892
0.1446363 -0.07765016 0.11757025
0.14399795 -0.077310473 0.11619392
0.14335608 -0.076968834 0.11480993
0.14271058 -0.076625317 0.11341816
0.14206146 -0.076279849 0.11201856
0.14140865 -0.075932428 0.11061111
0.14075218 -0.075583071 0.10919574
0.14009199 -0.075231716 0.10777229
0.13942805 -0.07487835 0.1063408
0.13876033 -0.074523002 0.10490111
0.13808879 -0.074165598 0.10345316
0.1374134 -0.073806152 0.10199699
0.13673411 -0.073444635 0.10053241
0.13605092 -0.073081061 0.099059314
0.1353638 -0.072715327 0.09757787
0.13467266 -0.072347507 0.096087694
0.13398623 -0.071946025 0.09463492
0.13341749 -0.071105689 0.093814075
0.11164661 0.072819054 0.14666566
0.11096105 0.073387831 0.14534125
0.11027136 0.073959991 0.1440089
0.10957757 0.074535593 0.14266863
0.1088796 0.075114638 0.14132023
0.10817739 0.075697169 0.13996375
0.10747099 0.076283246 0.13859913
0.10676029 0.076872855 0.13722613
0.10604525 0.077466041 0.13584477
0.10532585 0.078062862 0.13445508
0.10460207 0.078663334 0.13305685
0.10387386 0.079267472 0.13165006
0.10314114 0.07987532 0.13023454
0.10240391 0.080486953 0.12881035
0.1016621 0.081102386 0.12737733
0.10091569 0.081721589 0.12593538
0.10016462 0.082344696 0.12448445
0.099408865 0.082971707 0.12302449
0.098648369 0.083602592 0.12155527
0.09788309 0.084237501 0.12007692
0.097112998 0.084876388 0.11858922
0.096337974 0.085519329 0.11709207
0.095558077 0.086166352 0.11558545
0.094773218 0.086817503 0.11406919
0.093859568 0.087341815 0.11212802
0.091686338 0.086561367 0.10598162
0.089447916 0.085757509 0.09965089
0.087141305 0.084929168 0.09312734
0.084764019 0.084075853 0.086404145
0.08231242 0.083196074 0.079470992
0.079782635 0.08228825 0.072316736
0.077170834 0.081350997 0.064930558
0.1491155 -0.094119906 0.11296916
0.1491164 -0.09076488 0.11552736
0.14911725 -0.087457567 0.11804914
0.14911795 -0.08419773 0.1205343
0.14911847 -0.080984205 0.12298381
0.14856753 -0.080345288 0.12205064
0.147946 -0.080016136 0.12069955
0.14732103 -0.079685211 0.11934093
0.14669256 -0.079352438 0.1179747
0.1460606 -0.079017803 0.11660096
0.14542511 -0.07868129 0.11521953
0.14478607 -0.078342929 0.11383039
0.14414348 -0.078002602 0.11243346
0.14349721 -0.077660441 0.11102861
0.14284733 -0.077316314 0.10961586
0.14219378 -0.07697022 0.1081951
0.14153649 -0.076622188 0.10676625
0.14087546 -0.07627216 0.1053293
0.14021069 -0.075920105 0.10388416
0.13954209 -0.075566098 0.1024307
0.13886964 -0.07521002 0.10096896
0.13819334 -0.074851885 0.099498779
0.13751313 -0.07449168 0.098020107
0.13682894 -0.074129418 0.096532851
0.13614084 -0.073765025 0.095037013
0.13553058 -0.073094219 0.093975246
0.13496327 -0.072254643 0.093152761
0.13439451 -0.071412884 0.09232825
0.13382438 -0.070569009 0.091501653
0.13325273 -0.069723018 0.09067288
0.13267963 -0.068874851 0.089842021
0.11254044 0.073006466 0.14602619
0.11185724 0.073576048 0.14469934
0.11116995 0.074149042 0.14336452
0.11047854 0.074725419 0.14202169
0.10978293 0.075305313 0.14067081
0.10908319 0.075888693 0.13931176
0.10837919 0.076475561 0.13794449
0.10767092 0.077066034 0.13656896
0.10695836 0.077660084 0.13518506
0.10624143 0.078257754 0.13379267
0.10552013 0.078859061 0.13239181
0.10479441 0.079464108 0.13098231
0.10406418 0.080072835 0.12956411
0.10332946 0.080685347 0.12813723
0.1025902 0.081301659 0.12670147
0.10184634 0.081921771 0.12525678
0.10109784 0.082545772 0.12380308
0.10034467 0.083173677 0.12234032
0.099586755 0.083805501 0.1208683
0.098824084 0.084441334 0.11938712
0.098056585 0.085081175 0.11789656
0.097284228 0.085725039 0.11639655
0.096506968 0.086373001 0.11488697
0.095724761 0.087025121 0.1133678
0.094205379 0.086901441 0.10935777
0.092024833 0.086109966 0.10313502
0.089778513 0.085294634 0.09672451
0.087463483 0.084454477 0.09011814
0.085077301 0.083589002 0.083308995
0.082615733 0.082696185 0.076284796
0.080075145 0.081774727 0.069035172
0.14911427 -0.095860541 0.10794017
0.14911516 -0.092458025 0.11056134
0.14911604 -0.089104399 0.11314484
0.14911661 -0.085800037 0.11568961
0.14911717 -0.082542434 0.11819831
0.14874458 -0.081051201 0.11837843
0.14811899 -0.080721632 0.11700717
0.14748991 -0.08039023 0.1156283
0.14685731 -0.080056965 0.11424175
0.14622116 -0.079721823 0.11284739
0.14558142 -0.079384834 0.11144516
0.14493811 -0.079045892 0.11003512
0.14429113 -0.078705087 0.10861698
0.14364052 -0.078362331 0.10719091
0.14298616 -0.078017607 0.10575667
0.14232808 -0.077670947 0.1043143
0.14166623 -0.077322319 0.10286358
0.14100063 -0.07697162 0.10140461
0.14033113 -0.076618955 0.09993726
0.13965781 -0.076264262 0.09846139
0.13898063 -0.075907469 0.096977085
0.13829948 -0.075548664 0.095484078
0.13764206 -0.075081214 0.094136298
0.13707764 -0.074244469 0.09331432
0.13651179 -0.073405594 0.092490315
0.13594452 -0.072564572 0.091664255
0.13537578 -0.07172142 0.090836048
0.13480563 -0.070876129 0.090005726
0.13423401 -0.070028707 0.089173257
0.13366094 -0.069179028 0.088338733
0.13308643 -0.06832727 0.087502062
0.13251039 -0.067473337 0.086663246
0.1319329 -0.066617206 0.085822225
0.11343503 0.073194057 0.14538622
0.11275423 0.073764443 0.14405683
0.11206928 0.074338228 0.14271954
0.11138028 0.074915454 0.1413742
0.11068712 0.075496152 0.14002076
0.10998973 0.076080352 0.13865915
0.10928819 0.076668084 0.13728932
0.10858241 0.077259392 0.13591123
0.10787228 0.077854261 0.13452464
0.1071578 0.078452811 0.13312969
0.10643899 0.079054996 0.13172615
0.10571577 0.079660878 0.13031399
0.10498807 0.080270514 0.12889314
0.1042559 0.08088389 0.12746355
0.10351913 0.081501082 0.12602499
0.10277784 0.082122117 0.12457758
0.10203192 0.082747042 0.12312114
0.1012813 0.083375841 0.12165549
0.10052601 0.084008604 0.12018073
0.099765927 0.084645361 0.11869672
0.099001065 0.085286126 0.11720321
0.098231331 0.085930958 0.1157003
0.097456738 0.086579874 0.1141879
0.096677184 0.087232947 0.11266577
0.09455511 0.08645606 0.10655609
0.092367202 0.08565338 0.10025555
0.090112939 0.08482632 0.093763858
0.087789848 0.083974496 0.087074369
0.085394353 0.083096281 0.080176562
0.082922742 0.082190186 0.073059559
0.08037135 0.081254825 0.06571272
0.149113 -0.097637981 0.10280475
0.14911391 -0.094186753 0.10549095
0.14911468 -0.090786204 0.1081374
0.14911522 -0.087435529 0.11074454
0.14911582 -0.084132731 0.11331439
0.14892425 -0.081767455 0.11465228
0.14829455 -0.081437483 0.11326051
0.14766131 -0.081105635 0.11186093
0.14702451 -0.080771923 0.11045349
0.14638411 -0.080436334 0.109038
0.14574008 -0.080098808 0.10761467
0.1450924 -0.079759434 0.10618308
0.14444104 -0.079418093 0.10474345
0.14378592 -0.07907477 0.10329559
0.14312707 -0.078729525 0.10183933
0.14246443 -0.078382269 0.10037476
0.14179799 -0.078033015 0.098901838
0.14112768 -0.07768175 0.097420305
0.14045346 -0.077328444 0.095930159
0.13977537 -0.076973066 0.0944314
0.13919036 -0.076232776 0.093475729
0.13862741 -0.075396702 0.092652321
0.13806304 -0.074558571 0.091826707
0.13749725 -0.073718265 0.090999067
0.13693 -0.072875842 0.090169221
0.13636129 -0.072031274 0.089337319
0.13579117 -0.071184561 0.088503361
0.13521957 -0.070335656 0.087667167
0.13464652 -0.069484606 0.086828947
0.13407201 -0.068631388 0.085988462
0.133496 -0.067775935 0.085145921
0.13291852 -0.066918336 0.084301174
0.13233954 -0.066058509 0.083454221
0.13175911 -0.065196477 0.082605124
0.13117714 -0.064332217 0.08175388
0.11433043 0.073381811 0.14474571
0.11365195 0.073953003 0.14341384
0.1129694 0.074527577 0.14207399
0.1122828 0.075105637 0.14072612
0.11159204 0.07568717 0.1393702
0.11089711 0.07627219 0.13800603
0.11019801 0.076860756 0.1366336
0.10949464 0.077452913 0.13525286
0.10878699 0.078048646 0.13386372
0.10807501 0.078648046 0.13246611
0.10735868 0.079251081 0.13105991
0.10663795 0.079857856 0.12964508
0.10591279 0.080468372 0.12822151
0.10518312 0.081082642 0.12678918
0.10444893 0.081700742 0.12534797
0.10371014 0.082322657 0.12389776
0.10296679 0.082948476 0.12243849
0.10221879 0.083578199 0.12097016
0.10146609 0.084211886 0.11949253
0.10070865 0.084849566 0.1180056
0.099946395 0.08549127 0.11650929
0.099179313 0.086137056 0.11500353
0.098407373 0.086786911 0.11348811
0.097039968 0.086795926 0.10991573
0.094908819 0.086005598 0.10372236
0.09271358 0.085191473 0.097342759
0.090451524 0.084352747 0.090769112
0.088120103 0.083488762 0.08399424
0.085715279 0.082597598 0.077006102
0.08323358 0.081677929 0.069794565
0.1491126 -0.095952213 0.10031289
0.14911327 -0.092503518 0.1030243
0.14911386 -0.089105263 0.10569593
0.14911443 -0.085756108 0.10832894
0.14910656 -0.082494333 0.11087096
0.14847271 -0.082163945 0.10945821
0.14783528 -0.081831694 0.10803747
0.14719421 -0.081497565 0.10660866
0.14654951 -0.081161469 0.10517177
0.14590108 -0.080823541 0.10372663
0.14524901 -0.080483675 0.10227317
0.14459316 -0.080141813 0.10081145
0.14393353 -0.079797998 0.099341244
0.14327012 -0.079452217 0.097862571
0.14260285 -0.079104379 0.096375376
0.14193171 -0.078754589 0.094879508
0.14130148 -0.078219518 0.093637139
0.14074141 -0.07738632 0.092814118
0.14017993 -0.07655102 0.09198907
0.13961706 -0.07571359 0.091161907
0.13905272 -0.074874058 0.090332657
0.13848695 -0.074032307 0.089501321
0.13791974 -0.073188469 0.08866784
0.1373511 -0.07234247 0.087832212
0.13678095 -0.071494319 0.086994439
0.1362094 -0.070643976 0.08615461
0.13563636 -0.069791473 0.085312545
0.13506185 -0.068936773 0.084468305
0.13448586 -0.068079881 0.083621979
0.13390842 -0.067220777 0.082773417
0.13332947 -0.066359445 0.08192274
0.13274902 -0.065495931 0.081069767
0.13216709 -0.064630181 0.08021459
0.13158363 -0.063762173 0.079357266
0.13099869 -0.062891938 0.078497708
0.11522657 0.073569715 0.1441046
0.11455046 0.074141696 0.1427702
0.11387035 0.074717119 0.14142787
0.11318609 0.07529597 0.1400775
0.11249775 0.075878322 0.13871899
0.11180529 0.076464191 0.13735229
0.11110862 0.077053592 0.13597733
0.11040771 0.077646583 0.13459393
0.1097025 0.078243196 0.1332022
0.10899302 0.078843459 0.13180196
0.10827918 0.079447359 0.13039309
0.10756096 0.080054998 0.12897557
0.1068383 0.080666378 0.12754932
0.10611117 0.081281558 0.12611425
0.10537954 0.081900537 0.12467027
0.10464336 0.082523376 0.12321731
0.10390255 0.083150089 0.12175527
0.10315713 0.083780736 0.12028411
0.10240704 0.084415346 0.11880368
0.10165219 0.085053965 0.11731386
0.1008926 0.085696623 0.11581469
0.10012819 0.086343333 0.11430606
0.099358857 0.086994171 0.11278772
0.097404584 0.086351439 0.10712659
0.095266595 0.085549936 0.10085607
0.093063965 0.084724203 0.094395965
0.090794384 0.083873838 0.087739885
0.088454306 0.082997203 0.080877066
0.086040094 0.082092807 0.073796988
0.083548218 0.081159323 0.0664891
0.14911123 -0.097755894 0.095023215
0.14911184 -0.094257399 0.097802252
0.14911243 -0.090810329 0.10054049
0.14911303 -0.087413564 0.10323876
0.14911363 -0.084065989 0.10589799
0.14865349 -0.082901284 0.10559911
0.14801183 -0.082568631 0.10415673
0.14736643 -0.082234129 0.10270602
0.14671737 -0.081897631 0.10124713
0.14606456 -0.081559241 0.099779725
0.145408 -0.081218854 0.098303974
0.14474761 -0.080876544 0.096819639
0.14408343 -0.080532283 0.095326573
0.14341539 -0.080185935 0.093824983
0.14285377 -0.079374403 0.092975825
0.1422952 -0.07854192 0.092151284
0.1417352 -0.07770735 0.091324687
0.14117378 -0.076870635 0.090495944
0.14061092 -0.076031819 0.089665085
0.14004664 -0.075190842 0.08883217
0.13948092 -0.07434772 0.087997139
0.13891375 -0.073502451 0.087159902
0.13834512 -0.072655007 0.086320579
0.13777508 -0.07180541 0.085479081
0.13720351 -0.070953637 0.084635377
0.13663052 -0.070099674 0.083789587
0.13605605 -0.069243491 0.082941592
0.13548009 -0.068385139 0.082091361
0.13490264 -0.067524567 0.081239045
0.1343237 -0.066661775 0.080384403
0.13374329 -0.06579674 0.079527617
0.13316135 -0.064929441 0.078668654
0.13257793 -0.064059913 0.077807486
0.13199297 -0.063188143 0.076943994
0.13140649 -0.062314093 0.076078266
0.1308185 -0.061437786 0.075210273
0.13022895 -0.060559191 0.074340075
0.11612347 0.073757797 0.14346296
0.11544974 0.074330583 0.14212608
0.11477204 0.074906811 0.14078128
0.1140902 0.075486511 0.13942838
0.11340429 0.076069668 0.13806725
0.11271425 0.076656356 0.13669798
0.11202002 0.077246621 0.13532043
0.11132155 0.077840447 0.13393447
0.11061886 0.078437924 0.13254011
0.10991184 0.079039007 0.13113719
0.10920051 0.079643816 0.12972569
0.1084848 0.080252334 0.12830549
0.10776465 0.080864578 0.1268765
0.10704008 0.081480637 0.12543872
0.10631098 0.082100525 0.123992
0.10557736 0.082724258 0.12253624
0.10483915 0.083351895 0.12107146
0.10409635 0.083983466 0.11959741
0.10334882 0.084619001 0.11811414
0.10259666 0.085258558 0.11662155
0.10183968 0.08590214 0.11511952
0.1010779 0.086549804 0.11360788
0.099855736 0.086691126 0.11046997
0.097773314 0.085901901 0.10430574
0.095628515 0.085089028 0.097956687
0.093418717 0.084251717 0.091415524
0.091141343 0.083389238 0.084674567
0.088792533 0.082499713 0.077722251
0.086368933 0.081581846 0.070548475
0.14911035 -0.096049055 0.092467755
0.14911097 -0.092551827 0.095274866
0.14911163 -0.089106172 0.098040611
0.14911222 -0.085710958 0.10076582
0.14883706 -0.083649725 0.10168186
0.14819105 -0.083316728 0.10021731
0.1475413 -0.082981795 0.098744333
0.14688779 -0.082644939 0.097262859
0.14623052 -0.082306132 0.095772773
0.1455694 -0.081965327 0.094274074
0.14496449 -0.081360921 0.093137413
0.14440882 -0.080531299 0.092313409
0.1438517 -0.079699531 0.091487378
0.14329322 -0.078865692 0.090659142
0.14273325 -0.078029752 0.089828819
0.14217192 -0.077191666 0.088996351
0.1416091 -0.076351419 0.088161856
0.14104488 -0.075508997 0.087325215
0.14047921 -0.074664488 0.086486399
0.13991208 -0.07381779 0.085645407
0.13934352 -0.07296896 0.0848023
0.13877347 -0.072117858 0.083957046
0.13820197 -0.071264654 0.083109587
0.13762903 -0.070409209 0.082259953
0.13705459 -0.069551587 0.081408113
0.13647863 -0.068691738 0.080554068
0.13590121 -0.067829669 0.079697847
0.13532233 -0.066965371 0.078839421
0.13474192 -0.066098809 0.07797882
0.13416001 -0.065230012 0.077115893
0.13357659 -0.064358972 0.076250792
0.13299164 -0.063485675 0.075383365
0.13240516 -0.062610075 0.074513763
0.13181718 -0.06173221 0.073641837
0.13122764 -0.060852066 0.072767615
0.13063659 -0.059969589 0.071891159
0.13004394 -0.05908484 0.071012378
0.12944978 -0.058197759 0.070131272
0.11702114 0.073945984 0.14282075
0.11634982 0.074519619 0.1414814
0.1156745 0.075096667 0.14013407
0.11499511 0.075677156 0.13877857
0.11431161 0.076261178 0.13741496
0.11362402 0.076848716 0.13604316
0.11293219 0.0774398 0.13466293
0.11223622 0.07803449 0.13327441
0.11153603 0.078632802 0.13187739
0.11083147 0.079234764 0.13047183
0.11012265 0.079840437 0.12905765
0.10940944 0.08044982 0.12763476
0.10869184 0.081062973 0.12620309
0.10796984 0.08167991 0.12476256
0.10724328 0.082300693 0.12331313
0.10651223 0.082925335 0.12185457
0.10577661 0.083553895 0.12038696
0.10503638 0.084186375 0.11891013
0.10429153 0.084822834 0.11742401
0.10354191 0.085463315 0.11592859
0.10278761 0.08610785 0.1144236
0.10202847 0.086756453 0.11290911
0.10023494 0.086247534 0.10769328
0.098146275 0.085447207 0.10145253
0.095994636 0.084622771 0.095023692
0.093777895 0.083773896 0.088400722
0.091492444 0.082898825 0.081572622
0.089134887 0.081996173 0.074529082
0.086701795 0.081064567 0.067259789
0.14910871 -0.097880408 0.087016165
0.14910944 -0.094331309 0.08989501
0.14911014 -0.090835124 0.09273091
0.14911076 -0.087390944 0.09552446
0.1490234 -0.08440952 0.097705185
0.14837302 -0.084076166 0.09621799
0.14771883 -0.083740875 0.094722182
0.1470736 -0.083345935 0.093298852
0.14652078 -0.082519114 0.092475444
0.1459666 -0.081690237 0.09164983
0.14541097 -0.080859244 0.09082213
0.14485395 -0.08002615 0.089992344
0.1442955 -0.07919091 0.089160472
0.14373563 -0.078353524 0.088326514
0.14317435 -0.077514023 0.08749035
0.14261162 -0.07667239 0.0866521
0.14204745 -0.075828612 0.085811645
0.14148185 -0.074982658 0.084969044
0.14091478 -0.074134499 0.084124327
0.14034627 -0.073284209 0.083277434
0.13977626 -0.072431684 0.082428366
0.13920482 -0.071577013 0.081577063
0.1386319 -0.070720091 0.080723643
0.13805746 -0.06986098 0.079867959
0.13748156 -0.068999663 0.079010099
0.13690417 -0.068136111 0.078149945
0.13632534 -0.067270279 0.077287704
0.13574493 -0.066402212 0.076423109
0.13516305 -0.065531924 0.075556308
0.13457964 -0.064659357 0.074687213
0.13399471 -0.063784502 0.073815882
0.13340823 -0.062907398 0.072942257
0.13282028 -0.062027954 0.072066396
0.13223074 -0.061146252 0.071188182
0.13163964 -0.060262233 0.070307672
0.13104704 -0.059375905 0.069424868
0.1304529 -0.058487184 0.068539798
0.12985712 -0.057596222 0.067652285
0.12925981 -0.056702867 0.066762477
0.12871066 -0.055647708 0.066134006
0.11858457 0.073563397 0.14351183
0.11791961 0.07413438 0.14217794
0.1172507 0.074708834 0.14083615
0.11657776 0.075286672 0.13948622
0.11590078 0.075868011 0.13812825
0.11521973 0.076452851 0.13676208
0.11453456 0.077041224 0.13538766
0.1138452 0.077633157 0.13400492
0.11315168 0.078228682 0.13261378
0.11245395 0.078827843 0.13121411
0.11175194 0.079430684 0.12980589
0.11104561 0.080037221 0.12838906
0.1103349 0.080647483 0.12696344
0.10961987 0.081261516 0.12552911
0.1089004 0.081879377 0.12408584
0.10817643 0.082501039 0.12263361
0.10744794 0.08312659 0.12117228
0.10671493 0.083756059 0.11970192
0.10597728 0.084389463 0.11822224
0.10523506 0.08502686 0.11673331
0.1044881 0.085668296 0.115235
0.1037364 0.086313754 0.11372715
0.10265273 0.086587012 0.11102051
0.10061851 0.085798919 0.10488513
0.098523512 0.084987283 0.098566562
0.096365333 0.084151387 0.092057496
0.09414129 0.083290413 0.085350126
0.091847792 0.082402527 0.078433275
0.089481473 0.081486478 0.071296871
0.087038785 0.080540851 0.063930184
0.1491078 -0.096150026 0.084397078
0.14910848 -0.092602223 0.087305158
0.14910923 -0.089107454 0.090169787
0.1491099 -0.085664585 0.092991829
0.14863117 -0.084505409 0.0926373
0.14807986 -0.083679363 0.091812223
0.14752713 -0.082851216 0.09098506
0.146973 -0.082020998 0.09015581
0.14641745 -0.081188589 0.089324474
0.14586055 -0.080354109 0.088490993
0.14530215 -0.079517484 0.087655365
0.14474238 -0.078678742 0.086817622
0.14418115 -0.07783784 0.085977763
0.14361848 -0.076994777 0.085135758
0.14305438 -0.076149553 0.084291548
0.14248882 -0.075302154 0.083445221
0.1419218 -0.074452609 0.08259663
0.14135335 -0.073600858 0.081745952
0.14078341 -0.072746873 0.08089307
0.14021203 -0.071890727 0.080037922
0.13963912 -0.071032375 0.079180598
0.13906474 -0.070171773 0.07832101
0.1384889 -0.069308937 0.077459306
0.13791156 -0.068443872 0.076595306
0.13733274 -0.067576535 0.075729072
0.13675235 -0.066707015 0.074860573
0.13617048 -0.065835178 0.073989779
0.13558713 -0.064961061 0.073116779
0.13500221 -0.064084701 0.072241396
0.13441579 -0.063205995 0.071363837
0.13382782 -0.062325016 0.070483893
0.13323827 -0.061441742 0.069601685
0.13264725 -0.060556121 0.068717182
0.13205463 -0.059668213 0.067830324
0.13146043 -0.058777973 0.066941053
0.13086468 -0.057885341 0.066049516
0.13030688 -0.05686073 0.065369338
0.12979989 -0.055666231 0.064966857
0.12929271 -0.054471225 0.064564288
0.12878528 -0.053275675 0.06416145
0.12827763 -0.052079663 0.063758403
0.11948143 0.073751137 0.14287099
0.11881885 0.074322954 0.14153466
0.11815234 0.074898198 0.1401903
0.11748181 0.075476855 0.1388379
0.11680724 0.076059029 0.13747737
0.11612864 0.076644689 0.1361087
0.11544591 0.077233896 0.13473165
0.11475903 0.077826679 0.13334632
0.114068 0.078423083 0.13195255
0.11337273 0.079023093 0.13055024
0.11267321 0.079626784 0.12913939
0.1119694 0.0802342 0.12771985
0.11126122 0.080845341 0.12629154
0.11054873 0.081460252 0.12485448
0.10983177 0.082078993 0.12340844
0.1091104 0.082701564 0.12195349
0.1083845 0.083328038 0.12048942
0.10765406 0.083958402 0.1190162
0.10691908 0.08459273 0.11753374
0.10617943 0.085231081 0.11604196
0.1054351 0.085873425 0.11454073
0.10468608 0.086519852 0.11303005
0.10304643 0.086144313 0.10825622
0.10100642 0.085345179 0.10204494
0.098905131 0.084522024 0.095647097
0.096740559 0.083674669 0.089056998
0.09450905 0.082801178 0.082263261
0.092207447 0.081900209 0.07525596
0.089832306 0.080970496 0.068024874
0.14910682 -0.09440808 0.081760406
0.14910755 -0.090861708 0.084698021
0.14910828 -0.087368459 0.087591618
0.14909044 -0.084014282 0.090319097
0.1485378 -0.083184749 0.089488298
0.14798376 -0.08235313 0.088655353
0.14742832 -0.081519395 0.087820321
0.14687145 -0.080683514 0.086983055
0.14631319 -0.079845488 0.086143792
0.14575347 -0.079005361 0.085302234
0.14519231 -0.078163043 0.084458619
0.14462973 -0.077318579 0.08361277
0.14406569 -0.07647194 0.082764804
0.14350021 -0.075623095 0.081914663
0.14293326 -0.074772075 0.081062347
0.14236486 -0.073918879 0.080207765
0.14179496 -0.073063478 0.079350948
0.14122362 -0.072205819 0.078491986
0.14065081 -0.07134597 0.077630818
0.14007649 -0.070483901 0.076767385
0.13950069 -0.069619566 0.075901747
0.13892338 -0.068753019 0.075033754
0.13834457 -0.067884199 0.074163556
0.13776426 -0.067013107 0.073291093
0.13718243 -0.06613975 0.072416395
0.13659909 -0.065264143 0.071539313
0.13601419 -0.064386204 0.070659965
0.13542777 -0.063505962 0.069778323
0.13483983 -0.062623404 0.068894416
0.13425034 -0.061738536 0.068008125
0.13365929 -0.06085138 0.067119509
0.13306665 -0.05996187 0.066228509
0.13247253 -0.059069991 0.065335244
0.13190638 -0.058076248 0.064603209
0.13139918 -0.056880765 0.064200163
0.13089179 -0.055684805 0.063796908
0.13038424 -0.054488309 0.063393444
0.12987641 -0.053291306 0.06298995
0.12936836 -0.052093804 0.062586099
0.12886013 -0.050895765 0.062182188
0.12835164 -0.04969722 0.061778128
0.12037905 0.073939055 0.14222962
0.11971888 0.074511677 0.14089081
0.11905473 0.075087711 0.13954392
0.11838661 0.075667217 0.13818899
0.11771449 0.07625021 0.13682598
0.11703834 0.07683669 0.13545462
0.11635804 0.077426746 0.13407505
0.11567365 0.078020379 0.13268712
0.11498506 0.078617603 0.13129067
0.11429231 0.079218507 0.12988576
0.11359529 0.079823077 0.12847227
0.112894 0.080431342 0.12705004
0.11218837 0.081043348 0.12561905
0.11147842 0.081659168 0.12417924
0.11076403 0.082278803 0.12273046
0.11004519 0.082902282 0.12127274
0.10932194 0.083529651 0.11980593
0.10859409 0.084160954 0.11832988
0.10786168 0.084796205 0.11684459
0.10712466 0.08543545 0.11534992
0.10638301 0.086078763 0.11384585
0.10543126 0.086483583 0.1115675
0.10344459 0.085696623 0.10546067
0.10139881 0.084886238 0.099172175
0.099291563 0.084051773 0.092694998
0.097120181 0.083192289 0.086021036
0.094881222 0.082306057 0.079139262
0.092571452 0.081391782 0.072039872
0.09018746 0.080448121 0.064712316
0.14910586 -0.092654467 0.079106003
0.14910658 -0.089109555 0.082073569
0.14910732 -0.08561793 0.084996521
0.1489989 -0.082686707 0.087148428
0.14844356 -0.081851587 0.086309612
0.14788677 -0.08101435 0.08546865
0.14732856 -0.080174968 0.084625572
0.14676894 -0.07933341 0.083780259
0.14620788 -0.078489646 0.08293283
0.14564538 -0.077643752 0.082083225
0.14508145 -0.076795653 0.081231475
0.14451599 -0.075945422 0.08037743
0.14394914 -0.075092986 0.079521239
0.14338081 -0.074238315 0.078662813
0.142811 -0.073381409 0.077802151
0.1422397 -0.072522312 0.076939315
0.14166693 -0.071660973 0.076074213
0.14109266 -0.070797421 0.075206816
0.14051692 -0.069931589 0.074337184
0.13993968 -0.069063544 0.073465317
0.13936092 -0.068193197 0.072591156
0.13878061 -0.0673206 0.07171464
0.13819884 -0.066445716 0.070835948
0.1376155 -0.065568507 0.069954902
0.13703068 -0.064689025 0.069071501
0.13644427 -0.063807249 0.068185806
0.13585638 -0.062923141 0.067297816
0.13526691 -0.062036678 0.066407472
0.13467586 -0.061147906 0.065514773
0.13408326 -0.060256787 0.06461969
0.13350917 -0.059294291 0.063835442
0.13300179 -0.058097847 0.063431799
0.13249424 -0.056900889 0.063027948
0.13198645 -0.055703424 0.062624007
0.13147847 -0.05450546 0.062219799
0.13097025 -0.053306937 0.0618155
0.13046181 -0.05210796 0.061410934
0.12995316 -0.050908431 0.061006278
0.12944429 -0.049708396 0.060601413
0.1289352 -0.048507869 0.06019634
0.12842591 -0.047306791 0.059791178
0.12791643 -0.046105221 0.059385777
0.12127748 0.074127123 0.14158764
0.12061967 0.074700549 0.14024633
0.11995795 0.075277403 0.13889697
0.11929226 0.075857729 0.13753954
0.11862256 0.076441541 0.1361739
0.1179488 0.077028871 0.13480005
0.11727099 0.077619776 0.1334179
0.11658904 0.078214213 0.1320273
0.11590296 0.078812316 0.13062829
0.11521271 0.079414085 0.12922072
0.1145182 0.080019519 0.12780452
0.11381944 0.080628663 0.12637961
0.11311634 0.081241578 0.12494597
0.11240891 0.081858277 0.12350339
0.11169709 0.082478791 0.12205189
0.1109809 0.08310318 0.1205914
0.11026017 0.083731443 0.11912176
0.10953493 0.084363669 0.11764294
0.10880516 0.084999844 0.11615479
0.10807076 0.085640043 0.11465728
0.1073318 0.08628428 0.11315033
0.10583919 0.086041778 0.10881543
0.10384722 0.085243821 0.10263336
0.10179567 0.084422007 0.09626621
0.099682584 0.083576128 0.089708656
0.097504348 0.082704186 0.082948983
0.095257893 0.081804961 0.075977534
0.092939943 0.080877095 0.068784326
0.14910491 -0.090888992 0.076433778
0.14910567 -0.087345615 0.079431593
0.14910641 -0.083855674 0.082384318
0.14890653 -0.081346601 0.083947659
0.14834841 -0.080505818 0.083100766
0.14778887 -0.079662845 0.082251698
0.1472279 -0.07881771 0.081400424
0.14666545 -0.0779704 0.080546945
0.14610161 -0.077120855 0.07969135
0.14553627 -0.076269165 0.078833461
0.14496946 -0.075415254 0.077973396
0.14440122 -0.074559107 0.077111095
0.14383145 -0.073700786 0.0762465
0.14326027 -0.072840184 0.075379759
0.14268756 -0.071977369 0.074510723
0.14211334 -0.071112327 0.073639363
0.14153765 -0.070245013 0.072765797
0.14096047 -0.069375433 0.071889877
0.14038177 -0.068503596 0.071011692
0.1398015 -0.067629449 0.070131242
0.13921978 -0.066752993 0.069248497
0.1386365 -0.065874279 0.068363369
0.13805167 -0.064993247 0.067475915
0.13746533 -0.064109869 0.066586256
0.13687745 -0.063224182 0.065694153
0.136288 -0.062336162 0.064799637
0.13569698 -0.061445795 0.063902766
0.13511527 -0.060514852 0.063066065
0.13460769 -0.059317455 0.062661827
0.13409996 -0.058119521 0.062257409
0.13359202 -0.056921057 0.061852902
0.13308381 -0.055722095 0.061448067
0.13257544 -0.054522619 0.061043143
0.13206682 -0.053322628 0.0606381
0.13155797 -0.052122161 0.060232788
0.13104893 -0.050921127 0.059827358
0.13053967 -0.049719572 0.059421778
0.13003018 -0.04851757 0.05901593
0.12952049 -0.047315001 0.058609992
0.12901057 -0.046111897 0.058203906
0.12850042 -0.04490833 0.057797611
0.12799007 -0.043704242 0.057391077
0.12747951 -0.042499617 0.056984425
0.12217663 0.074315354 0.1409452
0.12152125 0.0748896 0.13960135
0.12086195 0.075467274 0.13824949
0.12019865 0.076048419 0.13688952
0.11953141 0.076633036 0.13552132
0.11886011 0.07722123 0.1341449
0.11818475 0.077812955 0.13276014
0.11750531 0.078408286 0.13136697
0.11682169 0.079007238 0.12996534
0.11613394 0.079609856 0.12855512
0.11544192 0.08021614 0.12713623
0.11474568 0.080826178 0.12570864
0.11404514 0.081439942 0.1242722
0.11334027 0.082057536 0.12282696
0.11263104 0.082678974 0.12137273
0.11191735 0.083304241 0.11990941
0.11119927 0.083933443 0.11843699
0.11047664 0.084566578 0.11695537
0.10974948 0.085203677 0.11546439
0.10901776 0.0858448 0.11396402
0.10819143 0.086380824 0.11211073
0.10625175 0.085594997 0.10603234
0.10425451 0.084785879 0.099773675
0.10219757 0.083952859 0.093328118
0.10007821 0.08309485 0.086687177
0.097893089 0.082210243 0.079840213
0.095639125 0.08129777 0.07277745
0.093312949 0.080356076 0.065488607
0.14910394 -0.089111596 0.073743403
0.14910468 -0.085569903 0.076771885
0.14910546 -0.082081661 0.07975474
0.14881326 -0.07999371 0.080716461
0.14825234 -0.07914716 0.079861313
0.14769003 -0.07829845 0.079004019
0.14712624 -0.077447474 0.078144461
0.14656101 -0.076594308 0.077282697
0.14599431 -0.075738922 0.076418817
0.14542611 -0.07488136 0.075552553
0.14485645 -0.074021533 0.074684054
0.14428531 -0.073159501 0.073813319
0.14371265 -0.072295167 0.07294032
0.14313854 -0.071428612 0.072064996
0.14256291 -0.0705598 0.071187347
0.14198577 -0.069688693 0.070307523
0.1414071 -0.068815321 0.069425315
0.14082696 -0.067939624 0.068540841
0.14024524 -0.067061692 0.067653984
0.13966201 -0.066181377 0.066764772
0.13907726 -0.065298796 0.065873265
0.13849097 -0.06441386 0.064979404
0.13790312 -0.063526548 0.064083278
0.13731366 -0.062636986 0.063184589
0.13672467 -0.061737932 0.062295109
0.13621697 -0.060539529 0.061890334
0.135709 -0.059340619 0.06148535
0.13520087 -0.058141209 0.061080158
0.13469251 -0.056941271 0.060674816
0.13418394 -0.055740803 0.060269326
0.13367517 -0.054539844 0.059863597
0.13316615 -0.053338379 0.059457779
0.1326569 -0.052136347 0.059051752
0.13214745 -0.050933868 0.058645517
0.13163778 -0.049730837 0.058239162
0.13112789 -0.048527285 0.057832599
0.13061781 -0.047323197 0.057425886
0.13010749 -0.046118647 0.057018965
0.12959692 -0.04491356 0.056611925
0.12908617 -0.043707922 0.056204647
0.12857519 -0.042501792 0.055797249
0.12806398 -0.041295156 0.055389643
0.12755254 -0.040087998 0.054981887
0.12307662 0.07450375 0.14030212
0.12242362 0.0750788 0.13895583
0.12176669 0.075657308 0.13760146
0.12110583 0.076239258 0.13623887
0.12044103 0.07682474 0.13486817
0.1197722 0.077413753 0.13348919
0.11909929 0.078006312 0.1321018
0.11842231 0.078602463 0.13070601
0.11774121 0.079202294 0.12930176
0.11705592 0.079805762 0.12788886
0.11636649 0.080412939 0.12646735
0.11567277 0.081023842 0.12503707
0.11497478 0.0816385 0.12359795
0.11427248 0.082256988 0.12214991
0.11356582 0.08287932 0.12069297
0.11285475 0.083505496 0.11922681
0.11213923 0.084135607 0.11775163
0.11141925 0.084769666 0.11626714
0.11069469 0.085407704 0.11477333
0.10996561 0.086049765 0.11327016
0.10861343 0.085939929 0.10937089
0.10666895 0.085143179 0.10321778
0.10466652 0.084322676 0.096881211
0.10260421 0.083478257 0.090355814
0.10047853 0.08260788 0.083629876
0.09828651 0.081710368 0.076693982
0.096025035 0.08078438 0.069538236
0.14910296 -0.087322176 0.071034759
0.14910373 -0.083782181 0.074094296
0.14910457 -0.080295697 0.077107757
0.14871909 -0.078627899 0.077454209
0.14815538 -0.077775493 0.076590866
0.14759025 -0.076920867 0.075725228
0.1470236 -0.07606408 0.074857265
0.14645551 -0.075205043 0.073987067
0.14588594 -0.074343711 0.073114723
0.1453149 -0.073480174 0.072239935
0.14474232 -0.072614372 0.071362913
0.14416827 -0.071746342 0.070483625
0.14359272 -0.07087598 0.069601983
0.14301565 -0.070003361 0.068718106
0.14243709 -0.069128431 0.067831814
0.14185695 -0.06825126 0.066943198
0.14127529 -0.067371748 0.066052318
0.14069213 -0.066489875 0.065159112
0.14010744 -0.065605693 0.064263463
0.13952118 -0.064719185 0.063365459
0.13893336 -0.063830361 0.062465042
0.138344 -0.062939145 0.0615623
0.13782953 -0.061764166 0.061117172
0.13732141 -0.06056428 0.060711592
0.1368131 -0.059363879 0.060305864
0.13630457 -0.058162972 0.059899867
0.1357958 -0.056961529 0.05949381
0.13528682 -0.055759594 0.059087515
0.13477762 -0.054557115 0.05868113
0.13426824 -0.053354114 0.058274478
0.13375857 -0.052150652 0.057867676
0.13324873 -0.050946593 0.057460755
0.13273863 -0.049742103 0.057053566
0.13222836 -0.048537046 0.056646287
0.13171788 -0.047331467 0.0562388
0.13120714 -0.046125367 0.055831134
0.13069618 -0.044918776 0.05542329
0.13018501 -0.043711662 0.055015266
0.12967363 -0.042503998 0.054607093
0.12916203 -0.041295871 0.054198682
0.1286502 -0.040087178 0.053790122
0.12813812 -0.038877979 0.053381443
0.12762588 -0.037668228 0.052972555
0.1239773 0.074692309 0.13965854
0.12332675 0.075268179 0.13830969
0.12267227 0.075847507 0.13695282
0.12201385 0.076430291 0.13558769
0.12135145 0.077016577 0.13421446
0.12068507 0.07760641 0.13283283
0.12001462 0.078199834 0.1314429
0.11934015 0.078796849 0.13004452
0.11866154 0.079397514 0.12863755
0.1179788 0.080001846 0.12722203
0.11729185 0.080609918 0.12579787
0.11660069 0.08122167 0.12436482
0.11590524 0.081837237 0.12292302
0.11520551 0.082456619 0.12147227
0.1145014 0.08307983 0.12001249
0.11379293 0.083706945 0.11854362
0.11308004 0.08433798 0.11706564
0.11236265 0.084972933 0.11557832
0.11164077 0.085611895 0.11408165
0.11091432 0.086254925 0.11257559
0.10904019 0.085494086 0.10660028
0.10709092 0.084686175 0.10037112
0.10508364 0.083854586 0.093956858
0.10301559 0.082998097 0.08734861
0.10088363 0.082115114 0.080536157
0.098684698 0.081204444 0.073509783
0.096415654 0.080264688 0.066259205
0.14910118 -0.089113787 0.065168738
0.14910193 -0.085520536 0.068307698
0.14910279 -0.08198227 0.071398765
0.14910364 -0.078497872 0.074442893
0.14862405 -0.077248931 0.074160725
0.14805749 -0.076390624 0.073288828
0.1474895 -0.075530112 0.072414756
0.14692001 -0.074667349 0.071538299
0.14634903 -0.073802292 0.070659608
0.14577657 -0.072935022 0.069778502
0.14520258 -0.072065428 0.068895251
0.14462711 -0.071193583 0.068009555
0.14405014 -0.070319451 0.067121595
0.14347158 -0.069443002 0.066231221
0.14289153 -0.068564236 0.065338612
0.14230998 -0.067683138 0.064443529
0.14172687 -0.066799745 0.063546181
0.1411422 -0.06591399 0.062646389
0.14055602 -0.065025926 0.061744183
0.13996825 -0.064135477 0.060839623
0.13944545 -0.062991358 0.060342401
0.13893718 -0.061790496 0.059936255
0.13842866 -0.060589105 0.05952996
0.13791995 -0.059387207 0.059123397
0.137411 -0.058184795 0.058716714
0.13690184 -0.056981839 0.058309913
0.13639244 -0.055778392 0.057902843
0.13588285 -0.05457443 0.057495624
0.13537304 -0.053369939 0.057088256
0.134863 -0.052164942 0.05668065
0.13435276 -0.050959438 0.056272954
0.13384227 -0.049753368 0.055865049
0.1333316 -0.048546806 0.055456996
0.13282068 -0.047339737 0.055048704
0.13230956 -0.046132118 0.054640293
0.13179822 -0.044924006 0.054231703
0.13128662 -0.043715388 0.053822875
0.13077484 -0.042506233 0.053413928
0.13026282 -0.041296557 0.053004801
0.12975061 -0.040086314 0.052595526
0.12923814 -0.03887561 0.052185982
0.12872544 -0.037664354 0.05177635
0.12821256 -0.036452591 0.051366508
0.12769943 -0.035240337 0.050956428
0.12552316 0.07430777 0.14035767
0.12487884 0.074881032 0.13901436
0.12423065 0.075457722 0.13766307
0.12357859 0.076037839 0.13630357
0.12292261 0.076621458 0.13493598
0.12226267 0.077208593 0.13356015
0.12159875 0.077799261 0.13217598
0.12093082 0.078393549 0.13078341
0.12025881 0.078991428 0.12938243
0.11958273 0.079592928 0.12797284
0.11890244 0.080198124 0.12655464
0.11821805 0.080807045 0.12512773
0.11752942 0.081419721 0.12369207
0.11683653 0.082036167 0.12224752
0.11613937 0.082656428 0.120794
0.11543787 0.083280548 0.11933148
0.11473197 0.083908543 0.11785984
0.11402167 0.084540501 0.11637899
0.11330692 0.085176393 0.11488888
0.11258768 0.085816294 0.11338937
0.11136934 0.08583875 0.10992268
0.10947177 0.085043177 0.1037983
0.10751781 0.084224045 0.097492099
0.10550563 0.083381072 0.090998471
0.10343185 0.082512259 0.084305972
0.10129356 0.081616446 0.077405363
0.099087745 0.080692351 0.070286751
0.14910015 -0.087298006 0.062390804
0.14910096 -0.083706588 0.06556204
0.14910184 -0.080170169 0.068684995
0.14909597 -0.076718658 0.071713507
0.14852807 -0.075856626 0.070835441
0.14795868 -0.074992403 0.069954932
0.1473878 -0.074125856 0.069072217
0.1468154 -0.073257089 0.068187088
0.14624149 -0.072385997 0.067299694
0.14566611 -0.071512617 0.066409975
0.14508916 -0.070636921 0.065517932
0.14451072 -0.069758922 0.064623505
0.14393078 -0.068878636 0.063726693
0.14334927 -0.067995951 0.062827617
0.14276621 -0.067111015 0.061925977
0.14218163 -0.066223703 0.061021984
0.1415955 -0.065334007 0.060115695
0.14106475 -0.064221114 0.059566051
0.14055626 -0.063019246 0.059159309
0.14004757 -0.061816871 0.058752418
0.13953865 -0.060613982 0.058345288
0.13902955 -0.059410565 0.057938099
0.1385202 -0.058206655 0.057530552
0.13801064 -0.057002202 0.057122946
0.13750085 -0.055797257 0.056715131
0.13699086 -0.05459179 0.056307197
0.13648067 -0.053385749 0.055899084
0.13597025 -0.052179277 0.055490673
0.13545957 -0.050972223 0.055082232
0.13494872 -0.049764678 0.054673553
0.13443759 -0.048556596 0.054264694
0.13392629 -0.047348022 0.053855658
0.13341473 -0.046138898 0.053446472
0.13290298 -0.044929251 0.053037107
0.13239099 -0.043719098 0.052627504
0.13187881 -0.042508423 0.052217782
0.1313664 -0.041297242 0.05180788
0.13085377 -0.040085495 0.0513978
0.13034087 -0.03887327 0.050987512
0.1298278 -0.037660509 0.050577044
0.12931451 -0.036447227 0.050166458
0.12880099 -0.035233393 0.049755663
0.12828723 -0.034019053 0.049344689
0.12777327 -0.032804191 0.048933536
0.12642303 0.074495867 0.13971549
0.12578115 0.075069919 0.13836971
0.12513538 0.075647399 0.13701582
0.12448572 0.076228365 0.13565385
0.1238322 0.076812789 0.13428369
0.12317471 0.077400759 0.13290527
0.12251326 0.07799229 0.13151854
0.12184781 0.078587398 0.13012338
0.12117825 0.079186127 0.12871969
0.12050466 0.079788521 0.12730747
0.11982694 0.080394581 0.12588662
0.11914508 0.081004366 0.12445703
0.11845897 0.081617907 0.12301865
0.11776865 0.082235262 0.12157142
0.11707407 0.082856402 0.12011513
0.11637518 0.083481446 0.11864987
0.11567187 0.084110349 0.11717543
0.11496419 0.084743217 0.11569172
0.11425208 0.085380033 0.1141988
0.11353548 0.086020872 0.11269644
0.1118101 0.085393816 0.10716432
0.10990821 0.084587172 0.10096458
0.10794996 0.083756998 0.094581306
0.10593256 0.082901999 0.088005543
0.10385303 0.08202067 0.081227183
0.10170844 0.081111759 0.07423678
0.099495754 0.080173969 0.067024231
0.14909916 -0.085469678 0.059593618
0.14910002 -0.081880063 0.062797695
0.14910087 -0.078345761 0.065952688
0.14900193 -0.075318873 0.06836459
0.14843117 -0.07445088 0.067477793
0.14785884 -0.073580563 0.066588581
0.14728506 -0.072707959 0.065697134
0.14670977 -0.071833044 0.064803272
0.14613293 -0.070955798 0.063907146
0.14555457 -0.070076287 0.063008547
0.14497469 -0.069194414 0.062107593
0.14439328 -0.068310194 0.061204255
0.14381026 -0.067423701 0.060298502
0.14322577 -0.066534773 0.059390336
0.14268738 -0.065453395 0.058788091
0.14217868 -0.064250559 0.058380753
0.14166984 -0.063047171 0.057973266
0.14116076 -0.061843313 0.05756557
0.14065148 -0.060638905 0.057157695
0.14014192 -0.059434012 0.056749672
0.1396322 -0.058228575 0.056341439
0.13912223 -0.057022639 0.055933058
0.13861206 -0.055816151 0.055524498
0.13810167 -0.054609179 0.055115759
0.13759105 -0.053401664 0.054706842
0.13708021 -0.052193642 0.054297775
0.13656916 -0.050985083 0.0538885
0.1360579 -0.049776018 0.053479016
0.13554637 -0.048566446 0.053069383
0.13503462 -0.047356322 0.052659601
0.13452272 -0.046145692 0.05224964
0.13401054 -0.044934541 0.051839471
0.13349821 -0.043722838 0.051429152
0.13298556 -0.042510644 0.051018655
0.13247274 -0.041297942 0.05060792
0.13195969 -0.04008469 0.050197035
0.13144644 -0.038870931 0.049786031
0.13093294 -0.037656605 0.049374819
0.13041922 -0.036441788 0.048963428
0.12990527 -0.035226434 0.048551887
0.12939115 -0.034010544 0.048140138
0.12887678 -0.032794163 0.047728211
0.1283882 -0.031501532 0.047459364
0.12797265 -0.029999658 0.04758963
0.12732373 0.074684098 0.13907275
0.12668417 0.075258985 0.1377244
0.12604085 0.075837269 0.13636804
0.12539364 0.076419055 0.13500351
0.12474258 0.077004328 0.13363087
0.12408753 0.077593133 0.13224983
0.12342855 0.078185484 0.13086054
0.12276559 0.078781441 0.12946272
0.12209855 0.079381019 0.12805641
0.12142746 0.079984277 0.1266416
0.12075225 0.080591202 0.12521803
0.12007293 0.081201866 0.12378576
0.1193894 0.081816316 0.12234467
0.11870162 0.08243452 0.12089464
0.11800958 0.083056584 0.11943567
0.11731327 0.083682507 0.11796761
0.11661258 0.08431232 0.11649033
0.11590756 0.084946126 0.11500388
0.11519811 0.085583866 0.11350811
0.11410709 0.085738242 0.11047083
0.11225578 0.084943861 0.10437495
0.11034976 0.084126085 0.098098874
0.10838713 0.083284557 0.091636777
0.10636452 0.082417309 0.084977418
0.10427928 0.08152321 0.078111678
0.1021284 0.080600977 0.071029872
0.099908739 0.07964924 0.063721538
0.1490981 -0.083628714 0.056776941
0.14909904 -0.080040962 0.060014486
0.1490999 -0.076508895 0.063201815
0.14890698 -0.073905468 0.06498301
0.1483333 -0.073031358 0.064087361
0.14775805 -0.072154939 0.063189387
0.14718133 -0.071276151 0.062289089
0.14660306 -0.07039509 0.061386287
0.14602329 -0.069511645 0.060481191
0.14544192 -0.068625897 0.05957365
0.14485903 -0.067737766 0.058663666
0.14431337 -0.06668824 0.058008522
0.14380458 -0.065484375 0.057600588
0.14329551 -0.064280048 0.057192504
0.14278623 -0.063075207 0.056784183
0.14227676 -0.061869808 0.056375802
0.14176707 -0.060663939 0.055967063
0.14125715 -0.059457496 0.055558354
0.14074703 -0.058250539 0.055149317
0.14023666 -0.05704309 0.054740131
0.13972606 -0.055835113 0.054330856
0.13921525 -0.054626599 0.053921372
0.13870423 -0.053417608 0.05351162
0.13819301 -0.052208036 0.053101778
0.13768154 -0.050998002 0.052691668
0.13716985 -0.049787387 0.052281529
0.13665795 -0.048576266 0.051871121
0.13614582 -0.047364652 0.051460534
0.13563348 -0.046152472 0.051049769
0.1351209 -0.044939816 0.050638825
0.13460813 -0.043726593 0.050227731
0.13409513 -0.042512879 0.049816459
0.13358188 -0.041298628 0.049405009
0.13306841 -0.040083826 0.048993349
0.13255472 -0.038868546 0.048581541
0.13204086 -0.037652686 0.048169583
0.13152671 -0.036436349 0.047757357
0.1310124 -0.035219461 0.047344983
0.1304978 -0.034002051 0.046932459
0.12998304 -0.032784104 0.046519786
0.12953126 -0.031379506 0.046460241
0.12911426 -0.0298765 0.04659161
0.12869805 -0.028376386 0.04672268
0.12828265 -0.026879117 0.046853542
0.12786804 -0.025384724 0.046984076
0.12822516 0.074872509 0.1384294
0.12758805 0.07544817 0.13707858
0.12694715 0.076027304 0.13571969
0.12630235 0.07660991 0.13435265
0.1256537 0.077195987 0.13297737
0.12500113 0.077785626 0.13159382
0.12434468 0.078378871 0.13020191
0.12368415 0.078975648 0.12880144
0.12301964 0.07957609 0.12739256
0.1223511 0.080180198 0.12597507
0.12167841 0.080788001 0.12454882
0.1210016 0.08139956 0.1231139
0.12032063 0.082014874 0.12167007
0.1196354 0.082633987 0.12021729
0.11894599 0.08325693 0.11875558
0.11825226 0.083883762 0.11728472
0.11755422 0.084514529 0.1158047
0.11685178 0.085149214 0.11431542
0.11614494 0.085787892 0.11281678
0.11456162 0.085294202 0.1077247
0.11270654 0.084488824 0.10155398
0.11079668 0.083660096 0.095201492
0.10882933 0.082806587 0.088657916
0.10680155 0.081926897 0.081913412
0.10471064 0.081019774 0.074958742
0.10255343 0.080083936 0.067783743
0.14909708 -0.081774771 0.053940982
0.14909805 -0.078189164 0.057211995
0.14909896 -0.074659422 0.060432106
0.14881112 -0.072478235 0.06156823
0.14823446 -0.071597911 0.06066373
0.14765628 -0.070715286 0.059756815
0.14707658 -0.069830328 0.058847457
0.14649533 -0.068942979 0.057935655
0.14594276 -0.067925654 0.057227284
0.14543377 -0.066720814 0.056818813
0.14492455 -0.065515496 0.056410134
0.14441511 -0.064309679 0.056001186
0.14390543 -0.063103288 0.055592209
0.14339556 -0.061896391 0.055182964
0.14288548 -0.060688995 0.054773539
0.14237516 -0.05948104 0.054363966
0.1418646 -0.058272593 0.053954214
0.14135385 -0.057063609 0.053544283
0.14084287 -0.055854112 0.053134203
0.14033166 -0.054644078 0.052723855
0.13982022 -0.053433567 0.052313387
0.13930862 -0.05222249 0.051902771
0.1387967 -0.051010892 0.051491976
0.13828465 -0.049798772 0.051081002
0.13777231 -0.048586175 0.05066976
0.13725977 -0.047372982 0.050258458
0.13674706 -0.046159312 0.049846888
0.13623409 -0.044945091 0.049435169
0.13572088 -0.043730363 0.04902333
0.13520749 -0.042515099 0.048611253
0.13469382 -0.041299313 0.048198998
0.13417993 -0.040083021 0.047786534
0.13366589 -0.038866162 0.04737398
0.13315156 -0.037648782 0.046961218
0.13263704 -0.036430895 0.046548277
0.13212228 -0.035212487 0.046135128
0.13160731 -0.033993512 0.045721829
0.13109535 -0.032764256 0.045326859
0.13067612 -0.031257242 0.045459539
0.13025773 -0.029753178 0.045591921
0.12984008 -0.028251916 0.045724064
0.12942323 -0.026753575 0.045855969
0.12900721 -0.025258094 0.045987606
0.12859198 -0.02376546 0.046118975
