# .PCD v0.7 - Point Cloud Data file format
VERSION 0.7
FIELDS x y z
SIZE 4 4 4
TYPE F F F
COUNT 1 1 1
WIDTH 1374
HEIGHT 1
VIEWPOINT 0 0 0 1 0 0 0
POINTS 1374
DATA ascii
0.069007836 -0.061972469 0.18237942
0.069557175 -0.064157099 0.18148285
0.093667746 -0.089500718 0.15313905
0.093667716 -0.091305606 0.15285745
0.093667701 -0.093116671 0.1525749
0.093667641 -0.094933972 0.15229145
0.093667611 -0.096757606 0.15200695
0.093667619 -0.098587573 0.15172145
0.093667597 -0.10042387 0.15143493
0.093667582 -0.10226658 0.15114751
0.093667567 -0.10411569 0.150859
0.093667522 -0.10597122 0.15056953
0.0936675 -0.10783327 0.1502791
0.093667492 -0.10970189 0.14998755
0.093667477 -0.11157703 0.14969498
0.093667448 -0.11345873 0.14940146
0.093667403 -0.11534709 0.14910689
0.093667403 -0.11724213 0.14881122
0.093667388 -0.11914382 0.14851451
0.093667366 -0.12105228 0.14821678
0.093667313 -0.12296746 0.14791808
0.093667209 -0.1248894 0.14761829
0.093667068 -0.12681812 0.14731756
0.093666919 -0.12875372 0.14701572
0.093666792 -0.13069627 0.14671272
0.093666673 -0.13264576 0.1464088
0.093666799 -0.13460252 0.14610329
0.093666971 -0.13656634 0.14579678
0.093667105 -0.13853723 0.14548916
0.093667284 -0.14051521 0.14518031
0.093667403 -0.14250031 0.14487052
0.093667567 -0.14449266 0.1445595
0.093667716 -0.14649218 0.14424741
0.093667842 -0.14849897 0.14393416
0.093667991 -0.15051304 0.14361981
0.093668178 -0.15253451 0.14330417
0.093668312 -0.15456331 0.14298755
0.093668476 -0.15659955 0.14266971
0.09366861 -0.15864325 0.1423507
0.093668774 -0.16069448 0.14203051
0.093668915 -0.16275316 0.14170921
0.093669072 -0.16481952 0.14138666
0.093669191 -0.16689344 0.14106297
0.093669392 -0.16897514 0.14073798
0.093669541 -0.17106447 0.14041185
0.093669675 -0.17316152 0.14008456
0.093669832 -0.17526643 0.13975596
0.093669996 -0.17737919 0.13942623
0.093670145 -0.17949982 0.13909513
0.093670316 -0.18162838 0.13876292
0.093670458 -0.18376493 0.13842946
0.093670607 -0.18590946 0.13809472
0.093670726 -0.18806203 0.13775879
0.093670845 -0.19022271 0.13742152
0.093670942 -0.19239153 0.13708305
0.093671083 -0.19456862 0.13674325
0.093671203 -0.19675387 0.13640216
0.093671337 -0.19894749 0.13605985
0.093671449 -0.20114943 0.13571617
0.093671568 -0.20335977 0.13537115
0.093671709 -0.20557852 0.13502491
0.093671836 -0.20780578 0.13467729
0.09367194 -0.21004157 0.13432831
0.093672074 -0.21228594 0.13397801
0.093672186 -0.21453895 0.13362646
0.09367232 -0.21680066 0.13327336
0.093672469 -0.21907113 0.13291907
0.093672581 -0.22135033 0.13256329
0.0936727 -0.2236384 0.1322062
0.093672812 -0.22593533 0.13184774
0.093672968 -0.22824124 0.13148785
0.094000988 -0.23102926 0.13072103
0.095270917 -0.23519771 0.12878603
0.096556284 -0.23941709 0.12682742
0.09860415 -0.24478309 0.12391877
0.10079376 -0.25039867 0.12082762
0.10302324 -0.25611651 0.11768025
0.10529357 -0.26193923 0.11447519
0.10760607 -0.26786995 0.11121064
0.10996222 -0.27391219 0.10788447
0.11236327 -0.28006917 0.10449505
0.11481013 -0.28634363 0.1010409
0.11587881 -0.29056078 0.099301875
0.11534096 -0.29233742 0.099568844
0.11480223 -0.29411453 0.099836528
0.11558987 -0.29795206 0.098441005
0.11655903 -0.30209595 0.096814096
0.11753792 -0.30628127 0.095170975
0.11852605 -0.31050771 0.093511939
0.11952337 -0.31477547 0.091837227
0.14788988 0.079635382 0.12279129
0.14577842 0.078983381 0.12483394
0.14368573 0.078337207 0.12685829
0.14161144 0.077696696 0.12886494
0.13955541 0.077061802 0.13085395
0.13751739 0.076432452 0.13282543
0.13549706 0.075808659 0.1347799
0.1334943 0.075190201 0.13671729
0.13150875 0.074577123 0.13863808
0.12954035 0.07396926 0.1405423
0.12758878 0.073366687 0.14243019
0.1256538 0.07276918 0.14430207
0.12373529 0.072176754 0.14615801
0.121833 0.071589336 0.14799818
0.11994672 0.071006879 0.14982298
0.11807633 0.070429236 0.15163234
0.11622153 0.069856435 0.15342656
0.11438213 0.069288403 0.15520597
0.11255802 0.06872502 0.15697059
0.11091743 0.068091691 0.15853763
0.10996357 0.067161188 0.15935996
0.10901259 0.066233471 0.16017988
0.10806442 0.065308496 0.16099727
0.10711906 0.064386338 0.16181225
0.10617656 0.063466892 0.16262484
0.10523685 0.062550172 0.16343492
0.10429993 0.061636224 0.16424271
0.1033658 0.060724929 0.16504803
0.10243437 0.059816375 0.16585103
0.10150579 0.058910489 0.16665164
0.10057992 0.058007285 0.1674498
0.099656768 0.057106748 0.16824561
0.098736346 0.056208849 0.1690391
0.097818621 0.055313602 0.16983035
0.096903563 0.054420993 0.17061928
0.095991224 0.053530991 0.17140579
0.09508156 0.052643582 0.17219004
0.094174534 0.051758781 0.17297193
0.093270198 0.050876543 0.17375159
0.092368469 0.049996883 0.17452902
0.09146937 0.0491198 0.17530414
0.090572871 0.048245236 0.17607707
0.08967898 0.047373235 0.17684761
0.088787705 0.046503752 0.177616
0.087899014 0.045636788 0.17838213
0.087012872 0.044772327 0.17914614
0.086129248 0.043910339 0.17990786
0.085248224 0.04305087 0.18066749
0.084369689 0.04219386 0.18142486
0.083493717 0.041339293 0.18218002
0.082620263 0.0404872 0.18293303
0.081749298 0.039637521 0.1836839
0.080880798 0.038790315 0.18443263
0.080014795 0.037945494 0.18517926
0.079151265 0.037103117 0.18592376
0.078290187 0.036263108 0.1866661
0.077431604 0.035425484 0.18740627
0.076575413 0.034590259 0.18814445
0.075721651 0.033757389 0.18888047
0.074870303 0.032926902 0.18961439
0.074021377 0.03209874 0.1903463
0.073174857 0.031272903 0.1910761
0.072579779 0.030291289 0.19152573
0.072213724 0.029164612 0.19171986
0.071847528 0.02803731 0.19191393
0.071481094 0.026909426 0.19210821
0.071114466 0.025780946 0.19230258
0.070747688 0.024651825 0.19249704
0.070380658 0.023522168 0.19269159
0.070013426 0.022391871 0.19288635
0.06964606 0.021260977 0.19308108
0.069278471 0.020129472 0.19327593
0.068910666 0.018997416 0.19347095
0.068542682 0.017864689 0.19366604
0.068174504 0.016731396 0.19386125
0.06780611 0.015597507 0.19405654
0.067437552 0.014462978 0.19425192
0.067068771 0.013327867 0.19444746
0.066699788 0.01219216 0.19464308
0.066330649 0.011055812 0.19483873
0.065961272 0.0099189132 0.19503459
0.065591708 0.0087813586 0.19523057
0.06522195 0.0076432079 0.19542658
0.064852014 0.0065044314 0.19562265
0.064481862 0.0053650737 0.19581893
0.064111486 0.004225105 0.19601533
0.063740931 0.0030845404 0.19621179
0.063370176 0.0019433498 0.19640833
0.062999219 0.00080157816 0.196605
0.062628113 -0.00034087896 0.19680169
0.062256761 -0.0014838874 0.19699857
0.061885215 -0.0026275218 0.19719559
0.061513461 -0.0037717521 0.19739267
0.061141513 -0.0049166083 0.19758987
0.060769409 -0.0060621053 0.19778708
0.060397044 -0.0072081685 0.19798455
0.060024515 -0.0083548874 0.19818211
0.059651755 -0.0095021874 0.19837967
0.059278816 -0.010650128 0.19857737
0.058905661 -0.011798635 0.1987752
0.05853235 -0.012947828 0.19897318
0.058158815 -0.014097616 0.19917119
0.057785064 -0.015248001 0.19936934
0.057411112 -0.016399011 0.19956759
0.057036951 -0.017550632 0.19976592
0.056662619 -0.018702909 0.1999644
0.056757353 -0.020259306 0.19962245
0.057225414 -0.02214478 0.19884911
0.057696685 -0.024043158 0.19807053
0.05817122 -0.025954574 0.19728658
0.058648981 -0.027879119 0.19649726
0.059130043 -0.02981697 0.19570246
0.059614442 -0.031768233 0.19490221
0.060102195 -0.033733055 0.19409636
0.060593359 -0.035711586 0.19328493
0.06108804 -0.037704051 0.19246766
0.061586216 -0.039710522 0.1916447
0.062087908 -0.041731164 0.19081584
0.062593147 -0.043766096 0.18998122
0.06310197 -0.045815498 0.18914062
0.063614406 -0.047879487 0.18829408
0.064130545 -0.049958251 0.18744138
0.064650387 -0.052051961 0.1865826
0.065173984 -0.054160759 0.18571767
0.065701298 -0.056284763 0.18484646
0.06623251 -0.058424219 0.18396887
0.066767566 -0.060579255 0.18308496
0.067306541 -0.062750041 0.18219453
0.067849435 -0.064936742 0.18129766
0.093668275 -0.09218888 0.1507597
0.093668267 -0.094008759 0.15047246
0.093668215 -0.095834956 0.15018415
0.093668237 -0.09766753 0.1498948
0.093668178 -0.099506438 0.14960456
0.093668178 -0.10135181 0.14931315
0.093668163 -0.10320358 0.14902088
0.093668133 -0.10506184 0.14872751
0.093668103 -0.10692661 0.14843312
0.093668096 -0.10879795 0.14813766
0.093668059 -0.11067584 0.14784119
0.093668044 -0.11256039 0.14754367
0.093668059 -0.11445157 0.14724514
0.093667984 -0.1163494 0.14694557
0.093667999 -0.11825401 0.1466448
0.093667947 -0.12016533 0.14634314
0.093667924 -0.12208347 0.14604032
0.093667872 -0.1240084 0.14573646
0.093667723 -0.1259401 0.14543161
0.093667582 -0.12787873 0.14512572
0.093667462 -0.12982428 0.14481863
0.093667328 -0.13177681 0.14451054
0.093667254 -0.13373643 0.14420119
0.093667373 -0.13570336 0.14389059
0.093667537 -0.13767737 0.14357874
0.093667679 -0.13965851 0.14326578
0.093667835 -0.14164685 0.14295173
0.093667962 -0.14364237 0.14263657
0.093668133 -0.14564517 0.14232013
0.093668282 -0.14765525 0.14200264
0.093668424 -0.14967266 0.14168397
0.093668595 -0.15169744 0.1413641
0.093668729 -0.15372962 0.14104319
0.093668923 -0.15576929 0.14072093
0.093669042 -0.1578164 0.14039764
0.093669191 -0.15987106 0.14007306
0.093669355 -0.16193333 0.13974729
0.093669489 -0.16400318 0.13942036
0.093669653 -0.1660807 0.13909224
0.093669794 -0.16816589 0.13876283
0.093669936 -0.17025886 0.13843223
0.09367013 -0.17235966 0.13810042
0.093670271 -0.17446825 0.13776734
0.09367042 -0.17658472 0.13743296
0.093670607 -0.17870909 0.13709751
0.093670741 -0.18084143 0.13676068
0.093670912 -0.1829818 0.13642257
0.093671083 -0.18513025 0.13608316
0.09367121 -0.18728672 0.1357426
0.093671322 -0.18945135 0.13540071
0.093671456 -0.19162413 0.13505757
0.093671575 -0.19380517 0.13471305
0.093671672 -0.1959945 0.13436729
0.093671814 -0.19819216 0.13402024
0.093671933 -0.20039824 0.13367176
0.093672052 -0.2026127 0.13332206
0.093672179 -0.20483564 0.13297099
0.093672343 -0.20706715 0.13261849
0.093672439 -0.20930716 0.13226473
0.093672574 -0.21155585 0.13190961
0.093672693 -0.2138132 0.13155305
0.093672805 -0.21607925 0.13119513
0.093672961 -0.21835414 0.13083589
0.09367308 -0.22063781 0.13047522
0.093673185 -0.22293034 0.13011312
0.093673341 -0.22523187 0.1297496
0.093673483 -0.22754234 0.12938464
0.093673587 -0.22986181 0.12901831
0.093673714 -0.23219039 0.12865061
0.093673825 -0.23452809 0.12828135
0.093673974 -0.23687504 0.12791073
0.094961196 -0.24112502 0.12593168
0.097102329 -0.24666715 0.122881
0.099282131 -0.25230938 0.1197753
0.10150166 -0.25805447 0.11661291
0.10376199 -0.2639052 0.11339241
0.10606433 -0.26986462 0.11011201
0.10841023 -0.27593634 0.10676974
0.11080088 -0.28212351 0.10336363
0.11323728 -0.28842896 0.099892437
0.11331177 -0.29114154 0.09938854
0.11277352 -0.292916 0.099655271
0.11254543 -0.29517555 0.09953028
0.11349505 -0.29928643 0.097916305
0.11445408 -0.30343807 0.096286356
0.11542262 -0.30763111 0.094640195
0.11639957 -0.31186414 0.092979133
0.1173864 -0.31613988 0.091301322
0.14880984 0.080621883 0.12011209
0.14668497 0.079962611 0.1221756
0.14457908 0.07930918 0.12422076
0.14249176 0.078661591 0.12624782
0.14042291 0.078019679 0.12825701
0.13837221 0.077383444 0.13024855
0.13633952 0.076752737 0.13222256
0.13432445 0.076127559 0.13417953
0.13232684 0.075507775 0.13611943
0.13034652 0.074893326 0.13804266
0.12838317 0.074284196 0.13994935
0.12643668 0.073680267 0.14183968
0.12450677 0.073081464 0.14371389
0.12259319 0.072487772 0.14557219
0.12069581 0.071899086 0.14741486
0.11881445 0.071315318 0.14924195
0.11694892 0.070736423 0.15105361
0.11509893 0.070162371 0.15285021
0.11326432 0.069593102 0.15463191
0.11144494 0.069028497 0.15639871
0.10964046 0.068468615 0.15815118
0.10854736 0.067601502 0.1591284
0.10759944 0.066674069 0.15994775
0.10665432 0.065749422 0.16076475
0.10571206 0.064827487 0.16157916
0.1047726 0.063908324 0.16239133
0.10383594 0.062991902 0.16320097
0.10290205 0.062078178 0.1640082
0.10197091 0.061167195 0.16481304
0.10104252 0.060258865 0.16561565
0.10011689 0.059353247 0.16641575
0.099193998 0.058450297 0.16721347
0.098273821 0.057549998 0.16800889
0.097356349 0.056652352 0.16880199
0.096441582 0.055757344 0.16959271
0.095529437 0.054864973 0.17038113
0.094620049 0.053975195 0.17116719
0.093713284 0.053088039 0.17195103
0.092809156 0.052203462 0.17273262
0.091907725 0.051321447 0.1735118
0.091008827 0.05044204 0.17428878
0.090112604 0.049565151 0.17506352
0.089218959 0.048690826 0.175836
0.0883279 0.047819048 0.17660624
0.087439477 0.046949744 0.17737415
0.086553603 0.046082973 0.17813987
0.085670263 0.045218736 0.17890343
0.084789477 0.044356957 0.17966485
0.083911218 0.043497682 0.18042395
0.083035484 0.042640865 0.18118101
0.082162268 0.041786507 0.18193576
0.081291579 0.040934578 0.18268842
0.080423363 0.040085122 0.18343893
0.07955759 0.03923808 0.18418729
0.078694321 0.038393453 0.18493354
0.077833511 0.037551224 0.18567759
0.076975144 0.03671141 0.18641955
0.076119229 0.035873964 0.18715945
0.075265743 0.035038888 0.18789718
0.074414678 0.034206212 0.18863288
0.07356599 0.033375859 0.1893664
0.07271973 0.032547876 0.19009793
0.071875826 0.031722233 0.19082746
0.071049586 0.030889168 0.19153771
0.070683785 0.029764652 0.19173139
0.070317812 0.02863954 0.19192529
0.069951653 0.027513802 0.19211912
0.069585256 0.026387498 0.19231319
0.069218688 0.025260597 0.19250733
0.068851948 0.024133056 0.19270155
0.068484992 0.023004949 0.19289589
0.068117835 0.021876231 0.19309032
0.067750521 0.020746917 0.19328481
0.067382947 0.019617006 0.19347948
0.067015208 0.0184865 0.19367424
0.066647291 0.017355368 0.19386902
0.066279165 0.016223669 0.19406405
0.065910868 0.015091315 0.19425902
0.065542333 0.013958395 0.19445416
0.065173618 0.012824878 0.19464952
0.064804718 0.011690736 0.19484481
0.064435571 0.010556027 0.19504032
0.064066261 0.0094206929 0.19523594
0.063696772 0.0082847476 0.19543159
0.063327037 0.0071482211 0.19562739
0.062957183 0.006011039 0.19582325
0.062587075 0.0048732758 0.19601929
0.062216766 0.0037349164 0.19621539
0.061846271 0.0025959462 0.19641161
0.061475582 0.0014563799 0.19660792
0.061104693 0.00031617284 0.19680437
0.060733616 -0.00082463026 0.1970008
0.060362309 -0.0019660145 0.19719741
0.059990831 -0.0031080395 0.19739419
0.059619151 -0.0042506754 0.19759098
0.059247255 -0.0053938925 0.19778797
0.058875181 -0.0065377653 0.19798499
0.058502927 -0.007682249 0.19818217
0.058130436 -0.0088272989 0.19837946
0.05775778 -0.0099729896 0.19857681
0.057384871 -0.011119306 0.19877428
0.057011813 -0.012266219 0.19897184
0.056638509 -0.013413742 0.19916949
0.056265071 -0.014561906 0.19936728
0.055891372 -0.015710667 0.19956523
0.05551751 -0.016860038 0.19976318
0.055143423 -0.01801002 0.19996127
0.054769121 -0.019160613 0.20015952
0.055181853 -0.020994961 0.19944525
0.055644408 -0.022882342 0.19867155
0.056110106 -0.024782568 0.19789264
0.056579039 -0.026695877 0.19710833
0.057051174 -0.028622344 0.19631863
0.057526566 -0.030562088 0.1955235
0.058005229 -0.032515272 0.19472295
0.058487229 -0.034482017 0.19391671
0.058972619 -0.036462516 0.19310492
0.059461497 -0.038456962 0.1922873
0.059953779 -0.0404654 0.19146392
0.060449563 -0.042488024 0.19063476
0.060948811 -0.044524938 0.18979973
0.061451621 -0.046576291 0.18895876
0.061958015 -0.048642278 0.18811181
0.062468067 -0.050723083 0.18725878
0.062981725 -0.05281879 0.1863997
0.063499115 -0.054929592 0.18553436
0.064020239 -0.057055645 0.18466285
0.064545147 -0.059197128 0.18378493
0.065073878 -0.06135422 0.18290067
0.065606445 -0.063527055 0.18200991
0.066142961 -0.065715827 0.18111265
0.093668863 -0.094908088 0.14835295
0.093668841 -0.096743256 0.14805982
0.093668766 -0.098584756 0.1477657
0.093668774 -0.10043277 0.14747044
0.093668751 -0.10228724 0.14717412
0.093668729 -0.10414822 0.14687693
0.093668729 -0.10601573 0.14657852
0.093668655 -0.10788975 0.14627922
0.093668655 -0.10977047 0.14597881
0.093668669 -0.11165782 0.14567721
0.09366864 -0.1135518 0.14537475
0.093668625 -0.11545253 0.14507103
0.093668602 -0.11735999 0.1447663
0.09366855 -0.11927422 0.14446059
0.093668535 -0.12119531 0.14415368
0.09366852 -0.12312324 0.14384571
0.093668401 -0.12505795 0.14353675
0.093668267 -0.12699959 0.14322665
0.093668133 -0.12894817 0.14291552
0.093668029 -0.13090381 0.14260319
0.09366788 -0.13286644 0.14228979
0.09366779 -0.13483623 0.14197522
0.093667954 -0.1368134 0.1416592
0.093668133 -0.13879775 0.14134201
0.093668252 -0.14078927 0.14102376
0.093668394 -0.14278802 0.14070421
0.093668558 -0.14479408 0.14038363
0.093668699 -0.14680743 0.14006177
0.093668878 -0.14882819 0.13973883
0.093669012 -0.15085635 0.13941467
0.093669176 -0.15289193 0.13908923
0.093669288 -0.15493491 0.13876274
0.093669474 -0.15698554 0.13843501
0.093669638 -0.1590437 0.13810602
0.093669787 -0.16110945 0.13777587
0.093669936 -0.16318285 0.13744441
0.093670085 -0.16526394 0.13711187
0.093670264 -0.1673528 0.13677794
0.093670413 -0.16944937 0.13644281
0.093670547 -0.17155378 0.13610655
0.093670718 -0.1736661 0.13576889
0.093670905 -0.17578629 0.13542998
0.093671024 -0.17791446 0.13508984
0.093671188 -0.1800506 0.1347484
0.093671352 -0.1821948 0.1344057
0.093671545 -0.18434714 0.1340616
0.093671679 -0.18650754 0.13371634
0.093671821 -0.1886761 0.1333698
0.093671918 -0.19085285 0.13302198
0.093672052 -0.19303793 0.13267273
0.093672186 -0.19523132 0.13232216
0.09367229 -0.19743304 0.13197029
0.093672439 -0.19964324 0.13161713
0.093672551 -0.20186186 0.13126254
0.09367267 -0.20408902 0.13090664
0.093672819 -0.20632473 0.13054931
0.093672931 -0.20856905 0.13019061
0.093673095 -0.21082206 0.12983054
0.093673192 -0.21308373 0.12946916
0.093673326 -0.2153542 0.12910622
0.093673445 -0.21763349 0.12874192
0.093673594 -0.21992163 0.12837631
0.093673706 -0.22221869 0.1280092
0.09367384 -0.22452474 0.1276406
0.093673967 -0.22683977 0.1272707
0.093674116 -0.22916394 0.12689924
0.093674242 -0.2314972 0.1265263
0.093674317 -0.23383957 0.12615204
0.093674496 -0.23619133 0.12577617
0.093674615 -0.23855229 0.12539881
0.093674764 -0.24092261 0.12502009
0.093674779 -0.2433022 0.12463987
0.09559539 -0.2485576 0.12183994
0.097765312 -0.25422665 0.11871934
0.099974826 -0.25999919 0.11554188
0.10222507 -0.26587808 0.11230576
0.10451716 -0.27186632 0.10900962
0.10685268 -0.27796763 0.10565096
0.10923293 -0.28418523 0.10222811
0.1112887 -0.289949 0.099208951
0.11075088 -0.29172081 0.099474847
0.11021228 -0.29349321 0.099741459
0.11045952 -0.29650298 0.099008322
0.11139905 -0.30062145 0.097391307
0.11234802 -0.30478102 0.0957582
0.11330526 -0.30898029 0.09411025
0.11427191 -0.31322131 0.092446089
0.11524828 -0.31750512 0.090765119
0.14759961 0.080950469 0.11949381
0.1454803 0.080289766 0.12155995
0.14337985 0.07963495 0.12360775
0.14129797 0.078985974 0.12563747
0.13923451 0.078342646 0.12764916
0.13718918 0.077705026 0.12964323
0.13516173 0.077072978 0.13161984
0.13315195 0.076446399 0.13357922
0.13115957 0.075825259 0.13552165
0.12918437 0.075209543 0.1374473
0.12722619 0.074599043 0.13935643
0.1252847 0.073993832 0.14124927
0.12335981 0.073393717 0.1431258
0.12145126 0.072798714 0.1449866
0.1195588 0.072208762 0.14683154
0.11768231 0.071623743 0.14866099
0.11582163 0.071043596 0.15047503
0.11397645 0.070468307 0.15227392
0.11214663 0.069897771 0.15405786
0.11033195 0.069331959 0.15582705
0.10853218 0.068770841 0.15758169
0.10713401 0.068040907 0.15889725
0.10618919 0.067113742 0.1597161
0.10524712 0.066189408 0.16053262
0.1043079 0.065267757 0.16134667
0.10337149 0.064348876 0.16215819
0.10243782 0.063432708 0.16296747
0.10150696 0.062519252 0.16377422
0.10057886 0.061608508 0.16457859
0.09965343 0.060700491 0.16538066
0.098730773 0.059795126 0.16618034
0.097810857 0.058892399 0.16697764
0.096893623 0.057992369 0.16777262
0.095979109 0.057094976 0.16856518
0.095067278 0.056200206 0.16935548
0.094158091 0.055308059 0.17014351
0.093251586 0.054418534 0.17092922
0.092347704 0.053531617 0.17171264
0.091446489 0.052647248 0.17249367
0.090547927 0.051765472 0.17327243
0.089651905 0.050886273 0.17404902
0.088758521 0.050009638 0.17482334
0.087867737 0.049135521 0.17559534
0.086979508 0.048263952 0.17636517
0.086093925 0.047394872 0.17713279
0.085210845 0.046528324 0.17789814
0.084330298 0.045664281 0.17866123
0.083452336 0.044802681 0.17942223
0.082576834 0.043943614 0.180181
0.081703871 0.043086991 0.18093762
0.080833413 0.042232841 0.181692
0.079965465 0.041381106 0.18244424
0.079099976 0.040531814 0.18319434
0.07823696 0.039684966 0.18394235
0.07737641 0.038840517 0.18468824
0.076518327 0.037998468 0.18543193
0.075662658 0.037158817 0.18617353
0.074809402 0.03632158 0.18691307
0.073958628 0.035486668 0.18765041
0.073110215 0.03465414 0.18838573
0.072264202 0.033823982 0.18911895
0.07142058 0.032996133 0.18985012
0.070579313 0.032170638 0.19057927
0.069740437 0.031347483 0.19130629
0.069159307 0.030362546 0.19174293
0.068793565 0.029239595 0.19193643
0.0684276 0.028116047 0.19213006
0.068061493 0.026991889 0.19232371
0.067695178 0.025867134 0.19251749
0.067328647 0.024741799 0.19271138
0.066961966 0.023615822 0.19290537
0.066595048 0.02248928 0.1930995
0.06622798 0.021362126 0.1932936
0.065860666 0.020234406 0.19348797
0.065493181 0.01910606 0.19368237
0.065125518 0.017977118 0.19387686
0.064757638 0.016847581 0.19407147
0.064389549 0.015717447 0.19426614
0.064021312 0.014586702 0.19446093
0.063652843 0.013455361 0.19465587
0.063284181 0.012323424 0.19485092
0.062915333 0.011190876 0.19504598
0.062546276 0.010057747 0.19524127
0.06217701 0.0089240223 0.1954366
0.061807565 0.0077896565 0.19563201
0.061437935 0.0066547096 0.19582763
0.061068058 0.0055191666 0.1960232
0.060698055 0.0043829679 0.196219
0.06032782 0.003246218 0.19641483
0.059957378 0.0021088421 0.19661075
0.059586741 0.00097087026 0.19680688
0.059215896 -0.00016771257 0.19700301
0.058844887 -0.0013068914 0.19719937
0.058473676 -0.0024467111 0.19739565
0.05810225 -0.0035871267 0.1975922
0.057730608 -0.0047281384 0.19778877
0.057358786 -0.0058697462 0.19798547
0.056986764 -0.0070119798 0.19818228
0.056614548 -0.0081548244 0.19837922
0.056242153 -0.0092983097 0.19857624
0.055869527 -0.010442376 0.19877335
0.055496722 -0.011587054 0.19897053
0.055123702 -0.012732342 0.19916788
0.05475048 -0.013878226 0.19936526
0.054377057 -0.015024751 0.19956282
0.054003485 -0.016171902 0.19976047
0.053629659 -0.017319649 0.19995821
0.053255647 -0.018468007 0.20015609
0.053153448 -0.019853666 0.20003685
0.053607404 -0.021730125 0.19926813
0.054064453 -0.023619369 0.19849411
0.054524601 -0.025521502 0.19771481
0.054987945 -0.027436718 0.19693017
0.055454433 -0.029365063 0.19614014
0.05592417 -0.031306729 0.19534466
0.05639714 -0.033261836 0.19454369
0.056873374 -0.035230502 0.19373712
0.057353005 -0.037212968 0.19292498
0.057836026 -0.039209351 0.19210699
0.058322474 -0.041219786 0.19128326
0.058812328 -0.043244347 0.19045371
0.059305608 -0.045283213 0.18961841
0.059802428 -0.047336578 0.18877709
0.060302779 -0.049404591 0.18792975
0.060806721 -0.051487356 0.18707642
0.06131427 -0.053585082 0.18621698
0.061825462 -0.055697881 0.18535125
0.062340349 -0.057825983 0.18447936
0.062858984 -0.059969515 0.18360105
0.063381381 -0.062128611 0.18271646
0.063907579 -0.06430351 0.18182531
0.093669415 -0.095814668 0.1462163
0.093669429 -0.09765888 0.14591819
0.093669385 -0.099509537 0.14561909
0.09366937 -0.10136667 0.14531887
0.093669325 -0.10323033 0.14501771
0.093669325 -0.10510058 0.14471537
0.093669333 -0.10697741 0.14441201
0.09366928 -0.10886089 0.14410758
0.093669236 -0.11075099 0.14380211
0.093669251 -0.11264785 0.1434955
0.093669251 -0.11455145 0.14318779
0.093669206 -0.1164618 0.14287904
0.093669191 -0.11837895 0.14256915
0.093669139 -0.12030292 0.14225817
0.093669131 -0.12223385 0.14194605
0.093669079 -0.12417161 0.14163291
0.093668938 -0.12611625 0.14131865
0.093668811 -0.12806791 0.14100337
0.093668699 -0.13002658 0.14068687
0.093668565 -0.13199234 0.14036924
0.093668431 -0.13396522 0.14005044
0.093668371 -0.13594529 0.13973045
0.093668535 -0.13793282 0.13940901
0.093668684 -0.13992757 0.13908646
0.093668833 -0.1419296 0.13876262
0.093668982 -0.1439389 0.13843775
0.093669146 -0.14595559 0.13811156
0.093669295 -0.14797965 0.13778424
0.093669452 -0.15001114 0.1374557
0.093669608 -0.15205014 0.13712597
0.093669772 -0.1540966 0.13679492
0.093669891 -0.15615062 0.13646284
0.09367004 -0.15821227 0.13612941
0.093670212 -0.16028151 0.13579473
0.093670383 -0.16235849 0.13545886
0.093670517 -0.16444317 0.1351217
0.093670666 -0.16653557 0.13478336
0.093670808 -0.16863582 0.1344437
0.093671009 -0.17074396 0.13410273
0.093671158 -0.17285994 0.13376054
0.0936713 -0.17498387 0.1334171
0.093671441 -0.17711583 0.13307232
0.093671665 -0.17925584 0.13272616
0.093671799 -0.18140388 0.13237876
0.093672007 -0.1835601 0.13202998
0.093672186 -0.18572445 0.13167998
0.093672298 -0.18789698 0.1313287
0.09367241 -0.19007771 0.13097611
0.093672544 -0.19226682 0.13062215
0.093672678 -0.19446427 0.13026673
0.093672797 -0.19667011 0.12991011
0.093672939 -0.19888446 0.12955195
0.093673043 -0.20110722 0.12919259
0.09367314 -0.20333855 0.12883174
0.093673296 -0.20557854 0.12846947
0.093673445 -0.20782718 0.12810594
0.093673564 -0.2100845 0.12774092
0.093673691 -0.21235053 0.12737453
0.093673833 -0.21462543 0.12700665
0.093673952 -0.21690916 0.12663728
0.093674086 -0.21920177 0.1262666
0.09367422 -0.22150338 0.12589449
0.093674347 -0.22381395 0.12552083
0.093674459 -0.22613361 0.12514573
0.09367463 -0.22846244 0.12476909
0.093674749 -0.23080039 0.12439114
0.093674883 -0.23314758 0.12401152
0.093675002 -0.235504 0.12363052
0.093675107 -0.23786978 0.12324798
0.093675241 -0.24024494 0.12286389
0.09367542 -0.24262963 0.12247831
0.09367539 -0.24502353 0.12209135
0.093675435 -0.24742714 0.12170267
0.094083324 -0.25045449 0.12079519
0.096243322 -0.25615054 0.11765975
0.098442718 -0.26195061 0.11446708
0.10068274 -0.26785785 0.11121547
0.10296454 -0.27387515 0.10790324
0.10528965 -0.28000623 0.10452819
0.10765933 -0.28625438 0.10108852
0.10873421 -0.29052883 0.099295437
0.10819615 -0.2922987 0.099561095
0.10765718 -0.29406896 0.099827528
0.10837249 -0.29783112 0.098486006
0.10930194 -0.30195731 0.096866012
0.11024004 -0.30612355 0.095230758
0.11118676 -0.31033024 0.093580008
0.11214302 -0.31457919 0.091912746
0.14852235 0.081947118 0.11678818
0.14638948 0.08127901 0.11887565
0.14427571 0.080616891 0.12094444
0.14218076 0.079960689 0.12299484
0.14010435 0.079310283 0.12502706
0.13804628 0.078665599 0.12704134
0.13600627 0.078026578 0.12903795
0.13398416 0.077393129 0.13101703
0.13197958 0.076765239 0.13297901
0.12999243 0.076142773 0.13492396
0.1280224 0.075525641 0.13685206
0.12606926 0.074913889 0.13876361
0.12413293 0.074307337 0.14065883
0.12221304 0.073705941 0.14253786
0.12030944 0.073109671 0.14440098
0.11842193 0.072518393 0.14624831
0.1165503 0.071932122 0.14808008
0.11469448 0.071350709 0.14989647
0.11285412 0.070774183 0.1516977
0.11102906 0.07020241 0.1534839
0.10921908 0.069635376 0.15525532
0.10742401 0.069073036 0.15701228
0.10572356 0.068479449 0.15866655
0.10478178 0.067552581 0.15948495
0.10384277 0.066628486 0.16030097
0.1029066 0.065707132 0.16111451
0.1019732 0.06478852 0.16192567
0.10104255 0.063872635 0.16273436
0.10011469 0.062959448 0.16354072
0.099189579 0.062048972 0.16434461
0.098267131 0.061141193 0.16514623
0.097347468 0.060236081 0.16594538
0.096430488 0.059333637 0.1667423
0.095516212 0.058433861 0.1675368
0.094604649 0.057536706 0.16832897
0.0936957 0.056642205 0.16911882
0.092789426 0.055750281 0.16990641
0.091885835 0.054860994 0.17069161
0.090984859 0.053974286 0.17147458
0.090086527 0.053090185 0.17225525
0.089190796 0.052208632 0.17303362
0.088297665 0.051329657 0.1738098
0.087407127 0.050453231 0.17458361
0.086519174 0.049579337 0.17535532
0.085633792 0.048707962 0.17612466
0.08475098 0.04783912 0.17689186
0.083870739 0.046972767 0.17765674
0.082992971 0.046108916 0.17841953
0.082117766 0.045247555 0.17918012
0.081245065 0.044388682 0.1799385
0.080374852 0.043532267 0.18069464
0.079507142 0.042678297 0.18144873
0.078641966 0.04182674 0.18220061
0.077779211 0.040977657 0.18295029
0.076918915 0.040130973 0.18369788
0.076061063 0.039286718 0.18444341
0.075205632 0.038444892 0.18518674
0.074352689 0.037605405 0.18592799
0.073502123 0.036768332 0.18666714
0.072654009 0.035933569 0.1874041
0.071808249 0.03510122 0.18813911
0.070964888 0.034271225 0.18887195
0.070123911 0.033443555 0.18960282
0.069285281 0.03261821 0.19033158
0.068449028 0.031795204 0.19105822
0.067640193 0.030958369 0.19175455
0.067274705 0.029837534 0.19194761
0.066909 0.028716147 0.19214085
0.066543147 0.027594119 0.19233415
0.066177078 0.026471525 0.19252762
0.0658108 0.025348336 0.19272119
0.065444373 0.024224535 0.19291481
0.065077692 0.023100168 0.19310856
0.064710826 0.021975189 0.19330248
0.06434381 0.0208496 0.19349638
0.063976556 0.019723445 0.19369045
0.063609131 0.018596679 0.19388461
0.063241526 0.017469317 0.19407889
0.062873691 0.016341344 0.19427326
0.062505662 0.015212789 0.19446769
0.062137485 0.014083609 0.19466227
0.061769061 0.012953863 0.19485694
0.061400466 0.011823505 0.1950517
0.06103164 0.010692552 0.19524667
0.060662679 0.0095609874 0.19544163
0.060293488 0.008428812 0.19563669
0.059924088 0.0072960556 0.19583189
0.059554502 0.006162703 0.19602722
0.05918473 0.0050287247 0.1962226
0.058814771 0.0038941503 0.19641805
0.058444582 0.0027589947 0.1966137
0.058074221 0.0016232133 0.19680938
0.057703644 0.00048683584 0.19700524
0.057332851 -0.00065013766 0.19720119
0.056961879 -0.0017877221 0.19739723
0.056590743 -0.0029259324 0.19759333
0.056219384 -0.0040647537 0.19778958
0.055847824 -0.005204156 0.19798598
0.055476055 -0.0063441545 0.1981824
0.055104084 -0.0074847788 0.19837898
0.054731943 -0.008626014 0.19857565
0.054359622 -0.0097678602 0.19877237
0.053987049 -0.010910317 0.19896922
0.053614303 -0.012053385 0.19916615
0.05324135 -0.013197035 0.19936326
0.052868195 -0.014341325 0.19956046
0.052494854 -0.015486225 0.19975781
0.052121319 -0.016631737 0.19995514
0.051747583 -0.01777786 0.20015264
0.051373631 -0.018924579 0.20035028
0.051585518 -0.020586476 0.19986022
0.052034013 -0.022464812 0.19909114
0.052485548 -0.024355933 0.19831675
0.052940145 -0.026259929 0.19753712
0.053397916 -0.028177023 0.19675213
0.053858794 -0.030107275 0.1959618
0.054322854 -0.032050848 0.19516596
0.054790109 -0.034007862 0.19436467
0.055260614 -0.035978481 0.19355768
0.0557345 -0.037962914 0.19274515
0.056211695 -0.039961249 0.19192687
0.056692243 -0.041973591 0.19110274
0.05717621 -0.044000149 0.19027287
0.057663575 -0.046040997 0.18943715
0.058154367 -0.048096329 0.18859544
0.058648683 -0.050166316 0.18774784
0.059146531 -0.052251086 0.18689409
0.059647948 -0.054350808 0.18603429
0.060152963 -0.056465641 0.18516827
0.060661629 -0.058595754 0.18429595
0.06117399 -0.06074132 0.18341738
0.061690092 -0.062902503 0.18253237
0.062209912 -0.065079428 0.18164095
0.093670003 -0.098581985 0.14375916
0.093669966 -0.10044179 0.14345506
0.093669944 -0.10230817 0.14314985
0.093669914 -0.10418116 0.14284351
0.093669906 -0.10606075 0.14253613
0.093669891 -0.10794701 0.14222765
0.093669862 -0.10983997 0.14191812
0.093669862 -0.11173965 0.1416074
0.093669839 -0.11364609 0.14129567
0.093669817 -0.11555932 0.14098278
0.093669772 -0.11747939 0.14066881
0.093669787 -0.11940636 0.14035368
0.093669757 -0.12134022 0.14003739
0.093669742 -0.12328104 0.13971999
0.093669623 -0.12522875 0.13940161
0.093669519 -0.12718344 0.13908198
0.093669355 -0.12914518 0.13876143
0.093669243 -0.13111407 0.13843948
0.093669116 -0.13309006 0.13811642
0.093668997 -0.13507324 0.13779217
0.093668953 -0.13706376 0.1374667
0.093669116 -0.13906172 0.13713986
0.093669295 -0.14106701 0.13681164
0.093669444 -0.14307961 0.13648239
0.093669578 -0.1450996 0.13615185
0.093669713 -0.14712697 0.13582021
0.093669884 -0.14916188 0.1354872
0.093670025 -0.1512042 0.13515306
0.093670182 -0.15325412 0.13481763
0.093670338 -0.15531163 0.13448092
0.093670487 -0.15737674 0.13414311
0.093670651 -0.15944955 0.13380393
0.093670815 -0.16153008 0.13346344
0.093670949 -0.16361831 0.13312179
0.093671113 -0.16571438 0.13277885
0.093671292 -0.16781831 0.13243455
0.093671441 -0.1699301 0.13208902
0.093671598 -0.17204985 0.13174218
0.093671784 -0.17417757 0.13139409
0.093671925 -0.17631327 0.1310446
0.093672097 -0.17845707 0.13069382
0.093672253 -0.18060899 0.13034171
0.093672425 -0.18276906 0.12998825
0.093672618 -0.18493736 0.12963343
0.093672782 -0.18711391 0.12927732
0.093672924 -0.18929867 0.1289199
0.09367305 -0.19149181 0.12856108
0.093673155 -0.19369332 0.12820095
0.093673289 -0.19590329 0.12783939
0.09367343 -0.19812177 0.12747639
0.093673542 -0.20034872 0.12711203
0.093673661 -0.20258433 0.12674636
0.093673818 -0.20482855 0.12637913
0.09367393 -0.20708148 0.12601054
0.093674071 -0.20934315 0.12564057
0.093674183 -0.21161357 0.12526911
0.093674302 -0.21389283 0.12489623
0.093674444 -0.21618105 0.12452179
0.093674593 -0.21847819 0.12414598
0.093674727 -0.22078431 0.12376869
0.093674868 -0.22309953 0.12338996
0.093674988 -0.22542377 0.12300968
0.093675122 -0.22775726 0.12262791
0.093675271 -0.23009996 0.1222446
0.09367536 -0.23245181 0.12185991
0.093675494 -0.23481306 0.12147355
0.093675643 -0.23718369 0.12108576
0.093675867 -0.23956388 0.12069619
0.093676075 -0.24195358 0.12030524
0.093676046 -0.24435245 0.11991292
0.093675971 -0.24676089 0.119519
0.093676031 -0.24917915 0.11912346
0.093676105 -0.25160712 0.11872637
0.093676195 -0.25404492 0.11832756
0.094715998 -0.25808099 0.11659658
0.096905261 -0.26390886 0.11338854
0.099135011 -0.26984453 0.11012131
0.1014064 -0.27589101 0.10679305
0.10372101 -0.2820521 0.10340136
0.10608 -0.28833097 0.09994489
0.1061859 -0.2911073 0.099381685
0.10564759 -0.29287523 0.099647105
0.10537392 -0.29506654 0.099570572
0.10628429 -0.29915994 0.097963393
0.10720341 -0.30329347 0.096340716
0.10813063 -0.30746633 0.094703317
0.10906711 -0.31168091 0.093049526
0.11001304 -0.31593788 0.091379046
0.14730677 0.082277089 0.1161674
0.14517955 0.081607535 0.11825749
0.14307129 0.080944002 0.12032893
0.14098182 0.080286354 0.12238201
0.13891084 0.079634532 0.12441677
0.13685817 0.078988492 0.1264337
0.13482349 0.0783481 0.12843287
0.13280669 0.077713311 0.13041446
0.1308074 0.077084005 0.13237885
0.1288254 0.076460212 0.13432628
0.12686053 0.07584177 0.13625687
0.12491256 0.075228646 0.13817081
0.12298122 0.074620828 0.1400685
0.12106636 0.074018121 0.14194992
0.11916776 0.073420554 0.14381537
0.11728516 0.07282801 0.14566511
0.11541846 0.072240472 0.14749935
0.11356745 0.071657836 0.14931801
0.11173189 0.071080014 0.1511215
0.10991161 0.070507005 0.15290999
0.10810636 0.069938764 0.15468377
0.106316 0.069375187 0.15644282
0.10454033 0.068816245 0.15818754
0.10337723 0.067990497 0.15925428
0.10244128 0.067066699 0.16006979
0.10150813 0.066145614 0.16088286
0.10057772 0.065227285 0.16169351
0.099650115 0.064311653 0.16250172
0.098725259 0.063398749 0.16330761
0.097803093 0.062488541 0.16411111
0.09688364 0.06158103 0.16491219
0.095966913 0.060676187 0.16571096
0.095052898 0.059773996 0.16650736
0.09414155 0.058874458 0.16730145
0.093232915 0.057977542 0.16809317
0.092326865 0.057083279 0.16888264
0.091423519 0.056191623 0.16966972
0.090522796 0.055302575 0.17045453
0.089624703 0.054416105 0.17123708
0.088729255 0.053532228 0.17201728
0.087836377 0.052650899 0.17279524
0.08694607 0.051772162 0.17357093
0.086058408 0.050895944 0.17434439
0.085173257 0.050022274 0.17511562
0.084290706 0.049151137 0.1758846
0.08341068 0.048282489 0.17665136
0.082533233 0.047416344 0.17741594
0.081658289 0.046552703 0.17817828
0.080785841 0.045691565 0.17893842
0.079915896 0.044832885 0.17969644
0.079048462 0.04397665 0.18045223
0.07818348 0.043122888 0.1812059
0.077320993 0.042271554 0.18195739
0.076460987 0.04142262 0.18270674
0.075603388 0.040576145 0.18345395
0.074748263 0.039732054 0.18419904
0.073895536 0.038890392 0.18494201
0.073045246 0.038051099 0.18568289
0.072197348 0.03721419 0.18642163
0.071351908 0.036379635 0.18715832
0.0705088 0.03554745 0.18789291
0.069668077 0.03471759 0.18862545
0.068829723 0.033890098 0.18935594
0.067993745 0.033064932 0.19008431
0.067160115 0.032242075 0.19081068
0.066328786 0.031421527 0.19153503
0.065761223 0.030433357 0.19195876
0.06539578 0.029314101 0.19215161
0.065030135 0.028194264 0.19234461
0.064664342 0.027073786 0.19253775
0.064298324 0.025952742 0.19273096
0.063932098 0.024831116 0.19292429
0.063565709 0.023708865 0.19311762
0.063199118 0.022586063 0.19331118
0.062832318 0.021462634 0.19350481
0.06246534 0.02033861 0.19369847
0.06209816 0.019214019 0.19389236
0.06173078 0.018088818 0.19408622
0.061363228 0.016963005 0.19428027
0.060995452 0.015836626 0.1944744
0.06062749 0.014709637 0.19466862
0.060259342 0.013582036 0.19486299
0.059890985 0.012453869 0.19505739
0.059522457 0.011325076 0.19525194
0.059153698 0.010195717 0.19544661
0.058784783 0.0090657175 0.19564134
0.058415651 0.0079351217 0.19583616
0.058046319 0.0068039745 0.19603115
0.057676785 0.0056722015 0.19622618
0.057307065 0.0045398176 0.19642133
0.056937143 0.0034068376 0.19661665
0.056567043 0.0022732466 0.19681197
0.056196742 0.0011390597 0.19700745
0.055826239 4.2766333e-06 0.19720304
0.055455521 -0.0011311173 0.19739872
0.055084608 -0.0022670776 0.19759449
0.054713525 -0.0034036934 0.19779041
0.05434224 -0.0045409203 0.19798636
0.053970754 -0.0056787282 0.19818252
0.05359906 -0.0068171173 0.19837868
0.053227179 -0.0079561472 0.19857496
0.05285506 -0.0090957582 0.19877142
0.052482784 -0.010235995 0.19896787
0.052110307 -0.011376843 0.19916454
0.051737636 -0.012518287 0.19936126
0.051364742 -0.013660342 0.19955814
0.050991677 -0.014803022 0.19975504
0.050618373 -0.015946269 0.19995213
0.05024489 -0.017090157 0.2001493
0.049871251 -0.018234685 0.20034647
0.049578592 -0.019451305 0.20044801
0.050018631 -0.021318823 0.19968367
0.050461628 -0.023198992 0.19891429
0.050907671 -0.025091976 0.19813952
0.051356763 -0.026997894 0.19735956
0.051808901 -0.028916836 0.1965743
0.052264199 -0.030848995 0.19578356
0.052722603 -0.032794476 0.19498736
0.053184167 -0.034753412 0.19418573
0.053649008 -0.036726013 0.19337839
0.054117106 -0.038712367 0.19256541
0.054588482 -0.040712625 0.19174674
0.055063188 -0.042726934 0.19092232
0.055541202 -0.044755414 0.19009209
0.056022637 -0.046798259 0.18925604
0.056507446 -0.048855573 0.18841401
0.056995749 -0.050927535 0.18756601
0.057487495 -0.053014293 0.18671191
0.057982802 -0.055116028 0.18585172
0.058481641 -0.057232857 0.18498543
0.058984108 -0.059365004 0.18411276
0.059490211 -0.061512604 0.18323374
0.059999973 -0.063675798 0.18234846
0.060513467 -0.065854773 0.18145663
0.093670562 -0.10138173 0.14127329
0.093670547 -0.10325745 0.14096287
0.093670502 -0.10513978 0.14065149
0.09367051 -0.10702887 0.1403389
0.093670502 -0.10892464 0.14002526
0.093670465 -0.11082715 0.13971055
0.09367045 -0.11273647 0.13939461
0.093670413 -0.1146526 0.1390776
0.09367042 -0.11657562 0.13875946
0.093670383 -0.1185055 0.1384401
0.093670368 -0.12044235 0.13811967
0.093670353 -0.12238616 0.13779813
0.093670309 -0.12433696 0.13747531
0.093670174 -0.12629473 0.13715157
0.0936701 -0.12825961 0.13682657
0.093669936 -0.13023156 0.13650048
0.093669787 -0.13221069 0.13617319
0.093669668 -0.13419706 0.13584459
0.093669526 -0.13619064 0.13551491
0.093669549 -0.1381917 0.13518384
0.093669683 -0.1402002 0.13485131
0.093669862 -0.1422161 0.13451761
0.093669996 -0.14423941 0.13418269
0.093670167 -0.14627017 0.13384649
0.093670309 -0.14830841 0.13350916
0.09367048 -0.15035419 0.13317046
0.093670622 -0.15240756 0.13283053
0.093670793 -0.15446851 0.13248944
0.093670934 -0.15653713 0.13214695
0.093671098 -0.1586135 0.1318033
0.093671262 -0.16069755 0.13145831
0.093671426 -0.16278943 0.13111192
0.093671568 -0.16488913 0.13076439
0.093671754 -0.1669967 0.1304155
0.093671896 -0.16911221 0.13006532
0.093672052 -0.17123567 0.12971383
0.093672223 -0.17336716 0.12936097
0.09367238 -0.17550668 0.12900686
0.093672551 -0.17765434 0.12865132
0.093672708 -0.17981011 0.12829447
0.093672886 -0.18197408 0.12793627
0.09367305 -0.18414633 0.12757659
0.093673252 -0.18632686 0.12721568
0.093673415 -0.18851572 0.12685335
0.093673542 -0.19071288 0.12648958
0.093673676 -0.19291851 0.12612456
0.093673781 -0.19513257 0.12575811
0.093673915 -0.19735518 0.12539023
0.093674019 -0.19958638 0.12502098
0.093674183 -0.20182621 0.12465018
0.09367431 -0.20407473 0.12427807
0.093674429 -0.20633192 0.12390447
0.093674578 -0.20859799 0.12352937
0.093674682 -0.21087277 0.12315285
0.093674816 -0.21315652 0.1227749
0.093674958 -0.21544918 0.1223954
0.093675107 -0.21775085 0.1220144
0.093675226 -0.22006153 0.12163198
0.09367539 -0.22238135 0.12124801
0.093675494 -0.22471024 0.1208626
0.093675658 -0.22704844 0.12047547
0.093675762 -0.22939579 0.12008703
0.093675926 -0.23175249 0.11969686
0.09367606 -0.23411858 0.11930525
0.09367618 -0.23649403 0.1189121
0.093676373 -0.23887913 0.11851728
0.093676612 -0.24127376 0.11812091
0.093676716 -0.24367778 0.11772299
0.093676686 -0.24609132 0.11732364
0.093676656 -0.24851455 0.11692274
0.093676656 -0.25094759 0.11652017
0.093676731 -0.25339052 0.11611587
0.093676805 -0.25584337 0.11571002
0.09367688 -0.25830618 0.11530238
0.093676969 -0.26077896 0.1148932
0.09536247 -0.26587391 0.1123063
0.097581849 -0.27183828 0.10902327
0.099842727 -0.27791411 0.1056788
0.10214671 -0.2841053 0.10227066
0.1041819 -0.28991956 0.099202931
0.10364373 -0.29168436 0.099467814
0.10310504 -0.29345018 0.099732995
0.10329457 -0.29638851 0.099050701
0.10419498 -0.30048954 0.097440541
0.10510305 -0.30462924 0.095816076
0.10602009 -0.30880994 0.094175518
0.10694632 -0.31303239 0.092518687
0.1078818 -0.31729728 0.090845108
0.14823225 0.083284035 0.11343491
0.14609142 0.082607001 0.1155467
0.14396973 0.081936032 0.11763945
0.14186704 0.081271037 0.11971352
0.13978304 0.080612019 0.12176919
0.13771755 0.079958767 0.1238066
0.13567021 0.079311356 0.12582609
0.13364092 0.078669533 0.12782773
0.13162936 0.078033388 0.12981188
0.1296353 0.077402771 0.13177884
0.12765855 0.076777607 0.13372871
0.12569879 0.076157868 0.13566172
0.12375596 0.075543419 0.13757819
0.12182969 0.074934214 0.13947821
0.11991982 0.07433027 0.1413621
0.11802621 0.073731393 0.14322993
0.11614858 0.073137581 0.14508203
0.11428674 0.072548807 0.14691854
0.11244056 0.07196486 0.14873958
0.11060981 0.071385831 0.15054533
0.10879429 0.070811599 0.15233618
0.10699376 0.070242122 0.15411222
0.10520811 0.069677293 0.15587354
0.10343707 0.069117159 0.15762043
0.10197553 0.068427533 0.15902403
0.10104261 0.067504004 0.15983912
0.10011247 0.066583216 0.16065165
0.099185087 0.065665156 0.16146183
0.098260462 0.064749807 0.16226962
0.09733858 0.063837171 0.16307503
0.096419409 0.062927231 0.16387802
0.095502913 0.062019989 0.16467872
0.094589137 0.061115384 0.16547701
0.093678057 0.060213462 0.16627297
0.09276963 0.059314176 0.16706654
0.0918639 0.058417514 0.16785786
0.090960771 0.057523519 0.16864687
0.090060309 0.056632087 0.16943347
0.089162484 0.055743262 0.17021784
0.088267267 0.05485706 0.17099997
0.087374672 0.053973392 0.17177978
0.086484626 0.053092316 0.17255726
0.085597172 0.052213788 0.17333263
0.084712304 0.051337808 0.17410564
0.083829992 0.050464362 0.17487645
0.082950242 0.049593434 0.17564508
0.082073025 0.048724994 0.17641145
0.081198364 0.047859073 0.17717552
0.080326185 0.046995625 0.17793748
0.079456486 0.046134681 0.1786972
0.07858932 0.04527621 0.17945486
0.077724606 0.044420198 0.18021029
0.07686238 0.043566614 0.18096355
0.076002605 0.042715475 0.18171465
0.075145304 0.041866735 0.18246365
0.074290439 0.041020453 0.18321043
0.073437989 0.040176556 0.18395519
0.072587937 0.039335057 0.18469784
0.071740322 0.038495943 0.18543831
0.070895113 0.037659213 0.18617669
0.070052303 0.036824822 0.18691295
0.069211848 0.035992816 0.18764722
0.068373762 0.035163134 0.18837944
0.06753803 0.034335807 0.1891095
0.066704661 0.033510789 0.18983757
0.06587363 0.032688081 0.19056356
0.065044917 0.031867713 0.19128755
0.064253055 0.031027123 0.19196984
0.063887887 0.029909968 0.19216236
0.063522503 0.028792232 0.19235504
0.06315691 0.027673945 0.19254786
0.062791154 0.026555017 0.19274071
0.062425204 0.025435522 0.19293371
0.062059045 0.024315447 0.19312677
0.061692715 0.023194745 0.19331992
0.061326168 0.022073492 0.19351313
0.060959436 0.020951629 0.19370657
0.060592517 0.019829154 0.19389999
0.06022539 0.018706128 0.19409359
0.059858069 0.017582506 0.19428736
0.059490584 0.016458243 0.19448102
0.059122883 0.015333429 0.194675
0.058754958 0.014208004 0.19486895
0.058386892 0.013081983 0.19506302
0.05801861 0.01195538 0.19525725
0.057650127 0.010828167 0.19545153
0.057281427 0.0097003728 0.19564602
0.056912549 0.0085719675 0.19584048
0.056543492 0.0074429512 0.19603506
0.056174219 0.0063133538 0.19622973
0.055804744 0.0051831603 0.1964246
0.055435091 0.0040523708 0.19661951
0.055065237 0.0029209852 0.19681457
0.054695189 0.0017889887 0.19700974
0.05432497 0.00065638125 0.19720486
0.053954527 -0.00047682226 0.19740024
0.053583853 -0.0016106069 0.19759569
0.053213038 -0.0027450174 0.19779116
0.052841984 -0.0038799942 0.19798687
0.052470766 -0.0050156116 0.19818261
0.052099347 -0.0061518401 0.19837844
0.051727727 -0.0072886348 0.19857439
0.051355913 -0.0084260702 0.19877049
0.050983883 -0.0095640868 0.19896665
0.05061166 -0.010702699 0.1991629
0.05023928 -0.011841968 0.19935924
0.049866639 -0.012981787 0.19955575
0.049493834 -0.014122233 0.19975236
0.049120799 -0.015263274 0.19994903
0.048747599 -0.016404942 0.20014584
0.048374191 -0.01754722 0.20034277
0.048000604 -0.018690109 0.20053977
0.04801812 -0.020181283 0.20027187
0.04845275 -0.022050664 0.1995073
0.048890293 -0.023932695 0.1987375
0.049330845 -0.025827557 0.19796243
0.049774423 -0.027735338 0.19718212
0.050220996 -0.029656172 0.1963965
0.050670676 -0.031590238 0.1956054
0.051123425 -0.033537611 0.19480884
0.051579341 -0.03549847 0.19400683
0.052038468 -0.037473008 0.19319913
0.052500814 -0.039461315 0.19238579
0.052966386 -0.041463509 0.19156677
0.053435214 -0.043479756 0.19074205
0.05390732 -0.045510158 0.18991154
0.054382816 -0.04755497 0.18907505
0.054861672 -0.04961428 0.18823269
0.055343941 -0.051688239 0.18738434
0.055829629 -0.053776979 0.1865299
0.056318797 -0.055880696 0.18566936
0.056811497 -0.057999551 0.18480265
0.05730778 -0.060133725 0.18392962
0.057807602 -0.0622833 0.1830503
0.05831106 -0.064448543 0.18216464
0.058818229 -0.066629589 0.18127251
0.093671143 -0.10421454 0.13875794
0.093671121 -0.10610639 0.13844129
0.093671128 -0.10800499 0.13812348
0.093671091 -0.10991035 0.1378046
0.093671083 -0.11182255 0.13748458
0.093671061 -0.11374158 0.13716334
0.093671046 -0.11566752 0.136841
0.093671024 -0.11760038 0.13651749
0.093670987 -0.11954019 0.13619286
0.093671001 -0.12148704 0.13586694
0.093670987 -0.12344093 0.13553992
0.093670882 -0.12540178 0.13521183
0.093670756 -0.12736972 0.13488257
0.093670622 -0.12934482 0.13455215
0.093670517 -0.13132714 0.13422039
0.093670368 -0.13331667 0.13388756
0.093670242 -0.13531345 0.13355345
0.093670107 -0.13731757 0.1332182
0.093670107 -0.1393292 0.1328814
0.093670279 -0.14134839 0.1325433
0.093670443 -0.14337504 0.13220391
0.093670592 -0.14540917 0.1318633
0.093670741 -0.1474508 0.13152137
0.09367092 -0.14950001 0.13117817
0.093671069 -0.15155682 0.13083375
0.093671232 -0.15362126 0.13048804
0.093671367 -0.15569338 0.13014111
0.093671538 -0.15777329 0.12979272
0.093671709 -0.15986094 0.12944314
0.093671858 -0.16195641 0.12909222
0.093672045 -0.16405979 0.12873998
0.093672186 -0.16617104 0.12838644
0.09367235 -0.16829024 0.12803161
0.093672499 -0.17041746 0.12767532
0.093672685 -0.17255273 0.12731776
0.093672872 -0.17469607 0.12695879
0.093672983 -0.17684752 0.12659854
0.093673185 -0.17900722 0.12623689
0.093673334 -0.18117511 0.1258738
0.093673535 -0.18335134 0.12550938
0.093673706 -0.18553586 0.12514353
0.093673892 -0.18772875 0.1247763
0.093674064 -0.18993002 0.12440771
0.093674138 -0.19213967 0.12403774
0.093674287 -0.19435792 0.12366629
0.093674406 -0.1965847 0.12329346
0.093674555 -0.19882014 0.12291914
0.09367469 -0.20106423 0.12254339
0.093674831 -0.20331703 0.12216616
0.093674943 -0.20557857 0.12178749
