ply
format ascii 1.0
comment PCL generated
element vertex 1308
property float x
property float y
property float z
element face 0
element camera 0
property float view_px
property float view_py
property float view_pz
property float x_axisx
property float x_axisy
property float x_axisz
property float y_axisx
property float y_axisy
property float y_axisz
property float z_axisx
property float z_axisy
property float z_axisz
property float focal
property float scalex
property float scaley
property float centerx
property float centery
property int viewportx
property int viewporty
property float k1
property float k2
end_header
-0.032713577 0.013842389 0.19653186
-0.032923311 0.012773685 0.19667894
-0.033132911 0.011705484 0.19682592
-0.033342436 0.010637794 0.19697279
-0.033551857 0.0095706023 0.19711962
-0.033761188 0.0085039176 0.19726643
-0.033970386 0.0074377432 0.19741309
-0.034179509 0.0063720644 0.19755968
-0.034388557 0.0053069033 0.19770634
-0.034597486 0.0042422414 0.19785282
-0.034806311 0.003178075 0.19799924
-0.035015047 0.0021144114 0.19814557
-0.035223678 0.001051262 0.19829193
-0.035432205 -1.1395663e-05 0.19843811
-0.035640612 -0.001073543 0.19858426
-0.03584896 -0.0021352023 0.19873035
-0.036057204 -0.0031963438 0.19887638
-0.036265343 -0.0042569935 0.19902229
-0.036473379 -0.0053171478 0.19916815
-0.036681309 -0.0063767917 0.199314
-0.036889151 -0.0074359477 0.19945967
-0.037096873 -0.0084945932 0.19960535
-0.037304536 -0.0095527396 0.19975099
-0.037512094 -0.010610387 0.19989648
-0.037719533 -0.011667538 0.20004198
-0.037926883 -0.012724198 0.20018736
-0.038134113 -0.013780352 0.20033267
-0.038341299 -0.014836013 0.20047793
-0.038548365 -0.015891161 0.20062315
-0.038755327 -0.016945828 0.20076823
-0.038962185 -0.018000003 0.20091334
-0.039168969 -0.019053672 0.2010583
-0.039013728 -0.020248026 0.20075491
-0.038724259 -0.021498121 0.20028502
-0.03843376 -0.022752594 0.19981337
-0.038142294 -0.024011467 0.19934016
-0.037849739 -0.02527478 0.19886523
-0.037556157 -0.026542541 0.19838864
-0.037261561 -0.027814779 0.1979104
-0.036965936 -0.029091503 0.19743037
-0.036669254 -0.030372757 0.19694877
-0.036371455 -0.031658597 0.19646531
-0.036072597 -0.032948989 0.19598019
-0.035772681 -0.034243986 0.19549328
-0.035471693 -0.035543609 0.19500467
-0.035169616 -0.036847871 0.1945143
-0.034866482 -0.038156811 0.19402215
-0.03456223 -0.039470453 0.19352823
-0.034256905 -0.040788807 0.19303262
-0.033950478 -0.042111907 0.19253507
-0.033642933 -0.043439776 0.19203585
-0.033334285 -0.044772465 0.19153482
-0.033024535 -0.046109963 0.19103193
-0.032713622 -0.047452323 0.19052723
-0.032401636 -0.048799545 0.19002074
-0.032088473 -0.050151683 0.18951231
-0.031774178 -0.051508743 0.1890021
-0.031458721 -0.05287078 0.18848997
-0.031142145 -0.054237772 0.18797612
-0.030824348 -0.055609807 0.18746018
-0.030505449 -0.056986857 0.18694249
-0.030185327 -0.058369003 0.18642285
-0.029864088 -0.059756219 0.18590131
-0.029541582 -0.061148573 0.18537778
-0.029217914 -0.062546089 0.18485233
-0.028893054 -0.06394878 0.18432492
-0.028566986 -0.065356679 0.1837956
-0.028239712 -0.066769809 0.18326429
-0.027593344 -0.068365261 0.18233207
-0.025412768 -0.070830196 0.17947304
-0.023192793 -0.073339604 0.17656237
-0.020932555 -0.075894661 0.17359889
-0.018630773 -0.078496657 0.17058092
-0.016286269 -0.081146955 0.16750687
-0.013897866 -0.083846882 0.16437539
-0.011464328 -0.08659783 0.16118461
-0.0089843273 -0.08940129 0.15793303
-0.006456539 -0.092258774 0.15461871
-0.0038796067 -0.095171824 0.15123996
-0.0012519956 -0.09814214 0.14779478
0.0022162944 -0.10165576 0.14328724
0.093694344 -0.25275671 0.018674195
0.093693927 -0.25471544 0.018482745
0.093693495 -0.25667655 0.018291175
0.093693078 -0.25864017 0.018099308
0.09369266 -0.26060626 0.017907202
0.093692183 -0.26257476 0.017714918
0.093691781 -0.26454583 0.017522335
0.093692243 -0.26652008 0.017328382
0.09369266 -0.2684969 0.01713419
0.093693122 -0.27047622 0.016939759
0.09369351 -0.27245796 0.01674515
0.093693793 -0.27444208 0.016550481
0.093694091 -0.27642879 0.016355515
0.093694359 -0.27841794 0.01616025
0.093694597 -0.28040966 0.015964866
0.093694851 -0.28240386 0.015769184
0.093695119 -0.28440061 0.015573263
0.093695313 -0.28639987 0.015377164
0.093695372 -0.28840154 0.015181005
0.093695447 -0.29040575 0.014984548
0.093695536 -0.29241249 0.014787912
0.093695313 -0.29442155 0.014591277
0.093695074 -0.29643312 0.014394581
0.093694851 -0.29844731 0.014197469
0.093694627 -0.30046397 0.014000177
0.093694359 -0.30248326 0.013802648
0.093694165 -0.30450514 0.013604879
0.093693316 -0.30652896 0.013407648
0.093692422 -0.30855533 0.013210237
0.093692392 -0.31058517 0.013011396
0.093692705 -0.31261793 0.01281184
0.093692988 -0.31465328 0.012612104
0.093693286 -0.31669125 0.012412131
0.039059088 0.090070911 0.11574927
0.035281166 0.088606954 0.12016386
0.031585366 0.087174729 0.12448245
0.02796948 0.085773222 0.12870762
0.024430275 0.084401429 0.13284317
0.020965338 0.083058432 0.13689196
0.017572328 0.08174333 0.14085674
0.014249042 0.080455244 0.14473999
0.010993406 0.079193354 0.14854422
0.0078033209 0.077956885 0.15227187
0.0046768039 0.076745078 0.15592521
0.0016120374 0.075557172 0.15950644
-0.0010377169 0.074388847 0.16258866
-0.001909256 0.073215336 0.16352448
-0.0027203709 0.072046563 0.16438782
-0.0035278946 0.070883058 0.16524735
-0.0043317676 0.069724783 0.16610301
-0.0051320195 0.068571717 0.16695476
-0.0059286952 0.067423806 0.16780275
-0.0067218095 0.066281036 0.1686469
-0.0075113624 0.065143354 0.1694873
-0.0082974285 0.064010739 0.17032403
-0.0090800077 0.062883154 0.17115697
-0.0098591298 0.061760552 0.17198622
-0.01063478 0.060642917 0.17281187
-0.011407003 0.059530213 0.17363384
-0.012175873 0.058422402 0.17445216
-0.012941316 0.057319455 0.17526692
-0.013703451 0.056221344 0.17607814
-0.014462247 0.05512803 0.17688584
-0.015217692 0.054039486 0.17768988
-0.015969872 0.052955676 0.17849049
-0.016718775 0.051876582 0.17928758
-0.017464474 0.05080216 0.18008134
-0.018206939 0.049732387 0.18087158
-0.018946186 0.048667226 0.18165848
-0.019682214 0.04760664 0.18244189
-0.020415127 0.046550617 0.18322206
-0.021144867 0.045499135 0.18399873
-0.021871537 0.044452142 0.18477216
-0.022595063 0.043409623 0.18554232
-0.023315489 0.042371526 0.18630907
-0.024032891 0.041337855 0.18707269
-0.024747238 0.040308576 0.18783307
-0.025458574 0.039283648 0.1885902
-0.026166901 0.038263042 0.18934417
-0.026872218 0.037246745 0.19009486
-0.027574584 0.036234714 0.19084242
-0.028274 0.035226945 0.19158694
-0.028970495 0.034223381 0.19232827
-0.029664069 0.033224028 0.19306651
-0.030354798 0.032228835 0.1938017
-0.030653879 0.031168345 0.19405779
-0.030864611 0.030092977 0.19420585
-0.031075209 0.029018119 0.19435379
-0.031285748 0.027943775 0.19450164
-0.031496152 0.026869934 0.1946494
-0.031706482 0.025796607 0.19479716
-0.031916708 0.024723794 0.19494483
-0.032126829 0.023651477 0.19509241
-0.032336861 0.022579681 0.19523993
-0.032546818 0.021508399 0.19538739
-0.032756612 0.020437613 0.19553471
-0.032966331 0.019367334 0.19568205
-0.03317593 0.018297557 0.1958293
-0.033385441 0.01722829 0.19597644
-0.033594847 0.016159531 0.19612342
-0.033804148 0.015091274 0.19627047
-0.034013376 0.014023528 0.19641745
-0.034222484 0.012956288 0.19656429
-0.034431517 0.011889547 0.19671109
-0.034640417 0.010823317 0.1968579
-0.034849241 0.0097575895 0.1970045
-0.035057977 0.0086923614 0.19715112
-0.035266608 0.0076276436 0.19729766
-0.03547512 0.0065634213 0.19744408
-0.035683542 0.0054997057 0.19759044
-0.035891876 0.0044364855 0.19773674
-0.03610009 0.0033737794 0.19788301
-0.036308229 0.0023115687 0.19802922
-0.036516249 0.0012498572 0.19817534
-0.036724195 0.00018865988 0.19832137
-0.036931992 -0.00087205693 0.19846731
-0.037139744 -0.0019322634 0.1986132
-0.037347406 -0.0029919669 0.19875911
-0.03755492 -0.004051175 0.19890481
-0.037762374 -0.0051098838 0.19905055
-0.037969723 -0.006168101 0.19919616
-0.038176939 -0.0072258115 0.19934165
-0.038384095 -0.0082830228 0.19948718
-0.038591146 -0.0093397386 0.19963261
-0.038798138 -0.010395944 0.19977799
-0.039004996 -0.011451665 0.19992331
-0.03921175 -0.012506891 0.2000685
-0.039418399 -0.013561621 0.20021364
-0.039624959 -0.014615852 0.20035875
-0.039831445 -0.015669592 0.20050374
-0.040037796 -0.016722839 0.20064864
-0.040244088 -0.017775577 0.20079353
-0.040450245 -0.018827833 0.20093837
-0.040397972 -0.01998065 0.20076132
-0.040111452 -0.021228015 0.20029226
-0.03982392 -0.022479739 0.1998215
-0.039535388 -0.023735847 0.19934919
-0.039245814 -0.024996378 0.19887513
-0.038955241 -0.026261333 0.19839939
-0.038663626 -0.027530756 0.19792202
-0.038371027 -0.028804649 0.19744295
-0.038077384 -0.030083049 0.19696224
-0.037782639 -0.031365991 0.19647968
-0.037486836 -0.032653499 0.19599545
-0.03718999 -0.03394559 0.19550946
-0.036892101 -0.035242274 0.19502178
-0.036593109 -0.036543597 0.19453236
-0.03629306 -0.037849568 0.19404116
-0.035991952 -0.039160207 0.1935482
-0.035689756 -0.040475562 0.19305348
-0.035386473 -0.041795634 0.19255704
-0.035082072 -0.043120474 0.19205874
-0.034776613 -0.044450078 0.19155866
-0.034470022 -0.045784496 0.19105682
-0.034162343 -0.047123738 0.19055313
-0.033853516 -0.048467852 0.19004747
-0.033543617 -0.049816828 0.18954021
-0.033232555 -0.051170725 0.18903095
-0.03292039 -0.052529551 0.1885199
-0.032607034 -0.053893361 0.188007
-0.03229259 -0.055262145 0.18749216
-0.031976923 -0.056635961 0.18697545
-0.031660154 -0.058014806 0.18645686
-0.031342193 -0.059398733 0.18593639
-0.031023085 -0.060787756 0.18541393
-0.03070277 -0.062181942 0.18488955
-0.030381277 -0.063581258 0.18436328
-0.030058578 -0.064985782 0.183835
-0.029734716 -0.066395506 0.18330476
-0.029409602 -0.067810483 0.18277258
-0.027346909 -0.070209235 0.18004626
-0.025152236 -0.072704151 0.17715099
-0.022917837 -0.075244278 0.17420346
-0.020642608 -0.077830873 0.17120197
-0.018325284 -0.080465309 0.168145
-0.015964717 -0.083148912 0.16503093
-0.013559729 -0.085883021 0.16185832
-0.01110898 -0.088669136 0.15862533
-0.0086111873 -0.091508731 0.15533024
-0.0060649961 -0.094403356 0.15197134
-0.0034689903 -0.097354621 0.1485467
-0.00082166493 -0.10036422 0.1450544
0.093693599 -0.25588816 0.01561892
0.093693182 -0.25785786 0.015424728
0.093692735 -0.25983003 0.015230358
0.093692318 -0.2618047 0.01503557
0.093692362 -0.26378229 0.014840126
0.093692824 -0.26576275 0.014643848
0.093693241 -0.26774567 0.014447272
0.09369351 -0.26973099 0.014250696
0.093693748 -0.2717188 0.014053941
0.093694031 -0.27370915 0.013856828
0.093694299 -0.27570206 0.013659537
0.093694627 -0.27769756 0.013461888
0.093694896 -0.27969551 0.01326412
0.093695134 -0.28169599 0.013066053
0.093695417 -0.2836991 0.012867689
0.093695641 -0.28570467 0.012669265
0.0936957 -0.28771266 0.012470663
0.09369579 -0.28972322 0.012271881
0.09369567 -0.29173619 0.01207304
0.093695447 -0.2937516 0.01187402
0.093695253 -0.2957696 0.011674881
0.093694985 -0.29779014 0.011475444
0.093694776 -0.2998133 0.011275649
0.093694568 -0.30183902 0.011075735
0.093694329 -0.30386734 0.010875523
0.093694121 -0.30589828 0.010675013
0.093693227 -0.30793118 0.010475159
0.093692899 -0.30996722 0.010274291
0.093693182 -0.31200647 0.01007241
0.037240416 0.090158455 0.11585543
0.033489794 0.08869645 0.12026009
0.029820815 0.087266095 0.12456897
0.026230842 0.085866332 0.12878492
0.022716835 0.084496215 0.13291177
0.019276425 0.083154768 0.13695216
0.015907332 0.081841141 0.14090878
0.012607366 0.080554456 0.14478424
0.0093743801 0.079293892 0.14858103
0.0062063932 0.078058675 0.15230146
0.0031014234 0.076848038 0.15594795
5.7652593e-05 0.075661257 0.1595225
-0.0021819919 0.074490204 0.16212299
-0.0032694787 0.073320024 0.16332573
-0.0040765703 0.072152384 0.1641885
-0.0048800856 0.070990004 0.16504747
-0.0056799501 0.069832847 0.16590253
-0.0064762831 0.068680868 0.16675377
-0.0072690248 0.067534059 0.16760126
-0.0080582052 0.066392362 0.16844484
-0.0088438839 0.065255754 0.16928479
-0.0096260756 0.064124182 0.17012095
-0.01040481 0.062997654 0.17095336
-0.011180073 0.061876096 0.1717822
-0.011951968 0.060759492 0.17260727
-0.012720391 0.059647802 0.17342877
-0.013485476 0.058540996 0.17424658
-0.014247179 0.057439048 0.17506087
-0.015005603 0.056341924 0.17587158
-0.015760675 0.055249583 0.17667881
-0.016512454 0.054162011 0.17748237
-0.017260984 0.053079162 0.17828262
-0.018006235 0.052001011 0.17907929
-0.018748313 0.050927531 0.1798726
-0.019487143 0.049858686 0.18066242
-0.020222813 0.048794441 0.18144882
-0.020955279 0.047734782 0.18223178
-0.021684647 0.046679664 0.1830115
-0.02241087 0.045629069 0.18378779
-0.023133993 0.044582959 0.18456084
-0.023854047 0.043541316 0.1853306
-0.024571002 0.042504091 0.186097
-0.025284931 0.041471288 0.18686017
-0.025995851 0.04044285 0.18762016
-0.02670376 0.039418764 0.18837693
-0.027408689 0.038399 0.18913046
-0.028110579 0.037383523 0.18988082
-0.028809607 0.036372323 0.19062808
-0.02950567 0.035365351 0.19137219
-0.030198827 0.034362599 0.19211319
-0.030889094 0.033364028 0.19285101
-0.031576514 0.032369629 0.19358587
-0.031959668 0.03132543 0.19394657
-0.032169789 0.030251551 0.19409445
-0.032379806 0.029178172 0.19424224
-0.032589734 0.028105307 0.19438991
-0.032799542 0.027032938 0.19453755
-0.033009231 0.025961086 0.19468507
-0.033218861 0.024889749 0.19483244
-0.033428386 0.023818914 0.19497991
-0.033637822 0.022748582 0.19512731
-0.033847108 0.021678753 0.19527447
-0.034056351 0.02060945 0.19542176
-0.034265459 0.019540638 0.19556883
-0.034474462 0.018472325 0.19571587
-0.034683362 0.01740453 0.19586286
-0.034892201 0.016337238 0.19600978
-0.035100907 0.015270445 0.19615662
-0.035309523 0.014204156 0.1963034
-0.03551805 0.013138372 0.19645005
-0.035726458 0.0120731 0.19659668
-0.035934776 0.011008319 0.19674322
-0.036143005 0.0099440441 0.1968897
-0.036351115 0.0088802762 0.19703612
-0.036559135 0.0078169964 0.19718245
-0.036767066 0.006754227 0.19732869
-0.036974877 0.0056919642 0.19747493
-0.037182629 0.0046302006 0.19762111
-0.037390232 0.0035689324 0.19776711
-0.037597775 0.0025081709 0.19791317
-0.037805215 0.0014479049 0.19805905
-0.038012534 0.000388138 0.19820496
-0.038219765 -0.00067113712 0.19835076
-0.038426906 -0.0017299019 0.19849646
-0.038633943 -0.0027881674 0.19864208
-0.03884089 -0.0038459376 0.19878772
-0.039047778 -0.004903201 0.19893321
-0.039254516 -0.0059599802 0.19907871
-0.039461195 -0.0070162527 0.19922408
-0.039667755 -0.0080720372 0.19936937
-0.039874181 -0.0091273263 0.19951463
-0.040080532 -0.010182116 0.19965979
-0.040286824 -0.011236411 0.19980493
-0.040492982 -0.01229021 0.19994995
-0.04069905 -0.013343506 0.20009494
-0.040905043 -0.014396317 0.20023984
-0.041110903 -0.015448637 0.20038468
-0.041316673 -0.016500454 0.20052937
-0.041522369 -0.017551783 0.20067412
-0.04172796 -0.018602613 0.20081872
-0.041777208 -0.019714251 0.20076764
-0.041493624 -0.020958886 0.20029938
-0.041208997 -0.022207882 0.19982955
-0.040923417 -0.023461238 0.19935808
-0.040636837 -0.024718985 0.19888493
-0.0403492 -0.025981165 0.19841009
-0.04006061 -0.027247772 0.19793355
-0.039770976 -0.028518841 0.19745547
-0.039480329 -0.029794399 0.19697559
-0.039188653 -0.031074461 0.19649407
-0.03889589 -0.032359093 0.19601068
-0.038602084 -0.033648286 0.19552562
-0.03830722 -0.034942064 0.19503883
-0.038011327 -0.036240444 0.19455037
-0.037714362 -0.037543461 0.19406015
-0.037416369 -0.038851123 0.19356814
-0.037117258 -0.040163491 0.19307441
-0.036817119 -0.041480545 0.19257885
-0.036515847 -0.04280236 0.19208157
-0.036213547 -0.044128899 0.19158244
-0.03591013 -0.045460247 0.19108155
-0.035605624 -0.046796393 0.19057882
-0.035299987 -0.048137385 0.19007429
-0.034993291 -0.049483232 0.18956795
-0.034685448 -0.050833981 0.18905973
-0.034376517 -0.052189644 0.18854967
-0.034066409 -0.05355024 0.18803769
-0.033755198 -0.054915812 0.18752399
-0.03344284 -0.056286383 0.18700829
-0.033129364 -0.057661977 0.18649074
-0.032814682 -0.059042629 0.18597126
-0.032498911 -0.060428347 0.18544999
-0.032181919 -0.061819188 0.18492666
-0.031863764 -0.063215174 0.18440139
-0.031544432 -0.06461633 0.18387428
-0.031223938 -0.066022649 0.18334511
-0.030902237 -0.067434222 0.182814
-0.029267475 -0.06959264 0.18061534
-0.027097791 -0.072073177 0.17773554
-0.024888963 -0.074598528 0.17480373
-0.02263993 -0.077169895 0.17181855
-0.020349428 -0.079788655 0.16877842
-0.018016368 -0.082456067 0.16568169
-0.015639544 -0.08517354 0.16252697
-0.013217688 -0.087942481 0.15931243
-0.010749534 -0.090764374 0.15603644
-0.008233726 -0.09364073 0.15269721
-0.0056688488 -0.096573196 0.14929283
-0.0030535161 -0.099563368 0.14582145
0.093692824 -0.25904858 0.012535393
0.093692496 -0.26102948 0.012338281
0.093692958 -0.2630136 0.012139797
0.093693241 -0.2650001 0.011941373
0.09369351 -0.26698908 0.011742592
0.093693778 -0.26898062 0.011543691
0.093694061 -0.27097473 0.011344492
0.093694314 -0.27297133 0.011145055
0.093694597 -0.27497047 0.01094538
0.093694896 -0.27697229 0.010745347
0.093695134 -0.2789765 0.010545075
0.093695432 -0.28098336 0.010344625
0.09369567 -0.28299275 0.010143936
0.035429016 0.090245649 0.1159611
0.031705588 0.088785604 0.12035593
0.028063178 0.087357074 0.12465513
0.02449894 0.085959069 0.12886211
0.021009997 0.084590606 0.13298011
0.01759398 0.083250731 0.13701209
0.01424861 0.081938572 0.14096066
0.01097177 0.080653295 0.14482838
0.0077613294 0.079394072 0.14861771
0.0046153069 0.078160092 0.15233099
0.0015317351 0.076950639 0.15597057
-0.0011107922 0.075762868 0.15907434
-0.0033253431 0.074591473 0.16165781
-0.004626438 0.073424473 0.16312736
-0.0054295808 0.072257966 0.16398966
-0.0062290877 0.071096703 0.164848
-0.0070250332 0.069940649 0.16570261
-0.0078173876 0.06878978 0.16655326
-0.0086062253 0.067644045 0.16740018
-0.0093915015 0.066503435 0.16824329
-0.010173321 0.065367892 0.16908267
-0.010951653 0.064237386 0.1699183
-0.011726543 0.063111886 0.17075023
-0.012498021 0.061991371 0.1715785
-0.013266087 0.0608758 0.17240313
-0.014030755 0.059765123 0.17322409
-0.0147921 0.058659319 0.17404151
-0.015550092 0.057558369 0.17485529
-0.016304776 0.056462239 0.17566556
-0.017056182 0.055370875 0.17647231
-0.017804265 0.054284267 0.17727548
-0.018549159 0.053202372 0.17807519
-0.01929079 0.052125163 0.17887142
-0.020029232 0.051052626 0.17966422
-0.020764485 0.049984708 0.18045363
-0.021496579 0.048921391 0.1812396
-0.022225514 0.04786263 0.18202218
-0.02295132 0.046808418 0.18280146
-0.023674041 0.045758717 0.18357742
-0.024393678 0.044713486 0.18435004
-0.02511023 0.043672718 0.18511927
-0.025823727 0.042636368 0.18588537
-0.02653423 0.041604418 0.18664819
-0.027241722 0.040576834 0.18740773
-0.027946204 0.039553594 0.18816414
-0.028647736 0.038534656 0.18891734
-0.029346287 0.037520003 0.18966728
-0.030041933 0.036509611 0.1904141
-0.030734673 0.035503466 0.19115785
-0.031424507 0.034501504 0.19189844
-0.032111481 0.033503726 0.19263607
-0.032795578 0.032510109 0.19337052
-0.033261776 0.031482078 0.19383577
-0.033471301 0.030409668 0.19398338
-0.033680692 0.02933776 0.19413093
-0.033890024 0.028266374 0.19427848
-0.034099221 0.027195483 0.19442585
-0.034308344 0.026125111 0.19457325
-0.034517333 0.025055233 0.19472054
-0.034726262 0.023985866 0.19486776
-0.034935057 0.022916999 0.19501486
-0.035143793 0.021848653 0.19516197
-0.035352424 0.020780802 0.19530901
-0.03556098 0.019713465 0.19545603
-0.035769358 0.018646616 0.19560283
-0.035977677 0.017580274 0.19574967
-0.036185905 0.016514439 0.19589633
-0.036393985 0.015449103 0.19604301
-0.03660202 0.014384273 0.19618964
-0.036809936 0.013319947 0.19633606
-0.037017763 0.012256119 0.19648254
-0.03722547 0.011192795 0.1966289
-0.037433073 0.01012997 0.1967752
-0.037640616 0.0090676434 0.19692141
-0.03784804 0.0080058239 0.19706762
-0.03805536 0.0069444999 0.19721368
-0.038262621 0.0058836825 0.19735974
-0.038469717 0.0048233643 0.19750568
-0.038676769 0.0037635341 0.19765159
-0.038883716 0.0027042218 0.19779742
-0.039090529 0.0016453862 0.19794312
-0.039297268 0.00058705732 0.19808885
-0.039503962 -0.00047076121 0.19823447
-0.039710492 -0.0015280955 0.19838002
-0.039916947 -0.0025849231 0.19852546
-0.040123314 -0.0036412627 0.19867092
-0.040329561 -0.0046971031 0.1988163
-0.040535718 -0.0057524517 0.19896156
-0.040741771 -0.0068073049 0.19910666
-0.040947765 -0.0078616552 0.19925189
-0.04115361 -0.0089155138 0.19939691
-0.041359395 -0.0099688731 0.19954193
-0.041565061 -0.011021756 0.19968686
-0.041770652 -0.012074124 0.19983181
-0.041976124 -0.013126012 0.19997653
-0.042181522 -0.014177393 0.20012128
-0.042386815 -0.01522829 0.20026591
-0.042592004 -0.016278699 0.20041057
-0.042797118 -0.017328601 0.20055506
-0.043002099 -0.018378027 0.20069951
-0.043151513 -0.019448791 0.20077401
-0.04287079 -0.020690728 0.20030659
-0.042589098 -0.021936998 0.19983757
-0.042306453 -0.023187615 0.19936699
-0.042022794 -0.024442606 0.19889468
-0.041738153 -0.025702 0.19842076
-0.041452467 -0.026965819 0.19794512
-0.041165829 -0.028234076 0.19746783
-0.040878192 -0.029506795 0.19698897
-0.040589482 -0.030784033 0.1965082
-0.040299788 -0.032065772 0.19602591
-0.040008992 -0.033352073 0.19554177
-0.039717183 -0.034642946 0.1950559
-0.03942433 -0.035938405 0.19456831
-0.039130449 -0.037238464 0.19407904
-0.038835511 -0.038543187 0.19358799
-0.038539529 -0.039852556 0.19309521
-0.038242444 -0.041166626 0.19260064
-0.037944332 -0.04248539 0.19210428
-0.037645146 -0.043808911 0.1916061
-0.037344873 -0.045137193 0.19110617
-0.037043497 -0.046470281 0.19060448
-0.036741078 -0.047808152 0.19010094
-0.036437541 -0.049150899 0.18959555
-0.036132902 -0.050498493 0.18908837
-0.035827145 -0.051850989 0.18857932
-0.0355203 -0.053208411 0.18806842
-0.035212308 -0.054570787 0.18755564
-0.034903243 -0.055938128 0.18704107
-0.034592971 -0.057310477 0.18652451
-0.034281626 -0.058687855 0.18600616
-0.033969089 -0.060070295 0.18548581
-0.03365545 -0.06145782 0.18496364
-0.033340618 -0.062850475 0.18443939
-0.033024624 -0.064248256 0.18391332
-0.032707468 -0.065651223 0.18338525
-0.032389134 -0.067059383 0.18285528
-0.03117457 -0.068980373 0.18118048
-0.029029593 -0.071446672 0.17831591
-0.026845992 -0.073957391 0.17539975
-0.024622828 -0.076513678 0.17243075
-0.022358879 -0.079116896 0.16940728
-0.020052955 -0.081768319 0.16632774
-0.01770398 -0.084469289 0.16319066
-0.01531066 -0.087221265 0.15999439
-0.012871727 -0.090025634 0.15673727
-0.010385916 -0.092883952 0.15341747
-0.0078518093 -0.095797777 0.15003324
-0.0052680224 -0.098768733 0.14658263
-0.0026330352 -0.10179856 0.14306358
0.033624828 0.090332501 0.11606646
0.029928461 0.088874385 0.12045136
0.026312426 0.08744771 0.12474105
0.022773758 0.086051464 0.12893882
0.019309685 0.08468464 0.13304824
0.015917867 0.083346322 0.13707179
0.012596086 0.082035646 0.14101237
0.0093422234 0.080751777 0.14487234
0.0061542094 0.079493865 0.14865422
0.0030299723 0.078261137 0.15236047
-2.5004148e-05 0.077052854 0.15598416
-0.0022623241 0.075864293 0.15860718
-0.0044677556 0.074692652 0.16119289
-0.0059802532 0.073528647 0.16292953
-0.0067794025 0.07236328 0.16379124
-0.0075749755 0.071203142 0.16464907
-0.0083669573 0.070048206 0.16550303
-0.0091554075 0.068898432 0.16635326
-0.0099403262 0.067753792 0.16719961
-0.010721758 0.066614255 0.16804221
-0.011499673 0.065479763 0.168881
-0.012274176 0.064350322 0.16971609
-0.013045281 0.063225865 0.17054757
-0.013812929 0.062106386 0.17137533
-0.01457724 0.060991827 0.17219952
-0.015338138 0.059882164 0.17301992
-0.016095757 0.058777381 0.17383686
-0.016850039 0.057677418 0.17465022
-0.017601028 0.056582265 0.17545995
-0.018348753 0.055491876 0.17626622
-0.019093186 0.054406226 0.17706892
-0.019834429 0.053325295 0.17786819
-0.020572454 0.05224904 0.17866397
-0.02130729 0.051177431 0.17945638
-0.022038981 0.050110437 0.18024534
-0.022767514 0.049048044 0.1810309
-0.023492873 0.047990199 0.18181306
-0.024215177 0.046936885 0.18259192
-0.024934396 0.045888077 0.18336743
-0.025650546 0.044843733 0.18413964
-0.026363641 0.043803837 0.18490857
-0.027073696 0.042768352 0.18567416
-0.027780756 0.041737258 0.18643662
-0.028484821 0.040710516 0.18719578
-0.029185936 0.039688118 0.1879518
-0.02988407 0.038670015 0.18870452
-0.030579254 0.037656181 0.18945411
-0.031271577 0.036646616 0.19020066
-0.031960994 0.03564126 0.19094405
-0.032647505 0.034640111 0.19168431
-0.033331186 0.03364313 0.19242147
-0.03401202 0.032650296 0.19315559
-0.034560218 0.031638272 0.19372514
-0.034769148 0.030567341 0.19387266
-0.034977958 0.029496912 0.19402
-0.035186663 0.02842699 0.19416729
-0.03539525 0.027357571 0.19431454
-0.035603791 0.026288666 0.19446173
-0.035812169 0.025220253 0.19460884
-0.036020502 0.024152353 0.19475594
-0.036228701 0.023084953 0.19490293
-0.036436826 0.022018064 0.19504976
-0.036644861 0.020951673 0.19519663
-0.036852807 0.019885793 0.19534343
-0.037060618 0.018820405 0.19549012
-0.037268326 0.017755527 0.19563672
-0.037475944 0.016691145 0.1957832
-0.037683442 0.015627261 0.19592968
-0.037890881 0.014563885 0.19607615
-0.038098201 0.013501003 0.19622242
-0.038305417 0.012438629 0.19636872
-0.038512543 0.011376753 0.1965149
-0.03871958 0.010315377 0.196661
-0.038926497 0.009254504 0.19680712
-0.03913334 0.0081941299 0.19695309
-0.039340079 0.0071342476 0.197099
-0.039546698 0.0060748644 0.19724479
-0.039753273 0.0050159916 0.19739062
-0.039959714 0.0039576069 0.19753638
-0.04016605 0.0028997213 0.19768202
-0.040372297 0.0018423237 0.19782761
-0.040578455 0.00078544021 0.19797313
-0.040784508 -0.00027095899 0.19811854
-0.040990457 -0.0013268553 0.19826391
-0.041196316 -0.0023822598 0.19840917
-0.041402102 -0.0034371652 0.19855443
-0.041607767 -0.0044915825 0.19869959
-0.041813329 -0.0055455044 0.19884473
-0.042018816 -0.0065989234 0.19898975
-0.042224199 -0.0076518618 0.19913471
-0.042429462 -0.0087042935 0.19927958
-0.042634666 -0.0097562447 0.19942445
-0.042839736 -0.010807686 0.19956914
-0.043044746 -0.011858646 0.19971392
-0.043249652 -0.012909114 0.19985846
-0.043454453 -0.013959091 0.200003
-0.04365918 -0.015008565 0.20014754
-0.043863803 -0.016057555 0.20029199
-0.044068292 -0.017106056 0.20043632
-0.044272721 -0.018154059 0.20058063
-0.044243038 -0.020423535 0.20031378
-0.043964252 -0.021667089 0.19984561
-0.043684468 -0.022914983 0.19937581
-0.04340373 -0.024167228 0.19890442
-0.043122038 -0.025423855 0.19843134
-0.042839319 -0.026684891 0.19795668
-0.042555615 -0.027950346 0.19748023
-0.042270929 -0.029220253 0.19700217
-0.041985244 -0.03049463 0.19652247
-0.041698501 -0.031773526 0.19604099
-0.041410744 -0.03305696 0.1955578
-0.04112196 -0.034344923 0.19507289
-0.040832117 -0.035637479 0.19458619
-0.040541306 -0.036934618 0.19409791
-0.040249392 -0.03823638 0.19360772
-0.039956465 -0.039542783 0.19311583
-0.03966248 -0.040853869 0.19262224
-0.039367467 -0.042169638 0.1921269
-0.039071411 -0.043490119 0.19162971
-0.038774252 -0.044815358 0.1911307
-0.038476005 -0.046145372 0.19062999
-0.03817673 -0.047480177 0.19012746
-0.037876353 -0.048819795 0.18962309
-0.037574887 -0.050164279 0.1891169
-0.037272319 -0.051513631 0.18860883
-0.036968693 -0.052867871 0.18809894
-0.03666392 -0.054227058 0.1875872
-0.036358044 -0.055591196 0.18707368
-0.036051065 -0.056960315 0.18655819
-0.035742968 -0.05833444 0.18604085
-0.035433695 -0.059713621 0.18552154
-0.035123348 -0.061097834 0.18500036
-0.034811795 -0.062487181 0.18447721
-0.034499153 -0.063881621 0.18395224
-0.034185305 -0.065281227 0.18342531
-0.033870339 -0.066685989 0.18289641
-0.033068344 -0.068372399 0.18174165
-0.03094779 -0.070824578 0.17889217
-0.028789163 -0.073320791 0.17599154
-0.026591539 -0.075862177 0.17303848
-0.024353758 -0.078450009 0.17003155
-0.022074699 -0.081085585 0.16696903
-0.019753203 -0.083770245 0.1638495
-0.017388031 -0.086505398 0.16067132
-0.014977992 -0.089292452 0.15743285
-0.012521788 -0.092132896 0.15413225
-0.010018021 -0.095028296 0.15076795
-0.0074654222 -0.097980238 0.14733785
-0.0048623979 -0.10099045 0.14384004
0.031827897 0.090418994 0.11617127
0.028158367 0.088962838 0.12054646
0.024568543 0.087538019 0.12482646
0.021055251 0.086143486 0.12901533
0.017615885 0.084778331 0.13311601
0.014248148 0.083441578 0.1371313
0.010949805 0.082132377 0.14106387
0.0077187568 0.080849886 0.14491618
0.0045529902 0.079593293 0.14869061
0.0014504492 0.078361817 0.15238973
-0.0011848211 0.07715445 0.15551516
-0.0034128726 0.075965658 0.15814045
-0.0056092292 0.074793778 0.16072842
-0.0073309541 0.073632598 0.16273224
-0.0081261098 0.072468355 0.16359332
-0.0089176893 0.071309328 0.16445056
-0.009705767 0.070155509 0.16530403
-0.010490298 0.069006823 0.1661537
-0.011271328 0.067863278 0.16699955
-0.012048885 0.066724807 0.16784155
-0.012822971 0.065591387 0.1686798
-0.013593674 0.064462997 0.16951448
-0.014360964 0.063339591 0.17034543
-0.015124843 0.062221136 0.17117262
-0.015885383 0.061107595 0.17199624
-0.016642541 0.059998948 0.17281631
-0.01739642 0.058895171 0.17363265
-0.018147007 0.057796206 0.17444557
-0.01889433 0.056702022 0.17525491
-0.019638374 0.05561262 0.17606062
-0.020379186 0.054527931 0.1768629
-0.021116808 0.053447947 0.17766166
-0.021851227 0.052372642 0.17845702
-0.022582501 0.051301967 0.17924899
-0.023310602 0.050235901 0.18003747
-0.024035603 0.049174417 0.18082261
-0.024757445 0.048117474 0.18160436
-0.025476232 0.047065068 0.18238276
-0.02619195 0.046017144 0.18315789
-0.026904643 0.044973686 0.18392971
-0.027614295 0.043934666 0.18469816
-0.028320894 0.042900044 0.18546346
-0.029024556 0.041869804 0.18622544
-0.029725209 0.040843911 0.18698421
-0.030422941 0.039822347 0.18773985
-0.031117707 0.038805082 0.18849227
-0.031809568 0.037792075 0.1892415
-0.032498538 0.036783312 0.18998763
-0.033184618 0.035778768 0.19073066
-0.033867881 0.03477842 0.19147062
-0.034548253 0.033782225 0.19220737
-0.035225853 0.032790177 0.19294119
-0.03585504 0.031794034 0.1936149
-0.036063299 0.030724563 0.19376212
-0.036271527 0.029655609 0.19390938
-0.036479667 0.028587159 0.19405654
-0.036687657 0.027519207 0.19420362
-0.036895573 0.026451763 0.1943506
-0.03710337 0.025384806 0.1944975
-0.037311107 0.024318375 0.19464439
-0.03751871 0.023252435 0.19479111
-0.037726253 0.022187002 0.19493791
-0.037933663 0.021122068 0.19508451
-0.038140982 0.020057634 0.19523117
-0.038348243 0.018993709 0.19537765
-0.038555369 0.017930284 0.19552413
-0.038762376 0.016867358 0.19567046
-0.038969293 0.01580492 0.19581676
-0.039176121 0.014742989 0.195963
-0.03938283 0.013681561 0.19610915
-0.03958948 0.012620632 0.19625518
-0.03979601 0.011560198 0.19640118
-0.040002435 0.010500267 0.19654718
-0.040208817 0.0094408393 0.19669303
-0.040415049 0.0083818994 0.19683886
-0.040621191 0.0073234588 0.19698465
-0.040827215 0.0062655136 0.19713032
-0.041033193 0.005208075 0.19727591
-0.041239053 0.0041511282 0.19742143
-0.041444808 0.0030946732 0.19756696
-0.041650459 0.002038721 0.19771227
-0.041856021 0.00098325685 0.19785768
-0.042061493 -7.1719289e-05 0.19800285
-0.042266861 -0.0011261888 0.1981481
-0.042472124 -0.0021801665 0.19829318
-0.042677313 -0.0032336526 0.19843826
-0.042882413 -0.0042866357 0.19858328
-0.043087378 -0.0053391382 0.1987282
-0.043292269 -0.0063911378 0.19887304
-0.043497071 -0.0074426457 0.19901785
-0.043701753 -0.0084936656 0.19916257
-0.043906376 -0.0095441937 0.19930723
-0.044110894 -0.010594215 0.19945183
-0.044315323 -0.011643756 0.19959638
-0.045334414 -0.021398153 0.19985366
-0.04505752 -0.022643331 0.19938469
-0.044779703 -0.023892839 0.19891417
-0.044500902 -0.025146715 0.19844195
-0.044221133 -0.026404973 0.19796813
-0.043940365 -0.027667642 0.19749263
-0.043658584 -0.028934751 0.19701543
-0.043375865 -0.030206311 0.19653657
-0.043092117 -0.031482365 0.19605601
-0.042807385 -0.032762911 0.19557378
-0.042521596 -0.034048002 0.19508979
-0.042234778 -0.035337646 0.1946041
-0.041946933 -0.036631878 0.19411665
-0.041658118 -0.037930693 0.19362745
-0.041368216 -0.039234158 0.19313651
-0.041077331 -0.040542249 0.19264388
-0.040785357 -0.041855041 0.1921494
-0.040492386 -0.043172508 0.19165319
-0.040198326 -0.044494715 0.19115525
-0.039903224 -0.045821667 0.19065544
-0.039607048 -0.047153413 0.1901539
-0.039309829 -0.048489943 0.18965051
-0.039011508 -0.04983129 0.1891453
-0.038712129 -0.051177509 0.18863827
-0.038411632 -0.052528623 0.1881294
-0.038110077 -0.053884622 0.18761867
-0.03780742 -0.05524556 0.1871061
-0.03750366 -0.056611467 0.18659168
-0.037198767 -0.057982367 0.18607533
-0.036892802 -0.059358258 0.18555713
-0.036585674 -0.060739212 0.18503702
-0.036277428 -0.062125243 0.18451503
-0.035968035 -0.063516378 0.18399107
-0.035657525 -0.064912617 0.18346518
-0.035345852 -0.066314042 0.18293738
-0.034948945 -0.067768618 0.18229902
-0.032852501 -0.070206851 0.1794644
-0.030718565 -0.072688706 0.17657924
-0.028546169 -0.075215317 0.17364195
-0.026334271 -0.077787921 0.17065126
-0.024081692 -0.080407843 0.16760561
-0.02178736 -0.083076335 0.16450348
-0.019450024 -0.085794851 0.16134319
-0.017068475 -0.088564746 0.15812322
-0.014641508 -0.09138751 0.15484178
-0.012167737 -0.094264686 0.15149704
-0.0096458644 -0.097197831 0.14808726
-0.0070744157 -0.10018864 0.14461038
0.030038103 0.090505168 0.11627576
0.026395231 0.089050934 0.12064111
0.022831455 0.087627947 0.1249117
0.019343391 0.086235166 0.12909156
0.015928581 0.084871635 0.13318357
0.012584746 0.083536446 0.13719052
0.0093096495 0.08222872 0.14111516
0.0061013252 0.080947638 0.14495978
0.0029576421 0.079692364 0.14872688
-9.252131e-05 0.078462243 0.1523807
-0.0023436546 0.077255934 0.15504652
-0.0045624971 0.076066911 0.1576741
-0.0067497492 0.074894793 0.16026431
-0.0086784512 0.073736295 0.16253534
-0.0094696432 0.072573185 0.16339585
-0.010257304 0.071415268 0.16425255
-0.011041462 0.070262551 0.16510546
-0.01182209 0.069114968 0.16595459
-0.01259926 0.067972504 0.16679984
-0.013372973 0.066835105 0.16764137
-0.014143243 0.065702751 0.16847917
-0.014910117 0.064575411 0.16931319
-0.015673608 0.063453048 0.17014366
-0.016433746 0.062335625 0.17097044
-0.017190531 0.061223108 0.17179352
-0.017943978 0.060115468 0.17261302
-0.018694147 0.059012685 0.17342898
-0.019441068 0.057914715 0.17424139
-0.020184696 0.056821518 0.17505017
-0.020925105 0.055733081 0.17585552
-0.021662295 0.054649357 0.17665732
-0.022396296 0.05357033 0.17745569
-0.023127139 0.052495968 0.17825055
-0.023854837 0.051426221 0.17904207
-0.024579406 0.050361082 0.17983016
-0.02530086 0.049300514 0.18061486
-0.026019186 0.048244484 0.1813961
-0.026734486 0.047192968 0.18217415
-0.027446732 0.046145931 0.18294886
-0.028155953 0.045103349 0.18372023
-0.028862163 0.044065196 0.18448833
-0.029565364 0.043031447 0.18525314
-0.030265585 0.04200206 0.1860148
-0.030962884 0.040977024 0.18677318
-0.031657219 0.039956283 0.1875284
-0.032348663 0.038939852 0.18828043
-0.033037186 0.037927665 0.18902934
-0.033722833 0.036919717 0.18977508
-0.034405634 0.035915982 0.19051772
-0.035085574 0.03491642 0.19125727
-0.035762727 0.033921026 0.1919938
-0.036437064 0.032929756 0.19272724
-0.037108541 0.031942584 0.1934576
-0.037353873 0.030881353 0.193652
-0.037561491 0.029813863 0.19379908
-0.03776902 0.028746873 0.193946
-0.037976414 0.027680382 0.19409293
-0.038183734 0.02661439 0.19423968
-0.038390949 0.025548909 0.19438645
-0.038598061 0.02448393 0.19453314
-0.038805082 0.02341944 0.19467977
-0.039012045 0.022355467 0.1948263
-0.039218843 0.021291979 0.19497275
-0.039425597 0.020229004 0.19511914
-0.039632276 0.019166537 0.19526553
-0.039838776 0.018104553 0.1954118
-0.040045202 0.017043069 0.19555801
-0.040251523 0.015982088 0.19570413
-0.0404578 0.014921609 0.19585019
-0.040663913 0.013861611 0.19599611
-0.040869951 0.01280212 0.19614208
-0.04107593 0.011743139 0.19628787
-0.04128176 0.010684647 0.19643369
-0.0414875 0.0096266456 0.19657934
-0.041693166 0.0085691437 0.19672504
-0.041898698 0.0075121373 0.19687054
-0.042104185 0.0064556263 0.19701603
-0.042309538 0.005399622 0.1971615
-0.042514801 0.004344102 0.19730684
-0.04271996 0.0032890737 0.19745213
-0.04292506 0.0022345521 0.19759738
-0.043130025 0.0011805147 0.19774255
-0.043334901 0.00012697279 0.19788763
-0.043539688 -0.00092606992 0.19803268
-0.0437444 -0.0019786321 0.19817755
-0.043948993 -0.0030306876 0.19832247
-0.044153482 -0.0040822588 0.19846728
-0.044357926 -0.0051333308 0.19861206
-0.046425641 -0.022372659 0.19939354
-0.046150699 -0.023619439 0.19892383
-0.045874789 -0.024870571 0.19845247
-0.045597926 -0.026126072 0.19797951
-0.045320079 -0.027385969 0.19750491
-0.045041248 -0.028650284 0.19702858
-0.044761449 -0.029919032 0.19655073
-0.044480667 -0.031192239 0.19607103
-0.044198886 -0.032469939 0.19558972
-0.043916076 -0.033752166 0.19510663
-0.043632269 -0.035038926 0.1946218
-0.043347433 -0.036330257 0.19413528
-0.043061629 -0.037626151 0.19364712
-0.042774767 -0.038926661 0.19315708
-0.042486906 -0.040231802 0.19266537
-0.042197987 -0.041541599 0.19217184
-0.041908085 -0.042856071 0.19167662
-0.041617095 -0.044175263 0.19117957
-0.041325122 -0.045499176 0.19068083
-0.041032031 -0.046827853 0.19018018
-0.040737912 -0.048161305 0.1896778
-0.040442735 -0.049499568 0.18917364
-0.040146515 -0.050842669 0.1886676
-0.039849177 -0.052190639 0.1881597
-0.039550796 -0.053543478 0.18765
-0.039251313 -0.054901239 0.18713844
-0.038950756 -0.056263935 0.18662506
-0.038649082 -0.057631612 0.18610972
-0.03834632 -0.05900427 0.18559265
-0.038042441 -0.060381968 0.18507355
-0.037737474 -0.061764695 0.18455261
-0.037431329 -0.063152537 0.18402967
-0.037124112 -0.06454543 0.18350488
-0.036815748 -0.065943509 0.18297815
-0.036506251 -0.067346707 0.18244955
-0.03474389 -0.069593452 0.18003267
-0.032634348 -0.072061062 0.17716265
-0.030486837 -0.074573092 0.17424107
-0.028300524 -0.077130623 0.17126656
-0.026074141 -0.079735003 0.16823757
-0.023806602 -0.082387507 0.1651527
-0.021496743 -0.085089549 0.16201016
-0.019143373 -0.087842479 0.15880841
-0.016745284 -0.090647742 0.15554589
-0.014301106 -0.09350688 0.15222061
-0.011809587 -0.096421421 0.14883089
-0.0092692673 -0.09939304 0.14537486
0.028255463 0.090590984 0.11637983
0.0246391 0.089138679 0.12073538
0.021101132 0.087717533 0.12499654
0.017638117 0.086326495 0.1291675
0.014247686 0.084964603 0.13325086
0.010927603 0.083630964 0.13724956
0.0076756626 0.082324721 0.14116624
0.004489854 0.081045017 0.1450032
0.0013681054 0.079791054 0.14876309
-0.0012597442 0.078563884 0.15191022
-0.0035015196 0.077357337 0.15457827
-0.0057111681 0.076168083 0.15720811
-0.0078893602 0.074995726 0.15980053
-0.010022774 0.073839769 0.16233888
-0.010810062 0.072677769 0.16319889
-0.011593789 0.071520984 0.16405505
-0.012374029 0.070369363 0.16490734
-0.013150796 0.069222867 0.16575587
-0.013924122 0.068081483 0.16660064
-0.01469399 0.06694515 0.16744167
-0.015460446 0.065813862 0.16827893
-0.016223535 0.064687565 0.16911253
-0.016983256 0.063566245 0.16994241
-0.017739639 0.062449843 0.17076865
-0.018492699 0.061338354 0.17159131
-0.019242436 0.060231719 0.17241031
-0.019988924 0.059129931 0.17322573
-0.020732164 0.058032949 0.17403764
-0.021472141 0.056940731 0.17484599
-0.022208914 0.055853266 0.17565086
-0.022942483 0.054770507 0.17645222
-0.023672923 0.053692427 0.17725009
-0.024400175 0.052619003 0.17804456
-0.025124311 0.051550191 0.1788356
-0.025845334 0.05048598 0.17962328
-0.026563287 0.049426325 0.18040749
-0.02727814 0.048371192 0.18118843
-0.027989954 0.047320578 0.18196598
-0.028698727 0.046274427 0.18274021
-0.029404506 0.045232736 0.18351126
-0.03010729 0.044195451 0.18427894
-0.030807078 0.043162551 0.18504333
-0.031503931 0.04213402 0.18580461
-0.032197848 0.041109823 0.1865626
-0.03288883 0.040089935 0.18731743
-0.03357695 0.039074324 0.18806913
-0.034262121 0.038062956 0.18881759
-0.03494446 0.037055824 0.18956301
-0.035623983 0.036052886 0.19030532
-0.036300659 0.035054136 0.19104454
-0.036974534 0.034059517 0.19178057
-0.037645638 0.033069026 0.19251376
-0.038313925 0.032082632 0.19324374
-0.038640812 0.031037714 0.19354218
-0.038847834 0.029971678 0.19368911
-0.039054736 0.02890614 0.19383579
-0.039261565 0.027841106 0.19398257
-0.039468303 0.026776578 0.1941292
-0.039674923 0.025712542 0.19427574
-0.039881453 0.024649017 0.19442222
-0.040087879 0.023585979 0.19456866
-0.04029423 0.022523463 0.19471505
-0.040500432 0.021461416 0.19486132
-0.040706605 0.020399891 0.19500753
-0.040912643 0.019338865 0.19515374
-0.041118622 0.018278334 0.19529986
-0.041324466 0.017218303 0.19544587
-0.041530207 0.016158752 0.19559175
-0.041735858 0.015099708 0.19573766
-0.041941389 0.014041163 0.19588345
-0.042146862 0.01298311 0.19602916
-0.0423522 0.011925556 0.19617483
-0.042557463 0.010868493 0.19632044
-0.042762637 0.0098119341 0.196466
-0.042967692 0.0087558664 0.19661143
-0.043172672 0.007700298 0.19675681
-0.043377548 0.0066452175 0.19690213
-0.043582335 0.0055906326 0.19704741
-0.043787017 0.004536543 0.19719261
-0.043991581 0.0034829378 0.19733766
-0.044196084 0.0024298392 0.19748273
-0.044400454 0.0013772249 0.19762766
-0.047516733 -0.023347028 0.19893348
-0.047243729 -0.024595428 0.19846305
-0.046969742 -0.025848184 0.19799095
-0.046694756 -0.027105324 0.19751719
-0.046418875 -0.028366841 0.19704178
-0.046141997 -0.029632784 0.19656473
-0.04586418 -0.030903183 0.19608599
-0.045585319 -0.032178052 0.19560552
-0.04530552 -0.033457402 0.1951234
-0.045024663 -0.034741294 0.1946395
-0.044742823 -0.036029723 0.1941539
-0.044459984 -0.037322719 0.19366661
-0.044176146 -0.038620289 0.19317758
-0.043891311 -0.039922491 0.19268677
-0.043605447 -0.041229311 0.19219425
-0.04331857 -0.042540811 0.19170001
-0.043030649 -0.04385699 0.19120395
-0.042741701 -0.045177877 0.19070604
-0.042451739 -0.046503499 0.19020647
-0.042160705 -0.047833897 0.18970501
-0.041868642 -0.049169078 0.18920183
-0.041575521 -0.050509073 0.1886968
-0.041281357 -0.051853903 0.18818992
-0.040986091 -0.053203613 0.18768123
-0.040689796 -0.054558195 0.18717074
-0.040392399 -0.055917721 0.18665829
-0.040093943 -0.057282168 0.18614408
-0.039794356 -0.058651622 0.18562788
-0.03949374 -0.060026038 0.18510997
-0.039191976 -0.061405517 0.18459007
-0.03888911 -0.062790044 0.18406823
-0.038585126 -0.064179651 0.18354446
-0.03828004 -0.065574363 0.18301877
-0.037973821 -0.066974223 0.18249121
-0.036622092 -0.06898433 0.18059695
-0.034536615 -0.071437865 0.177742
-0.03241381 -0.07393539 0.17483601
-0.03025271 -0.07647799 0.1718775
-0.028052181 -0.079067014 0.16886505
-0.025811136 -0.0817037 0.16579717
-0.023528412 -0.084389448 0.16267216
-0.021202847 -0.08712557 0.1594885
-0.01883325 -0.089913525 0.15624467
-0.016418293 -0.092754811 0.15293863
-0.013956755 -0.095650963 0.14956889
-0.011447176 -0.098603591 0.1461333
-0.008888185 -0.10161436 0.14263019
0.0264799 0.090676457 0.11648345
0.022889927 0.089226082 0.12082922
0.019377515 0.087806776 0.12508115
0.0159394 0.086417459 0.12924305
0.012573212 0.085057214 0.13331789
0.0092766881 0.083725125 0.13730842
0.0060477704 0.082420364 0.14121714
0.0028843433 0.081142038 0.14504653
-0.00016091764 0.079889879 0.14873064
-0.0024259984 0.07866545 0.15144008
-0.0046584159 0.07745868 0.1541104
-0.0068588853 0.07626918 0.15674251
-0.0090279877 0.075096585 0.15933716
-0.011166558 0.07394056 0.16189522
-0.012147337 0.072782114 0.16300231
-0.012927145 0.07162644 0.16385794
-0.01370351 0.070475906 0.16470972
-0.014476433 0.069330513 0.16555765
-0.015245914 0.06819021 0.16640186
-0.016011983 0.067054942 0.16724238
-0.016774625 0.065924704 0.16807914
-0.017533928 0.064799473 0.16891217
-0.018289894 0.063679181 0.1697416
-0.019042566 0.062563807 0.17056739
-0.019791886 0.061453331 0.17138952
-0.020537943 0.06034771 0.17220798
-0.021280736 0.059246913 0.17302299
-0.02202034 0.058150921 0.17383438
-0.022756696 0.057059694 0.17464232
-0.023489848 0.055973191 0.17544663
-0.024219841 0.054891389 0.17624754
-0.024946675 0.053814255 0.17704502
-0.025670364 0.05274177 0.17783898
-0.026390985 0.051673897 0.17862958
-0.027108476 0.050610602 0.17941684
-0.027822897 0.049551852 0.18020058
-0.028534263 0.04849764 0.18098107
-0.029242635 0.047447905 0.18175828
-0.029947981 0.046402648 0.1825321
-0.030650318 0.045361832 0.1833027
-0.031349674 0.044325419 0.18406999
-0.03204605 0.043293379 0.18483406
-0.03273955 0.042265695 0.18559489
-0.033430085 0.041242346 0.18635249
-0.034117728 0.040223286 0.18710694
-0.034802511 0.039208498 0.18785828
-0.035484418 0.038197964 0.18860638
-0.036163449 0.037191644 0.18935135
-0.036839694 0.036189508 0.19009334
-0.037513122 0.03519154 0.19083214
-0.038183749 0.034197722 0.19156793
-0.038851604 0.033208005 0.19230062
-0.039516702 0.032222386 0.19303033
-0.03992413 0.031193625 0.19343266
-0.040130571 0.030129045 0.19357935
-0.040336877 0.029064968 0.19372588
-0.040543124 0.028001383 0.19387248
-0.040749237 0.026938293 0.19401896
-0.040955275 0.025875725 0.19416532
-0.041161239 0.024813645 0.19431168
-0.041367084 0.023752064 0.19445792
-0.041572824 0.022690982 0.19460407
-0.041778445 0.021630388 0.19475016
-0.041984022 0.020570304 0.19489628
-0.042189464 0.019510709 0.19504222
-0.042394847 0.018451624 0.19518813
-0.042600155 0.017393034 0.19533405
-0.042805284 0.016334925 0.19547975
-0.043010354 0.015277319 0.19562548
-0.043215305 0.014220204 0.19577113
-0.043420196 0.013163596 0.19591662
-0.043624952 0.012107473 0.19606209
-0.04382962 0.011051845 0.19620752
-0.044034198 0.0099967085 0.19635284
-0.044238701 0.0089420639 0.19649819
-0.044443056 0.0078879222 0.19664338
-0.048607722 -0.024321277 0.19847348
-0.04833661 -0.025571294 0.19800228
-0.04806456 -0.02682567 0.19752944
-0.047791526 -0.028084431 0.19705486
-0.047517553 -0.029347587 0.19657871
-0.047242641 -0.030615173 0.19610089
-0.046966717 -0.031887218 0.19562134
-0.046689853 -0.03316373 0.19514015
-0.046411961 -0.034444749 0.19465715
-0.046133101 -0.035730291 0.1941725
-0.045853212 -0.0370204 0.19368607
-0.0455724 -0.03831505 0.19319803
-0.045290545 -0.039614324 0.19270813
-0.045007676 -0.040918197 0.19221652
-0.044723824 -0.042226706 0.19172317
-0.044438958 -0.043539893 0.19122815
-0.044153064 -0.044857778 0.19073123
-0.043866158 -0.046180371 0.1902326
-0.043578207 -0.047507722 0.18973213
-0.043289244 -0.048839819 0.18922997
-0.042999208 -0.050176725 0.18872589
-0.042708158 -0.051518451 0.18821999
-0.042416021 -0.052865021 0.18771228
-0.042122886 -0.054216452 0.18720284
-0.041828632 -0.055572804 0.1866914
-0.041533336 -0.056934066 0.18617827
-0.041236937 -0.05830029 0.18566313
-0.040939495 -0.059671484 0.18514612
-0.040640965 -0.061047703 0.18462729
-0.040341333 -0.062428948 0.18410653
-0.040040568 -0.063815251 0.18358383
-0.039738744 -0.065206647 0.1830593
-0.039435774 -0.066603161 0.1825327
-0.038487256 -0.068379439 0.18115729
-0.03642562 -0.070819035 0.17831734
-0.034327164 -0.07330218 0.17542675
-0.032190949 -0.075830042 0.17248407
-0.030015975 -0.078403845 0.16948798
-0.027801111 -0.081024878 0.16643697
-0.02554518 -0.083694473 0.1633293
-0.023247093 -0.08641398 0.16016367
-0.020905614 -0.089184798 0.1569382
-0.018519536 -0.092008427 0.1536513
-0.016087562 -0.094886363 0.15030125
-0.013608336 -0.0978202 0.14688599
-0.011080459 -0.1008116 0.1434038
0.0247114 0.09076158 0.11658669
0.021147639 0.089313164 0.12092263
0.017660618 0.087895647 0.12516525
0.014247239 0.08650808 0.12931833
0.010905102 0.085149452 0.1333847
0.0076320022 0.083818942 0.13736704
0.0044259131 0.082515627 0.14126784
0.0012847334 0.081238702 0.14508972
-0.0013356507 0.079991579 0.14825863
-0.0035912544 0.07876692 0.15097034
-0.0058143735 0.077559918 0.15364295
-0.008005634 0.076370195 0.15627733
-0.010165736 0.075197369 0.15887421
-0.01229538 0.074041106 0.16143447
-0.013481513 0.072886221 0.16280627
-0.014257446 0.071731642 0.1636613
-0.015029937 0.070582218 0.16451252
-0.015799001 0.069437906 0.16535991
-0.016564637 0.068298675 0.16620365
-0.017326906 0.067164496 0.1670436
-0.018085793 0.066035315 0.16787982
-0.018841326 0.064911112 0.16871235
-0.019593552 0.063791856 0.16954124
-0.020342484 0.062677518 0.17036647
-0.021088138 0.061568048 0.17118815
-0.021830499 0.060463436 0.17200616
-0.022569656 0.059363641 0.17282066
