ply
format ascii 1.0
comment PCL generated
element vertex 1324
property float x
property float y
property float z
element face 0
element camera 0
property float view_px
property float view_py
property float view_pz
property float x_axisx
property float x_axisy
property float x_axisz
property float y_axisx
property float y_axisy
property float y_axisz
property float z_axisx
property float z_axisy
property float z_axisz
property float focal
property float scalex
property float scaley
property float centerx
property float centery
property int viewportx
property int viewporty
property float k1
property float k2
end_header
0.020011321 0.034999311 0.19253141
0.019290641 0.034211308 0.19322056
0.018571898 0.033425435 0.19390792
0.017855063 0.032641679 0.1945934
0.017387897 0.031664819 0.19493803
0.017037824 0.030595735 0.19512245
0.016687587 0.0295261 0.19530696
0.016337141 0.028455958 0.19549158
0.015986517 0.027385324 0.19567624
0.015635744 0.026314124 0.19586107
0.015284777 0.025242388 0.19604594
0.014933616 0.02417019 0.19623095
0.014582321 0.023097411 0.19641602
0.014230832 0.02202411 0.19660121
0.013879165 0.020950258 0.19678643
0.013527349 0.019875884 0.19697177
0.013175324 0.018800989 0.19715726
0.012823179 0.017725542 0.19734281
0.012470797 0.016649604 0.19752842
0.01211828 0.015573114 0.19771412
0.011765584 0.014496118 0.19789991
0.01141271 0.01341854 0.19808584
0.011059657 0.012340441 0.19827181
0.01070644 0.011261821 0.1984579
0.010353029 0.010182679 0.19864404
0.009999454 0.0091029853 0.19883034
0.0096457154 0.0080227405 0.19901669
0.0092917681 0.006942004 0.19920313
0.0089376867 0.0058607012 0.1993897
0.0085834116 0.0047788769 0.19957638
0.0082289577 0.0036964715 0.19976303
0.0078743398 0.0026135892 0.19994989
0.0075194985 0.0015301555 0.20013684
0.007164523 0.00044618547 0.20032385
0.0068093836 -0.00063835084 0.20051089
0.0064540505 -0.0017234236 0.20069811
0.0060985386 -0.0028090179 0.20088544
0.0057428479 -0.0038951337 0.20107278
0.0053870082 -0.0049818307 0.20126027
0.00503093 -0.0060690045 0.20144781
0.0046747476 -0.0071567893 0.20163548
0.0043183416 -0.0082450807 0.20182326
0.0039617717 -0.0093339384 0.20201111
0.003605023 -0.010423303 0.2021991
0.0032480955 -0.011513233 0.20238706
0.0028910041 -0.0126037 0.20257521
0.002533704 -0.013694689 0.20276344
0.0021762401 -0.014786243 0.20295176
0.0018186122 -0.01587835 0.20314014
0.0014608055 -0.016970992 0.20332864
0.0011027902 -0.018064156 0.20351726
0.00074465573 -0.019157916 0.20370594
0.00074204803 -0.020641565 0.20338395
0.0010190904 -0.022438958 0.20265886
0.0012979507 -0.024248064 0.20192909
0.0015785992 -0.026068941 0.20119449
0.0018611401 -0.027901709 0.20045507
0.0021454543 -0.029746503 0.19971085
0.0024316907 -0.031603441 0.19896176
0.0027198046 -0.033472642 0.19820777
0.0030098408 -0.035354212 0.19744864
0.0033017844 -0.037248299 0.19668454
0.00359568 -0.039155014 0.19591537
0.0038915277 -0.041074477 0.19514105
0.0041894019 -0.04300683 0.19436148
0.004489243 -0.044952191 0.19357663
0.0047911406 -0.046910718 0.19278657
0.0050950497 -0.048882484 0.19199109
0.00540106 -0.050867692 0.19119024
0.0057091266 -0.052866437 0.19038388
0.006019339 -0.054878913 0.18957207
0.0063316524 -0.056905195 0.18875462
0.0066461265 -0.05894544 0.18793154
0.006962806 -0.060999833 0.18710279
0.007281661 -0.063068479 0.18626824
0.0076027215 -0.065151542 0.1854279
0.0079260319 -0.067249179 0.1845817
0.093691155 -0.17854416 0.057636321
0.093690947 -0.18090938 0.057118416
0.093690783 -0.18328427 0.056598306
0.093690574 -0.18566886 0.056076109
0.093690366 -0.1880632 0.055551767
0.093690142 -0.19046731 0.05502528
0.093689948 -0.19288136 0.054496646
0.093689755 -0.19530535 0.053965807
0.093689561 -0.1977393 0.053432763
0.093689322 -0.20018335 0.052897573
0.093689114 -0.20263746 0.052360177
0.09368892 -0.20510185 0.051820517
0.093688712 -0.20757645 0.051278532
0.093688473 -0.21006133 0.050734401
0.093688339 -0.21255675 0.050187826
0.093688488 -0.21506298 0.049638629
0.093688622 -0.21757972 0.049087048
0.093688741 -0.22010705 0.048533142
0.09368901 -0.22264519 0.047976792
0.093689322 -0.22519417 0.047417939
0.09368965 -0.22775394 0.046856761
0.093689978 -0.23032457 0.046293139
0.093690291 -0.23290613 0.045727134
0.093690619 -0.23549868 0.045158744
0.093690947 -0.23810229 0.04458797
0.093691275 -0.24071704 0.044014692
0.093691602 -0.24334301 0.043438911
0.09369196 -0.24598031 0.042860687
0.093692467 -0.24862923 0.042279661
0.093692586 -0.25128895 0.041696906
0.09369266 -0.25396013 0.041111529
0.09369278 -0.25664291 0.040523648
0.093692869 -0.25933734 0.039933264
0.093692988 -0.26204348 0.039340138
0.093693241 -0.26476175 0.03874433
0.10129306 -0.27940989 0.026446879
0.10182196 -0.28305376 0.025016069
0.10206422 -0.28626472 0.024022877
0.10147583 -0.28816748 0.024309576
0.10088697 -0.29007137 0.024596691
0.10029776 -0.29197654 0.024883747
0.099708229 -0.29388297 0.02517122
0.099118203 -0.29579061 0.025458753
0.098527908 -0.29769951 0.025746465
0.09787786 -0.29951185 0.026126683
0.096858352 -0.30071175 0.02708298
0.095840901 -0.30190897 0.028037429
0.094825521 -0.3031036 0.028989911
0.093812346 -0.30429575 0.029940307
0.093692631 -0.30699819 0.029491365
0.093692601 -0.30991572 0.028852284
0.093693271 -0.31284773 0.028209031
0.093693972 -0.31579307 0.027562916
0.093694642 -0.31875178 0.026913941
0.093695372 -0.32172406 0.026261806
0.093696147 -0.32471007 0.025606692
0.093696892 -0.32770967 0.024948597
0.13156943 0.077898011 0.066229016
0.12039739 0.080763415 0.080287814
0.10989604 0.083456814 0.093502641
0.10000438 0.085994154 0.1059503
0.093883276 0.087069944 0.11354369
0.09207999 0.086405203 0.11556339
0.090292268 0.085746154 0.11756563
0.088519841 0.085092753 0.1195507
0.086762518 0.084444895 0.12151897
0.085020095 0.083802596 0.12347049
0.083292425 0.083165705 0.12540549
0.081579328 0.082534149 0.1273241
0.079880536 0.081907943 0.12922677
0.078195937 0.081286922 0.1311135
0.07652539 0.080671057 0.13298455
0.074868634 0.080060303 0.13484007
0.073225543 0.079454571 0.13668033
0.071595952 0.078853831 0.13850549
0.06997969 0.078258008 0.14031571
0.068376593 0.077667013 0.14211121
0.066786483 0.077080816 0.14389211
0.06520924 0.076499358 0.14565864
0.063644648 0.075922593 0.14741099
0.062092617 0.075350434 0.14914921
0.060552999 0.074782833 0.1508736
0.059025593 0.074219763 0.15258431
0.057510294 0.073661134 0.15428141
0.056006908 0.073106945 0.15596527
0.054515369 0.072557077 0.15763572
0.053035513 0.072011515 0.1592932
0.051658757 0.071421191 0.16081685
0.050849453 0.070533678 0.16159281
0.050042465 0.069648728 0.16236657
0.04923775 0.068766251 0.16313815
0.04843533 0.067886323 0.16390759
0.047635198 0.067008853 0.16467476
0.046837285 0.066133916 0.16543981
0.046041675 0.065261394 0.16620266
0.045248285 0.064391389 0.16696346
0.04445716 0.063523799 0.16772202
0.04366824 0.062658682 0.1684784
0.042881534 0.061795965 0.16923282
0.042097017 0.060935691 0.16998497
0.041314736 0.060077846 0.17073515
0.040534616 0.05922237 0.17148313
0.039756663 0.058369324 0.17222911
0.038980938 0.057518631 0.17297286
0.038207337 0.056670323 0.17371464
0.037435882 0.055824369 0.1744543
0.036666587 0.054980785 0.17519194
0.035899438 0.054139525 0.17592755
0.035134412 0.053300589 0.17666107
0.034371495 0.052463979 0.17739266
0.033610687 0.051629692 0.17812213
0.032851949 0.050797716 0.17884961
0.032095343 0.049968034 0.17957512
0.031340823 0.049140602 0.18029857
0.030588388 0.04831548 0.18102005
0.029837981 0.047492623 0.18173957
0.029089652 0.046672001 0.18245709
0.028343365 0.045853645 0.1831727
0.027599111 0.045037523 0.18388632
0.026856944 0.044223607 0.18459794
0.026116736 0.04341194 0.18530768
0.025378555 0.042602494 0.18601546
0.024642408 0.041795209 0.18672135
0.023908243 0.040990144 0.18742529
0.023176074 0.04018724 0.18812725
0.022445887 0.039386541 0.18882748
0.021717653 0.038587987 0.18952566
0.02099143 0.03779161 0.19022208
0.020267144 0.036997363 0.19091654
0.01954481 0.036205247 0.19160914
0.018824428 0.035415277 0.19229984
0.018105954 0.034627438 0.19298875
0.017389432 0.033841714 0.19367579
0.016674817 0.033058092 0.19436106
0.016034514 0.03221935 0.19494474
0.015684679 0.031152144 0.19512889
0.015334651 0.030084446 0.19531307
0.014984429 0.029016182 0.19549742
0.014634103 0.027947396 0.19568178
0.014283508 0.026878163 0.19586632
0.013932794 0.025808334 0.19605091
0.013581902 0.024737984 0.1962356
0.01323086 0.023667112 0.19642034
0.01287961 0.022595704 0.19660527
0.012528181 0.021523774 0.19679019
0.012176618 0.020451322 0.19697523
0.011824846 0.019378334 0.19716036
0.011472926 0.018304825 0.19734555
0.011120811 0.017230779 0.1975309
0.010768563 0.016156197 0.19771636
0.01041609 0.015081093 0.19790184
0.01006344 0.014005482 0.19808745
0.0097106248 0.012929305 0.19827315
0.0093576759 0.011852592 0.19845882
0.0090045035 0.010775372 0.19864473
0.008651197 0.0096975863 0.19883069
0.0082976967 0.0086193085 0.19901675
0.0079440475 0.0075404495 0.1992029
0.0075901598 0.0064611137 0.19938919
0.007236138 0.0053812265 0.19957554
0.0068819374 0.004300788 0.19976196
0.0065275729 0.0032198131 0.19994843
0.0061730146 0.0021383017 0.20013496
0.0058183074 0.0010562688 0.20032167
0.0054634064 -2.6330352e-05 0.20050851
0.0051082969 -0.0011094064 0.2006954
0.0047530532 -0.0021930635 0.20088241
0.0043976009 -0.0032772571 0.20106947
0.0040419996 -0.0043619722 0.20125663
0.0036862344 -0.0054472387 0.20144388
0.0033302754 -0.0065330714 0.20163119
0.0029741526 -0.0076193959 0.20181862
0.0026178062 -0.0087062567 0.20200619
0.0022613257 -0.0097936839 0.2021938
0.0019046515 -0.010881633 0.20238158
0.0015477985 -0.011970147 0.20256934
0.0011907816 -0.013059184 0.2027573
0.00083360076 -0.014148772 0.20294526
0.00047619641 -0.015238911 0.20313337
0.00011864305 -0.016329557 0.20332155
-0.00022116303 -0.0174402 0.203484
-0.0005505383 -0.018563241 0.20363116
-0.00085455179 -0.019715235 0.20374149
-0.00061936677 -0.021464825 0.20307148
-0.00038270652 -0.023225158 0.20239747
-0.00014460087 -0.024996325 0.20171922
0.0001116842 -0.026797235 0.20101258
0.00038932264 -0.028631985 0.20027277
0.00066874921 -0.030478731 0.19952813
0.00095006824 -0.032337651 0.19877854
0.001233235 -0.034208789 0.19802415
0.0015182793 -0.036092371 0.19726461
0.0018051714 -0.037988447 0.19650009
0.0020940155 -0.039897144 0.19573045
0.0023848116 -0.041818663 0.19495568
0.0026775151 -0.04375302 0.19417575
0.0029722154 -0.045700446 0.19339049
0.0032688826 -0.047660999 0.19259995
0.0035675913 -0.049634837 0.19180411
0.0038683116 -0.051622123 0.19100279
0.0041710883 -0.053622968 0.19019598
0.0044759363 -0.055637501 0.18938372
0.0047829002 -0.057665914 0.18856579
0.0050919503 -0.059708267 0.18774232
0.005403161 -0.061764784 0.1869131
0.0057165176 -0.063835569 0.18607813
0.0060320795 -0.065920815 0.18523726
0.0063498318 -0.068020612 0.18439066
0.093691319 -0.18244852 0.054107726
0.093691126 -0.18483822 0.053578854
0.093690932 -0.18723778 0.053047836
0.093690723 -0.18964718 0.052514672
0.093690485 -0.19206651 0.051979363
0.093690306 -0.19449584 0.051441848
0.093690082 -0.19693519 0.050902069
0.093689889 -0.1993847 0.050360024
0.09368965 -0.20184435 0.049815714
0.093689471 -0.20431428 0.049269199
0.093689278 -0.20679449 0.04872036
0.093689069 -0.20928508 0.048169196
0.093688846 -0.21178608 0.047615886
0.093688816 -0.21429785 0.047059774
0.093688935 -0.21682042 0.046501219
0.093689084 -0.21935362 0.04594022
0.093689322 -0.22189774 0.045376658
0.093689665 -0.2244527 0.044810653
0.093689993 -0.22701854 0.044242203
0.093690321 -0.22959529 0.043671429
0.093690664 -0.23218302 0.043098152
0.093690947 -0.23478177 0.04252243
0.09369126 -0.23739167 0.041944265
0.093691617 -0.24001282 0.041363537
0.09369196 -0.24264523 0.040780425
0.093692318 -0.24528898 0.04019469
0.093692645 -0.24794415 0.039606512
0.09369275 -0.25061047 0.039016068
0.093692839 -0.2532883 0.038423181
0.093692929 -0.25597781 0.037827671
0.093693048 -0.25867903 0.037229478
0.093693465 -0.26139253 0.036628306
0.093693957 -0.26411802 0.036024332
0.093694404 -0.26685542 0.035417795
0.098536894 -0.27723181 0.027301788
0.099053323 -0.28085434 0.025879264
0.099573702 -0.28450495 0.024445832
0.099369228 -0.28701603 0.02413559
0.098780572 -0.28891689 0.024422169
0.098191559 -0.29081896 0.024708807
0.097602099 -0.29272225 0.024995744
0.097012311 -0.2946268 0.02528286
0.096422046 -0.29653257 0.025570154
0.095831499 -0.29843965 0.025857627
0.095017329 -0.29997581 0.026495874
0.094002396 -0.30117309 0.027450383
0.093693465 -0.30355456 0.027294338
0.093693376 -0.30646691 0.026649714
0.093693227 -0.30939239 0.026002228
0.093693897 -0.31233251 0.025350511
0.093694583 -0.31528607 0.024695814
0.093695253 -0.31825316 0.024038136
0.093695968 -0.32123381 0.023377478
0.093696684 -0.32422817 0.022713721
0.093697369 -0.32723626 0.022046983
0.1216974 0.080079496 0.076325059
0.11107838 0.082813665 0.089758337
0.10108122 0.085387945 0.10240489
0.092708126 0.087382182 0.11296088
0.090910062 0.086716086 0.11498287
0.089127444 0.086055785 0.11698765
0.087360054 0.085401073 0.11897513
0.085607782 0.084751964 0.12094566
0.083870403 0.084108368 0.12289947
0.082147673 0.08347021 0.12483677
0.080439448 0.082837433 0.12675777
0.078745566 0.08220996 0.12866265
0.077065796 0.081587702 0.13055161
0.075399965 0.08097066 0.13242495
0.073747978 0.080358684 0.13428271
0.072109625 0.07975176 0.13612518
0.070484698 0.079149827 0.13795245
0.068873055 0.078552812 0.13976485
0.067274541 0.077960655 0.14156249
0.065689027 0.077373281 0.1433455
0.06411624 0.07679069 0.14511421
0.062556155 0.076212764 0.14686856
0.061008558 0.075639486 0.14860898
0.059473328 0.075070783 0.1503354
0.057950296 0.074506581 0.1520482
0.056439318 0.073946849 0.15374738
0.054940261 0.073391542 0.15543312
0.053452969 0.072840586 0.15710565
0.051977314 0.072293967 0.15876511
0.050513178 0.07175158 0.16041166
0.049563736 0.070940897 0.16137668
0.048759356 0.07005617 0.16215003
0.047957227 0.069173962 0.16292119
0.047157347 0.068294272 0.16369018
0.046359748 0.067417055 0.16445696
0.045564435 0.066542298 0.1652216
0.044771336 0.065670043 0.16598409
0.043980487 0.064800262 0.16674438
0.04319185 0.063932911 0.16750261
0.042405434 0.063067988 0.16825867
0.041621275 0.062205523 0.16901258
0.040839233 0.061345473 0.16976443
0.04005941 0.060487822 0.17051417
0.039281793 0.059632599 0.17126176
0.038506299 0.058779731 0.17200735
0.037733003 0.057929248 0.17275083
0.036961854 0.057081148 0.17349219
0.036192834 0.056235403 0.17423156
0.035425991 0.055391982 0.17496881
0.034661248 0.054550946 0.17570403
0.033898637 0.053712204 0.17643723
0.033138104 0.052875802 0.1771684
0.032379694 0.052041695 0.17789754
0.031623393 0.051209897 0.17862466
0.030869149 0.050380394 0.17934978
0.03011699 0.049553156 0.18007293
0.02936691 0.048728198 0.18079406
0.028618857 0.047905535 0.18151325
0.027872853 0.047085091 0.18223047
0.02712892 0.046266884 0.18294567
0.026387013 0.045450926 0.18365893
0.025647119 0.044637218 0.18437034
0.024909228 0.043825701 0.18507972
0.024173379 0.043016389 0.1857872
0.023439541 0.042209268 0.18649268
0.022707671 0.041404352 0.18719634
0.021977767 0.040601611 0.18789804
0.021249816 0.039801076 0.18859795
0.020523861 0.039002687 0.18929586
0.019799888 0.038206413 0.18999189
0.019077837 0.037412331 0.19068602
0.018357754 0.036620364 0.19137833
0.017639592 0.035830542 0.19206882
0.016923368 0.035042837 0.19275746
0.016209066 0.034257218 0.19344413
0.015496656 0.03347373 0.19412902
0.014786169 0.032692343 0.19481215
0.014335915 0.031706765 0.19513524
0.01398614 0.030640945 0.19531924
0.013636217 0.029574558 0.19550321
0.013286099 0.028507695 0.19568726
0.012935773 0.027440295 0.1958715
0.012585282 0.026372388 0.1960558
0.012234628 0.025303915 0.19624022
0.01188381 0.024234951 0.19642469
0.011532828 0.02316545 0.19660926
0.011181653 0.022095427 0.19679388
0.010830313 0.021024868 0.19697854
0.010478809 0.019953787 0.19716343
0.010127082 0.0188822 0.19734845
0.0097752512 0.017810062 0.1975334
0.0094232261 0.016737387 0.1977185
0.0090710074 0.01566419 0.19790375
0.0087186247 0.014590472 0.198089
0.0083660781 0.013516203 0.1982744
0.0080133826 0.012441397 0.1984598
0.0076604486 0.011366129 0.19864544
0.0073073804 0.010290265 0.19883105
0.0069541186 0.0092138946 0.19901681
0.0066007078 0.0081369728 0.19920263
0.0062471032 0.0070595294 0.19938859
0.0058933347 0.0059815645 0.19957456
0.0055393875 0.0049030632 0.19976074
0.0051852316 0.0038240403 0.19994694
0.0048309416 0.002744481 0.20013326
0.0044764727 0.0016643554 0.20031959
0.00412184 0.00058370829 0.20050615
0.0037670285 -0.00049746037 0.20069265
0.0034120083 -0.0015791655 0.20087931
0.0030568391 -0.0026614368 0.20106605
0.0027014762 -0.003744185 0.20125297
0.0023459494 -0.0048274994 0.20143995
0.0019902438 -0.0059113652 0.20162699
0.0016343594 -0.0069957674 0.20181409
0.001278311 -0.0080806911 0.20200127
0.00092206895 -0.0091661513 0.20218858
0.00056567788 -0.010252163 0.20237601
0.00020906329 -0.011338696 0.20256358
-0.00013707578 -0.012437031 0.20273581
-0.00046551228 -0.013555169 0.20288223
-0.00079418719 -0.014674157 0.2030288
-0.0011231154 -0.015793994 0.20317546
-0.001452297 -0.016914696 0.20332226
-0.0017817616 -0.018036246 0.20346916
-0.0021114647 -0.019158646 0.20361614
-0.0021139979 -0.020645142 0.20328674
-0.0018825233 -0.022398725 0.20261493
-0.0016495734 -0.024163112 0.20193905
-0.0014152229 -0.025938347 0.20125896
-0.0011793971 -0.027724564 0.20057464
-0.00094212592 -0.029521808 0.19988617
-0.00070342422 -0.031330243 0.19919339
-0.00046317279 -0.033149943 0.19849631
-0.00022141635 -0.034981042 0.19779474
2.7403235e-05 -0.03683015 0.19708073
0.0003093183 -0.038728237 0.19631577
0.00059308112 -0.040638946 0.19554567
0.00087878108 -0.042562477 0.19477051
0.0011663884 -0.044498876 0.19399005
0.001455918 -0.04644832 0.1932044
0.0017473996 -0.048410922 0.19241342
0.002040863 -0.050386854 0.19161713
0.0023363233 -0.052376196 0.19081536
0.0026338249 -0.054379135 0.19000813
0.0029333234 -0.056395777 0.18919542
0.003234908 -0.058426276 0.18837705
0.0035385489 -0.060470752 0.18755311
0.0038443059 -0.062529385 0.18672347
0.0041521788 -0.064602301 0.18588802
0.0044621825 -0.066689663 0.18504682
0.0047743917 -0.068791665 0.18419963
0.093691453 -0.18640758 0.05052954
0.09369126 -0.18882225 0.0499897
0.093691051 -0.19124691 0.049447536
0.093690872 -0.19368163 0.048903167
0.093690678 -0.19612645 0.048356533
0.09369047 -0.1985814 0.047807574
0.093690276 -0.2010466 0.04725641
0.093690038 -0.20352209 0.046702862
0.093689844 -0.20600794 0.046147108
0.093689635 -0.20850421 0.04558897
0.093689412 -0.21101095 0.045028567
0.093689173 -0.21352825 0.044465661
0.093689278 -0.21605663 0.043900013
0.093689427 -0.21859577 0.043331861
0.093689665 -0.22114582 0.042761087
0.093689978 -0.22370681 0.04218787
0.093690321 -0.22627872 0.041612148
0.093690649 -0.22886162 0.041033983
0.093690947 -0.23145549 0.040453374
0.093691304 -0.23406056 0.039870262
0.093691647 -0.23667683 0.039284587
0.09369196 -0.23930435 0.038696468
0.093692318 -0.24194318 0.038105726
0.093692645 -0.24459343 0.037512541
0.093692794 -0.24725488 0.036917031
0.093692929 -0.24992785 0.036318898
0.093693018 -0.25261241 0.035718322
0.093693212 -0.25530881 0.035114884
0.093693703 -0.25801742 0.034508467
0.093694136 -0.2607379 0.033899426
0.093694627 -0.26347035 0.033287585
0.093695059 -0.26621473 0.03267318
0.093695551 -0.26897129 0.032055914
0.095800191 -0.27506909 0.028150737
0.096304208 -0.2786704 0.026736557
0.096812129 -0.28229958 0.02531147
0.097268671 -0.2858679 0.02396208
0.096680135 -0.28776562 0.024248123
0.09609127 -0.28966469 0.024534345
0.095501989 -0.29156488 0.024820805
0.09491235 -0.29346639 0.025107443
0.094322324 -0.29536903 0.025394261
0.093731895 -0.29727304 0.025681257
0.093694299 -0.30010465 0.025093257
0.093694225 -0.30301183 0.02444303
0.093694091 -0.30593222 0.023789942
0.093693942 -0.30886585 0.023133874
0.093694493 -0.31181395 0.022473812
0.093695179 -0.31477588 0.021810412
0.093695879 -0.31775129 0.021143913
0.093696579 -0.32074043 0.020474434
0.09369728 -0.32374328 0.019801915
0.093697995 -0.32676005 0.019126236
0.12301752 0.079385012 0.072300822
0.11227849 0.08216086 0.085957646
0.10217379 0.08477287 0.098807752
0.09264677 0.087235928 0.11092332
0.089740202 0.087026983 0.11440259
0.087962739 0.086365327 0.1164096
0.086200476 0.085709393 0.1183995
0.084453218 0.085058972 0.12037241
0.082720786 0.084414124 0.12232855
0.081003048 0.083774716 0.12426814
0.079299726 0.083140656 0.12619144
0.077610679 0.082511961 0.12809861
0.075935736 0.081888512 0.12998983
0.074274741 0.081270203 0.13186541
0.072627462 0.080657035 0.1337254
0.070993796 0.080048934 0.13557002
0.069373555 0.079445779 0.13739949
0.067766562 0.078847587 0.1392141
0.0661726 0.078254268 0.14101386
0.064591624 0.077665731 0.14279905
0.063023403 0.077081978 0.14456978
0.061467752 0.076502934 0.14632636
0.059924617 0.075928509 0.1480687
0.058393799 0.075358659 0.14979723
0.056875095 0.074793354 0.15151206
0.055368483 0.074232519 0.15321326
0.053873703 0.073676124 0.15490115
0.052390665 0.073124066 0.15657565
0.050919287 0.072576344 0.15823707
0.049459308 0.072032914 0.15988559
0.048280463 0.071347326 0.16116092
0.047478631 0.070462853 0.16193387
0.046679065 0.069580883 0.16270462
0.045881778 0.068701416 0.16347322
0.045086704 0.067824468 0.16423962
0.044293903 0.066949978 0.16500381
0.043503366 0.066077933 0.16576591
0.04271502 0.065208375 0.16652584
0.041928902 0.064341247 0.16728359
0.041144997 0.063476577 0.16803932
0.040363304 0.062614322 0.16879284
0.039583772 0.06175448 0.16954431
0.038806431 0.060897067 0.17029366
0.038031243 0.060042024 0.17104089
0.037258223 0.059189394 0.1717861
0.036487363 0.058339134 0.17252922
0.035718672 0.057491213 0.17327017
0.034952104 0.056645676 0.17400917
0.03418766 0.055802464 0.17474607
0.033425331 0.054961592 0.1754809
0.032665096 0.054123074 0.17621374
0.031907007 0.05328685 0.17694455
0.031150959 0.052452937 0.17767337
0.03039702 0.051621318 0.1784001
0.029645175 0.050792009 0.17912486
0.028895356 0.049964979 0.17984769
0.028147601 0.0491402 0.18056855
0.027401917 0.048317686 0.18128735
0.026658267 0.047497422 0.18200418
0.025916651 0.046679392 0.18271908
0.025177047 0.045863613 0.18343204
0.024439454 0.045050055 0.1841431
0.023703903 0.044238701 0.18485215
0.022970349 0.043429554 0.18555924
0.022238761 0.042622611 0.18626449
0.021509171 0.041817859 0.18696785
0.020781547 0.041015282 0.18766922
0.02005592 0.040214837 0.18836871
0.0193322 0.039416626 0.18906635
0.018610463 0.038620517 0.18976212
0.017890677 0.037826568 0.19045594
0.017172799 0.037034765 0.19114795
0.016456887 0.036245063 0.19183812
0.015742868 0.035457492 0.19252637
0.015030771 0.034672037 0.19321284
0.014320567 0.033888668 0.19389749
0.013612285 0.0331074 0.19458029
0.012991577 0.032259583 0.19514173
0.012642056 0.031195611 0.19532531
0.012292325 0.030131146 0.19550902
0.011942461 0.029066145 0.19569287
0.011592403 0.028000623 0.19587666
0.011242181 0.026934579 0.19606066
0.010891765 0.025868028 0.19624472
0.010541201 0.024800941 0.19642895
0.010190427 0.023733333 0.19661319
0.0098395199 0.022665203 0.19679755
0.0094884336 0.021596536 0.196982
0.0091371685 0.020527363 0.1971665
0.0087857246 0.019457623 0.19735116
0.0084341168 0.018387392 0.19753587
0.0080823302 0.017316639 0.19772062
0.0077303648 0.01624535 0.1979056
0.0073782206 0.01517354 0.19809061
0.0070259124 0.014101207 0.19827566
0.0066734701 0.013028309 0.19846085
0.0063207746 0.011954919 0.19864613
0.0059679747 0.010880977 0.19883141
0.0056149811 0.0098065138 0.19901687
0.0052618086 0.0087315291 0.19920239
0.0049084425 0.007656008 0.199388
0.0045549423 0.0065799505 0.19957376
0.0042012334 0.0055033714 0.19975957
0.0038473755 0.0044262707 0.19994545
0.0034933239 0.0033486038 0.20013139
0.0031391084 0.0022704303 0.2003175
0.0027847141 0.0011917204 0.20050365
0.0024301261 0.00011247396 0.20068994
0.002075389 -0.00096730888 0.2008763
0.0017204732 -0.0020476133 0.20106283
0.0013653636 -0.003128469 0.20124936
0.001010105 -0.0042098314 0.20143598
0.00065465271 -0.00529176 0.20162269
0.0002990514 -0.006374225 0.20180944
-5.3435564e-05 -0.0074606538 0.20199153
-0.00038094819 -0.0085738897 0.20213735
-0.00070872903 -0.0096879601 0.20228329
-0.0010367483 -0.010802925 0.20242918
-0.0013650358 -0.011918694 0.20257536
-0.0016935468 -0.013035342 0.20272154
-0.0020223111 -0.014152855 0.20286787
-0.0023513287 -0.015271202 0.20301428
-0.0026806146 -0.016390383 0.20316088
-0.0030101389 -0.017510444 0.20330754
-0.0033399314 -0.018631369 0.20345426
-0.003601566 -0.019829318 0.20350096
-0.0033751279 -0.02157627 0.20283142
-0.0031473488 -0.023333892 0.20215774
-0.0029181391 -0.025102302 0.20148003
-0.0026875436 -0.026881635 0.20079806
-0.0024555027 -0.02867195 0.20011193
-0.0022220314 -0.030473374 0.19942147
-0.0019870847 -0.032285988 0.19872674
-0.0017507076 -0.034109913 0.19802776
-0.0015128404 -0.035945237 0.19732434
-0.001273483 -0.037792087 0.19661653
-0.0010325909 -0.039650604 0.1959042
-0.00079019368 -0.041520819 0.19518739
-0.00054624677 -0.043402933 0.19446602
-0.00030080974 -0.04529693 0.19374019
-5.3748488e-05 -0.047203049 0.19300964
0.00022664666 -0.04916051 0.19222704
0.00051487982 -0.051138461 0.19143027
0.00080509484 -0.053129897 0.19062805
0.0010972619 -0.055134885 0.18982041
0.0013914555 -0.057153635 0.18900719
0.0016876608 -0.05918622 0.18818843
0.0019859076 -0.06123285 0.18736404
0.0022861958 -0.063293561 0.18653393
0.0025886148 -0.06536866 0.18569806
0.0028930902 -0.06745816 0.18485636
0.093691841 -0.18799259 0.047449827
0.093691632 -0.19042256 0.046900868
0.093691438 -0.19286267 0.046349645
0.093691245 -0.19531293 0.045796096
0.093691036 -0.1977734 0.045240223
0.093690827 -0.20024416 0.044682026
0.093690619 -0.20272523 0.044121504
0.093690395 -0.20521672 0.043558657
0.093690217 -0.20771874 0.042993426
0.093689993 -0.21023124 0.042425871
0.093689755 -0.21275437 0.041855931
0.09368962 -0.21528828 0.041283309
0.09368977 -0.21783341 0.040707886
0.093689993 -0.22038938 0.04012996
0.093690351 -0.22295648 0.039549351
0.093690678 -0.22553453 0.038966238
0.093690977 -0.22812352 0.038380742
0.093691289 -0.23072365 0.037792623
0.093691632 -0.23333502 0.03720206
0.093691975 -0.23595762 0.036608934
0.093692333 -0.23859155 0.036013186
0.093692631 -0.24123684 0.035414934
0.093692973 -0.24389362 0.034814
0.093693331 -0.24656197 0.034210563
0.093693092 -0.24924104 0.033605397
0.093693435 -0.25193274 0.032996535
0.093693867 -0.25463629 0.032384872
0.093694344 -0.25735179 0.031770647
0.093694791 -0.26007915 0.031153679
0.093695268 -0.26281863 0.03053391
0.093695775 -0.2655701 0.029911458
0.093696207 -0.26833376 0.029286385
0.093696654 -0.27110967 0.02865833
0.093696356 -0.27389669 0.028028786
0.093695417 -0.27669513 0.027397454
0.094070166 -0.28010994 0.026170969
0.094569653 -0.28374586 0.024743259
0.094585687 -0.28661764 0.024074614
0.093997002 -0.2885136 0.024360418
0.093693107 -0.29087988 0.02419436
0.093694121 -0.29375762 0.023542702
0.093695089 -0.29664832 0.022888124
0.093695074 -0.29955053 0.022232234
0.093694925 -0.30246562 0.021573544
0.093694806 -0.30539411 0.020911872
0.093694642 -0.30833584 0.020247161
0.093695104 -0.31129211 0.019578397
0.093695804 -0.3142623 0.018906295
0.093696475 -0.31724614 0.018231034
0.093697235 -0.32024384 0.017552614
0.093697935 -0.32325527 0.016871154
0.1243583 0.078679621 0.068213671
0.11349674 0.081498191 0.082099408
0.10328218 0.084148839 0.095158011
0.093655288 0.086647496 0.10746539
0.088570535 0.087337807 0.11382231
0.086798169 0.086674884 0.11583173
0.085040942 0.086017638 0.11782396
0.083298773 0.085365966 0.11979923
0.081571341 0.084719807 0.12175766
0.079858527 0.084079161 0.12369958
0.078160092 0.08344388 0.12562522
0.076475963 0.082813919 0.1275346
0.074805826 0.082189217 0.12942809
0.073149569 0.081569731 0.1313059
0.071507096 0.080955327 0.1331681
0.069878131 0.080346018 0.13501495
0.068262555 0.079741701 0.13684663
0.066660136 0.079142332 0.13866338
0.0650708 0.07854785 0.14046523
0.063494369 0.077958167 0.14225259
0.061930627 0.077373266 0.14402547
0.06037949 0.076793045 0.14578408
0.058840759 0.076217502 0.14752865
0.057314344 0.075646535 0.14925918
0.055800036 0.075080127 0.15097606
0.054297715 0.074518174 0.15267935
0.052807279 0.073960662 0.15436912
0.05132851 0.073407546 0.15604568
0.049861312 0.072858736 0.15770912
0.048405543 0.072314218 0.15935957
0.046999574 0.071752995 0.16094556
0.046200305 0.07086879 0.1617181
0.045403287 0.069987059 0.16248846
0.044608526 0.06910786 0.16325665
0.043816037 0.068231121 0.16402259
0.043025754 0.06735687 0.16478646
0.042237729 0.066485062 0.16554812
0.041451916 0.065615743 0.16630763
0.040668294 0.064748839 0.16706505
0.039886877 0.063884392 0.1678203
0.039107636 0.063022375 0.16857353
0.038330592 0.062162757 0.16932461
0.037555717 0.061305553 0.17007357
0.036782987 0.060450733 0.17082047
0.036012456 0.059598297 0.17156515
0.035244033 0.05874823 0.17230788
0.03447777 0.057900548 0.17304853
0.033713587 0.057055205 0.17378715
0.032951571 0.056212202 0.17452368
0.032191642 0.055371538 0.17525822
0.031433828 0.054533198 0.1759907
0.030678093 0.053697169 0.17672116
0.02992446 0.052863449 0.17744955
0.029172897 0.052032039 0.17817602
0.028423376 0.051202893 0.17890048
0.027675949 0.050375998 0.17962286
0.026930533 0.049551427 0.18034336
0.026187196 0.048729092 0.18106183
0.025445864 0.047909021 0.18177837
0.024706557 0.047091171 0.182493
0.023969293 0.046275541 0.18320554
0.023234025 0.045462132 0.18391621
0.022500739 0.044650972 0.18462494
0.021769449 0.043841988 0.18533179
0.021040171 0.043035209 0.18603674
0.020312846 0.042230591 0.18673965
0.019587487 0.041428179 0.18744078
0.018864095 0.040627912 0.18814
0.018142641 0.039829835 0.18883729
0.017423168 0.03903389 0.18953276
0.016705602 0.03824006 0.19022632
0.015989959 0.037448391 0.19091797
0.015276253 0.036658838 0.19160786
0.01456444 0.035871416 0.19229585
0.013854533 0.035086095 0.19298202
0.013146564 0.034302846 0.19366631
0.012440443 0.033521727 0.19434881
0.011736184 0.032742679 0.19502947
0.011302352 0.031748503 0.19533142
0.010952905 0.030685872 0.19551477
0.010603264 0.029622778 0.19569832
0.010253444 0.028559119 0.1958819
0.0099034458 0.027494982 0.1960656
0.0095532835 0.026430294 0.19624937
0.0092029721 0.025365084 0.19643328
0.008852452 0.024299353 0.19661719
0.008501783 0.023233116 0.19680125
0.0081509352 0.022166327 0.19698533
0.0077999085 0.021099031 0.1971696
0.0074487031 0.020031229 0.19735399
0.0070973635 0.01896289 0.19753838
0.0067458153 0.017894 0.19772288
0.006394133 0.016824618 0.19790745
0.0060422271 0.0157547 0.1980921
0.0056901872 0.014684245 0.19827688
0.0053379536 0.013613284 0.1984618
0.0049855113 0.012541801 0.19864675
0.0046329498 0.011469752 0.19883183
0.0042802244 0.010397211 0.1990169
0.0039273053 0.0093241185 0.19920212
0.0035741925 0.0082505196 0.19938743
0.0032209456 0.0071763694 0.19957286
0.0028674752 0.0061016828 0.19975835
0.0025138557 0.0050265193 0.19994399
0.0021600723 0.0039507896 0.20012963
0.0018060952 0.0028745234 0.20031542
0.0014519542 0.0017977357 0.20050135
0.0010976493 0.00072041154 0.20068723
0.00074316561 -0.00035744905 0.20087337
0.00038848817 -0.0014358163 0.20105946
3.3631921e-05 -0.0025147051 0.20124573
-0.00029684603 -0.003619194 0.20139647
-0.0006236881 -0.0047284067 0.20154166
-0.0009508431 -0.0058384836 0.20168692
-0.0012781918 -0.00694938 0.20183235
-0.0016057938 -0.0080611557 0.20197791
-0.0019336641 -0.0091737807 0.20212358
-0.0022617877 -0.01028724 0.20226932
-0.0025901198 -0.011401549 0.2024152
-0.0029187649 -0.012516692 0.2025612
-0.0032476038 -0.01363273 0.20270723
-0.0035767257 -0.014749601 0.2028535
-0.003906101 -0.015867308 0.20299983
-0.0042357147 -0.016985893 0.20314619
-0.0045655966 -0.018105313 0.20329276
-0.0048957318 -0.019225582 0.20343947
-0.0048606843 -0.02075769 0.20304683
-0.0046379417 -0.022508636 0.20237547
-0.004413873 -0.024270281 0.20170003
-0.0041884035 -0.026042774 0.20102033
-0.0039615631 -0.02782619 0.20033655
-0.0037333071 -0.029620633 0.1996485
-0.0035036355 -0.031426221 0.19895622
-0.0032725483 -0.03324303 0.1982595
-0.0030400157 -0.035071187 0.19755855
-0.002805993 -0.036910787 0.19685322
-0.0025705397 -0.038761936 0.19614342
-0.0023335814 -0.040624768 0.19542918
-0.0020951331 -0.042499349 0.19471037
-0.0018551648 -0.04438585 0.19398701
-0.0016136914 -0.046284311 0.19325909
-0.0013706833 -0.0481949 0.19252652
-0.0011260808 -0.050117746 0.19178924
-0.00087994337 -0.0520529 0.19104719
-0.00063216686 -0.054000586 0.19030043
-0.00038285553 -0.055960812 0.18954873
-0.00013189018 -0.057933755 0.18879226
0.0001411587 -0.059945807 0.1879999
0.00043404102 -0.061994568 0.18717504
0.0007289052 -0.06405741 0.18634444
0.0010258257 -0.066134632 0.1855081
0.0013247877 -0.06822627 0.18466598
0.09369199 -0.19203891 0.043781161
0.093691811 -0.19449462 0.043220639
0.093691602 -0.19696063 0.042657793
0.093691379 -0.19943692 0.042092562
0.0936912 -0.2019237 0.041524887
0.093690991 -0.20442086 0.040954947
0.093690768 -0.20692857 0.040382564
0.093690574 -0.20944694 0.039807737
0.093690351 -0.21197593 0.039230466
0.093690127 -0.21451564 0.038650751
0.093690127 -0.21706644 0.038068354
0.093690351 -0.2196285 0.037482977
0.093690664 -0.22220162 0.036894977
0.093690977 -0.22478573 0.036304533
0.093691304 -0.22738101 0.035711467
0.093691647 -0.22998741 0.035115838
0.09369199 -0.2326051 0.034517646
0.093692347 -0.23523405 0.03391695
0.093692675 -0.2378744 0.033313632
0.093693018 -0.24052626 0.032707572
0.093693092 -0.2431892 0.032099426
0.093693167 -0.24586381 0.031488538
0.093693614 -0.24855062 0.030874491
0.093694106 -0.25124925 0.030257642
0.093694568 -0.25395969 0.029638112
0.093694955 -0.25668192 0.029016018
0.093695417 -0.25941628 0.028391004
0.093695834 -0.26216263 0.027763367
0.093696252 -0.26492119 0.027132928
0.093696609 -0.26769185 0.026499808
0.093696907 -0.27047473 0.025863945
0.093696013 -0.27326813 0.025227189
0.093695074 -0.27607393 0.024587572
0.09369415 -0.27889228 0.023945153
0.093693197 -0.28172317 0.023299873
0.09369266 -0.28456753 0.022651017
0.09369342 -0.2874268 0.021997094
0.093694389 -0.29029936 0.021339893
0.093695432 -0.29318494 0.020679772
0.093696207 -0.29608324 0.020016968
0.093695894 -0.29899296 0.019352913
0.093695641 -0.30191594 0.018685758
0.093695492 -0.30485249 0.018015385
0.093695402 -0.30780256 0.017341793
0.09369573 -0.31076688 0.016664505
0.093696415 -0.3137455 0.015983462
0.093697131 -0.31673783 0.015299261
0.093697846 -0.31974405 0.014611959
0.11473363 0.080825388 0.07818231
0.1044063 0.083515823 0.091455162
0.094678357 0.08605054 0.10395774
0.087400928 0.087648645 0.11324212
0.085633703 0.086984411 0.1152539
0.083881602 0.086325854 0.11724851
0.082144424 0.0856729 0.1192261
0.080421969 0.085025504 0.12118691
0.078714132 0.084383577 0.12313107
0.077020623 0.083747044 0.12505895
0.075341322 0.083115861 0.12697068
0.073676005 0.082489967 0.12886643
0.072024606 0.0818692 0.13074645
0.07038679 0.081253618 0.13261089
0.068762533 0.080643103 0.13445991
0.067151606 0.080037624 0.13629377
0.065553851 0.079437062 0.13811266
0.063969076 0.078841403 0.13991678
0.062397197 0.078250557 0.14170623
0.060837977 0.077664509 0.14348119
0.059291318 0.07708317 0.14524192
0.057757042 0.076506466 0.14698851
0.056235015 0.075934365 0.14872119
0.054725066 0.075366855 0.1504401
0.053227097 0.074803784 0.15214542
0.051740915 0.0742452 0.15383726
0.050266422 0.073690966 0.15551576
0.048803471 0.073141098 0.15718123
0.04735186 0.072595507 0.15883371
0.045911595 0.072054133 0.16047326
0.044924349 0.071273938 0.16150275
0.044129893 0.070392489 0.16227266
0.043337665 0.069513515 0.16304049
0.042547718 0.068637028 0.16380608
0.041759983 0.067762986 0.16456944
0.040974438 0.066891447 0.16533077
0.040191129 0.066022351 0.16608986
0.03941001 0.065155685 0.16684687
0.038631082 0.064291447 0.16760176
0.037854344 0.063429639 0.16835451
0.037079722 0.062570259 0.16910523
0.03630732 0.061713278 0.16985384
0.035537049 0.060858682 0.17060032
0.034768924 0.060006455 0.17134476
0.03400296 0.059156597 0.17208701
0.033239089 0.058309123 0.17282736
0.032477371 0.057463974 0.17356551
0.031717725 0.056621194 0.17430177
0.03096021 0.055780709 0.17503586
0.030204788 0.054942578 0.17576805
0.029451407 0.054106742 0.17649814
0.028700158 0.053273201 0.17722619
0.027950957 0.05244197 0.17795226
0.027203813 0.051613033 0.17867643
0.02645871 0.050786346 0.17939851
0.025715649 0.049961939 0.18011862
0.024974614 0.049139783 0.18083674
0.024235651 0.048319861 0.18155298
0.023498654 0.04750219 0.18226716
0.022763655 0.046686739 0.18297946
0.022030681 0.045873523 0.18368983
0.02129972 0.045062497 0.18439823
0.020570725 0.044253677 0.1851047
0.019843727 0.043447033 0.18580928
0.019118637 0.042642608 0.18651199
0.018395543 0.041840345 0.18721277
0.017674416 0.041040257 0.18791169
0.016955212 0.040242285 0.18860862
0.016237959 0.039446488 0.18930376
0.015522614 0.038652837 0.18999702
0.014809191 0.037861332 0.19068843
0.014097661 0.037071913 0.191378
0.013388082 0.036284611 0.19206572
0.012680411 0.035499424 0.1927515
0.011974573 0.034716353 0.19343558
0.011270642 0.033935338 0.19411778
0.010568574 0.033156425 0.19479811
0.0099670589 0.032299519 0.19533741
0.0096178055 0.031238809 0.19552055
0.009268418 0.030177563 0.19570374
0.0089188516 0.029115796 0.19588706
0.0085690767 0.028053507 0.1960704
0.0082191825 0.026990697 0.1962539
0.0078690946 0.025927365 0.19643751
0.0075188279 0.024863556 0.19662121
0.0071684122 0.023799166 0.19680494
0.0068178177 0.022734284 0.19698879
0.0064670444 0.021668866 0.19717267
0.0061161071 0.020602942 0.19735673
0.0057649761 0.019536465 0.19754085
0.0054137111 0.018469498 0.19772497
0.0050622076 0.017401993 0.19790933
0.0047105849 0.016333967 0.19809371
0.0043587834 0.015265405 0.19827819
0.004006803 0.014196336 0.19846267
0.0036546588 0.013126746 0.19864738
0.0033023357 0.012056619 0.19883212
0.0029498339 0.010985926 0.19901696
0.0025971532 0.0099147856 0.19920191
0.0022443235 0.0088430643 0.19938689
0.0018913001 0.0077708364 0.199572
0.0015380979 0.0066980869 0.19975716
0.0011847466 0.0056248009 0.1999425
0.00083120167 0.0045509636 0.20012784
0.00047752261 0.0034766197 0.20031333
0.00012359023 0.0024017692 0.20049894
-0.00021319091 0.0013091564 0.20065945
-0.00053915381 0.00020475686 0.20080394
-0.00086537004 -0.00090047717 0.20094869
-0.0011918247 -0.0020065606 0.20109341
-0.0015185177 -0.0031135082 0.20123827
-0.0018454641 -0.0042212456 0.2013832
-0.0021726787 -0.0053298771 0.20152837
-0.0025001317 -0.0064393133 0.20167354
-0.0028278381 -0.0075496286 0.20181879
-0.0031557977 -0.0086607486 0.20196432
-0.0034839958 -0.0097727478 0.20210981
-0.0038124472 -0.010885596 0.20225543
-0.0041411519 -0.011999279 0.20240125
-0.0044701099 -0.013113812 0.2025471
-0.0047992915 -0.014229193 0.20269299
-0.0051287711 -0.015345424 0.20283911
-0.0054584891 -0.01646249 0.20298538
-0.0057884157 -0.017580464 0.20313165
-0.0061186403 -0.018699259 0.20327806
-0.0063391328 -0.019943029 0.20326129
-0.0061214715 -0.021687284 0.2025921
-0.0059024543 -0.023442239 0.20191893
-0.0056820959 -0.025207922 0.20124161
-0.0054603964 -0.026984498 0.20056012
-0.0052372813 -0.028772041 0.1998744
-0.0050128698 -0.030570604 0.19918445
-0.004786998 -0.032380342 0.19849032
-0.0045597255 -0.034201361 0.19779176
-0.0043310374 -0.036033757 0.19708878
-0.0041009486 -0.037877642 0.19638148
-0.0038693696 -0.039733097 0.19566968
-0.0036363602 -0.041600257 0.19495347
-0.0034018755 -0.043479234 0.19423264
-0.0031658858 -0.045370139 0.19350725
-0.002928406 -0.047273047 0.1927774
-0.0026894212 -0.04918813 0.19204268
-0.0024488866 -0.05111549 0.19130337
-0.0022068024 -0.053055234 0.19055927
-0.0019631833 -0.05500748 0.18981037
-0.00171794 -0.05697237 0.18905663
-0.0014711469 -0.05895 0.18829802
-0.0012227595 -0.060940474 0.18753445
-0.000972718 -0.062944002 0.18676588
-0.00072103739 -0.064960636 0.18599233
-0.00046770275 -0.066990554 0.1852136
-0.00021269917 -0.069033861 0.18442973
0.093692169 -0.19614305 0.040060103
0.09369196 -0.19862498 0.03948772
0.093691751 -0.20111734 0.038912952
0.093691558 -0.20362024 0.038335741
0.093691349 -0.20613375 0.037756145
0.09369114 -0.20865792 0.037173986
0.093690932 -0.21119277 0.036589503
0.093690723 -0.21373843 0.036002398
0.0936905 -0.21629496 0.035412848
0.093690678 -0.21886297 0.034820139
0.093690991 -0.22144218 0.034224689
0.093691334 -0.22403252 0.033626616
0.093691662 -0.22663397 0.03302604
0.093691975 -0.22924669 0.0324229
0.093692347 -0.23187073 0.031817019
0.09369266 -0.23450607 0.031208575
0.093693018 -0.2371529 0.030597508
0.093693346 -0.23981126 0.029983759
0.093693703 -0.24248123 0.029367447
0.093694031 -0.24516283 0.028748274
0.093694374 -0.24785626 0.028126478
0.093694553 -0.25056124 0.027502179
0.093695 -0.25327843 0.026874721
0.093695432 -0.25600773 0.026244521
0.093695849 -0.25874901 0.025611579
0.093696222 -0.26150236 0.024975896
0.09369652 -0.26426783 0.024337471
0.093696833 -0.26704562 0.023696184
0.093696654 -0.269835 0.023052931
0.0936957 -0.27263567 0.022407889
0.093694776 -0.27544886 0.021759987
0.093693793 -0.27827463 0.021109223
0.09369354 -0.28111428 0.020454407
0.093694046 -0.28396791 0.019795418
0.093694746 -0.28683478 0.019133151
0.093695775 -0.28971523 0.018467307
0.093696758 -0.29260862 0.017798543
0.093697026 -0.29551411 0.017127872
0.093696803 -0.29843187 0.016455054
0.093696505 -0.30136293 0.015779078
0.093696207 -0.3043074 0.015100181
0.093696117 -0.30726576 0.014417708
0.093696356 -0.31023824 0.013731658
0.093697071 -0.31322527 0.013041735
0.093697771 -0.31622615 0.012348473
0.11598948 0.08014226 0.074204981
0.10554722 0.082873404 0.087697029
0.095716238 0.085444927 0.10039923
0.086443931 0.087870628 0.1123797
0.0844694 0.087293878 0.11467609
0.082722344 0.086634055 0.11667305
0.080990225 0.085979819 0.118653
0.079272784 0.085331142 0.12061611
0.07756985 0.084687963 0.12256274
0.075881235 0.084050208 0.12449288
0.074206829 0.083417758 0.12640685
0.072546363 0.082790613 0.12830484
0.070899658 0.082168698 0.13018712
0.069266647 0.081551895 0.1320537
0.067647092 0.080940172 0.13390493
0.066040836 0.080333456 0.135741
0.064447671 0.079731762 0.13756204
0.062867522 0.079134911 0.13936827
0.061300159 0.078542918 0.14115983
0.059745431 0.077955723 0.142937
0.058203273 0.077373222 0.14469978
0.056673408 0.076795414 0.14644849
0.055155776 0.076222181 0.14818323
0.053650223 0.075653523 0.14990416
0.05215656 0.075089395 0.15161148
0.050674684 0.074529678 0.15330535
0.049204469 0.073974386 0.1549859
0.047745705 0.073423415 0.15665337
0.04629834 0.072876737 0.15830779
0.044862218 0.072334304 0.15994933
0.043650806 0.071678355 0.16128784
0.042858861 0.070797175 0.16205734
0.042069212 0.069918409 0.16282463
0.041281737 0.069042161 0.16358986
0.040496521 0.068168387 0.16435289
0.039713487 0.067297086 0.16511378
0.038932659 0.066428214 0.16587254
0.038154036 0.065561786 0.16662911
0.037377618 0.064697772 0.16738364
0.036603317 0.063836187 0.16813603
0.035831176 0.062977031 0.1688863
0.035061218 0.062120259 0.16963449
0.034293391 0.061265886 0.17038062
0.03352768 0.060413882 0.17112464
0.032764167 0.059564218 0.17186657
0.032002717 0.058716938 0.1726065
0.031243376 0.057872012 0.17334434
0.030486159 0.057029411 0.17408019
0.029730998 0.056189165 0.17481405
0.02897799 0.055351198 0.17554572
0.028226994 0.054515556 0.17627543
0.027478069 0.053682238 0.1770032
0.026731238 0.052851185 0.17772895
0.025986433 0.052022427 0.1784527
0.02524367 0.05119592 0.17917442
0.024502963 0.050371677 0.17989424
0.023764268 0.049549699 0.18061197
0.023027554 0.048729986 0.18132791
0.022292897 0.047912493 0.18204185
0.021560207 0.047097221 0.18275377
0.020829543 0.046284124 0.18346381
0.020100847 0.045473292 0.18417189
0.019374117 0.044664651 0.18487808
0.018649369 0.043858185 0.18558228
0.017926559 0.04305391 0.18628469
0.017205745 0.042251781 0.18698514
0.016486824 0.041451842 0.1876837
0.015769869 0.040654048 0.18838045
0.015054822 0.039858401 0.18907526
0.014341697 0.039064899 0.1897682
0.013630509 0.038273498 0.19045925
0.012921214 0.037484229 0.19114849
0.012213811 0.03669709 0.19183591
0.011508271 0.035912037 0.19252145
0.010804668 0.035129085 0.19320524
0.010102928 0.03434822 0.19388717
0.009403035 0.033569425 0.1945672
0.00870502 0.032792702 0.19524553
0.0082870573 0.031789944 0.19552633
0.007937938 0.030730546 0.19570923
0.0075885803 0.029670671 0.19589221
0.0072390884 0.028610229 0.19607526
0.0068894178 0.027549297 0.19625849
0.0065395981 0.026487857 0.19644171
0.0061895698 0.025425866 0.19662511
0.0058394074 0.024363369 0.19680855
0.0054890513 0.02330035 0.19699207
0.0051385015 0.022236839 0.19717577
0.0047878027 0.021172777 0.1973595
0.0044369251 0.020108193 0.19754329
0.0040859133 0.019043103 0.19772717
0.0037346929 0.017977476 0.1979112
0.0033833086 0.016911328 0.19809523
0.0030317605 0.015844673 0.19827944
0.0026800036 0.014777482 0.19846371
0.0023280978 0.013709769 0.19864804
0.0019760579 0.012641534 0.19883248
0.0016237944 0.011572763 0.19901702
0.0012713671 0.010503501 0.19920164
0.0009187907 0.0094336718 0.1993863
0.00056603551 0.0083633214 0.1995711
0.0002130568 0.0072925091 0.19975606
-0.00012996793 0.0062113404 0.19992644
-0.00045502186 0.0051117092 0.20007023
-0.00078032911 0.0040112734 0.20021421
-0.0011058897 0.0029099882 0.2003583
-0.0014317036 0.0018078685 0.20050251
-0.0017577559 0.00070491433 0.20064685
-0.0020840615 -0.00039887428 0.2007913
-0.0024105906 -0.0015035123 0.20093587
-0.0027374327 -0.00260894 0.2010805
-0.0030644834 -0.0037152618 0.20122528
-0.0033917278 -0.004822433 0.20137012
-0.0037193 -0.0059303939 0.20151505
-0.0040470958 -0.0070392191 0.20166016
-0.004375115 -0.0081489235 0.20180532
-0.0047034174 -0.0092594326 0.20195067
-0.0050319582 -0.010370791 0.20209607
-0.0053607374 -0.011483014 0.20224157
-0.0056897849 -0.012596071 0.20238724
-0.0060190856 -0.013709962 0.20253295
-0.0063486248 -0.014824733 0.2026788
-0.0066784173 -0.015940353 0.20282477
-0.0070084631 -0.017056793 0.20297089
-0.0073387623 -0.018174112 0.2031171
-0.0076693147 -0.019292265 0.2032634
-0.0075979382 -0.020869881 0.20280778
-0.0073839128 -0.02261816 0.20213684
-0.0071686506 -0.024377093 0.20146182
-0.0069520175 -0.026146844 0.20078263
-0.0067340732 -0.027927488 0.20009926
-0.006514743 -0.029719129 0.19941166
-0.0062940866 -0.031521857 0.1987198
-0.0060720891 -0.03333576 0.19802371
-0.0058486611 -0.035160996 0.19732326
-0.0056238621 -0.036997639 0.19661832
-0.0053976625 -0.0388458 0.19590905
-0.0051700175 -0.040705569 0.19519535
-0.004940927 -0.04257711 0.19447711
-0.0047104061 -0.044460438 0.19375432
-0.0044784248 -0.046355784 0.19302693
-0.0042449534 -0.04826317 0.19229487
-0.004009977 -0.05018276 0.19155815
-0.0037735254 -0.052114651 0.19081676
-0.0035355538 -0.054058947 0.19007063
-0.0032960474 -0.056015797 0.18931964
-0.0030549616 -0.057985328 0.18856376
-0.002812326 -0.059967659 0.18780303
-0.0025680959 -0.06196291 0.18703726
-0.0023222715 -0.063971184 0.18626654
-0.0020748675 -0.065992624 0.18549076
-0.0018258095 -0.06802737 0.18470991
0.093692333 -0.22850147 0.029713452
0.093692705 -0.23113185 0.029099941
0.093693048 -0.23377369 0.028483748
0.093693376 -0.23642701 0.027864814
0.093693689 -0.2390919 0.027243257
0.093694016 -0.24176851 0.026619017
0.093694404 -0.24445681 0.025991976
0.093694568 -0.24715672 0.025362372
0.093695015 -0.2498689 0.024729669
0.093695417 -0.25259304 0.024094224
0.093695849 -0.25532919 0.023455918
0.093696132 -0.25807729 0.022815049
0.09369643 -0.26083767 0.022171199
0.093696699 -0.26361027 0.021524608
0.093696997 -0.26639527 0.020875156
0.093696296 -0.26919121 0.020224273
0.093695357 -0.27199918 0.019570887
0.093694404 -0.27481985 0.01891464
0.093694448 -0.27765471 0.018253744
0.093694896 -0.28050315 0.017589331
0.093695432 -0.28336447 0.016921759
0.093696088 -0.28623906 0.016250908
0.093697101 -0.28912729 0.015576363
0.093698114 -0.29202867 0.014898896
0.093697906 -0.29494125 0.014220238
0.093697608 -0.29786712 0.013538599
0.093697339 -0.30080628 0.012853861
0.093697041 -0.30375904 0.012165964
0.093696862 -0.30672547 0.011474729
