ply
format ascii 1.0
comment PCL generated
element vertex 1330
property float x
property float y
property float z
element face 0
element camera 0
property float view_px
property float view_py
property float view_pz
property float x_axisx
property float x_axisy
property float x_axisz
property float y_axisx
property float y_axisy
property float y_axisz
property float z_axisx
property float z_axisy
property float z_axisz
property float focal
property float scalex
property float scaley
property float centerx
property float centery
property int viewportx
property int viewporty
property float k1
property float k2
end_header
-0.13901195 -0.095504448 0.12547418
-0.13562697 -0.09698984 0.11712462
-0.13435622 -0.098240338 0.1141704
-0.13435617 -0.099329174 0.11445373
-0.13435614 -0.10041595 0.1147365
-0.13435616 -0.10150068 0.1150189
-0.1343562 -0.10258335 0.11530077
-0.13435625 -0.103664 0.11558214
-0.13435629 -0.1047426 0.115863
-0.13435631 -0.10581921 0.11614326
-0.13435633 -0.10689377 0.11642307
-0.13435641 -0.10796633 0.11670235
-0.13435647 -0.10903689 0.11698109
-0.13435644 -0.11010544 0.11725926
-0.13435651 -0.111172 0.11753696
-0.13435656 -0.11223657 0.11781412
-0.1343566 -0.11329915 0.11809078
-0.13435662 -0.11435975 0.11836693
-0.13435663 -0.11541837 0.11864254
-0.13435672 -0.11647504 0.1189177
-0.13435675 -0.11752974 0.11919224
-0.13435675 -0.11858248 0.11946636
-0.1343568 -0.11963326 0.11973995
-0.13435686 -0.12068211 0.12001306
-0.13435689 -0.12172902 0.12028563
-0.1343569 -0.12277398 0.1205577
-0.13435695 -0.12381701 0.12082925
-0.13435699 -0.12485813 0.12110031
-0.13435702 -0.12589732 0.12137088
-0.13435702 -0.1269346 0.12164086
-0.13435708 -0.12797 0.12191039
-0.13435709 -0.12900345 0.12217942
-0.13435709 -0.13003503 0.12244797
-0.13435712 -0.13106473 0.12271598
-0.13435712 -0.13209252 0.12298355
-0.13435714 -0.13311844 0.12325057
-0.13435714 -0.13414249 0.1235171
-0.13435717 -0.13516462 0.12378323
-0.13435717 -0.13618495 0.1240488
-0.13435721 -0.13720337 0.12431389
-0.13435721 -0.13821994 0.12457857
-0.1343572 -0.13923468 0.12484264
-0.11810063 -0.26133564 0.1146659
-0.11766507 -0.2627224 0.11390272
-0.11722797 -0.26411399 0.11313689
-0.11678946 -0.26551029 0.11236849
-0.11634938 -0.26691145 0.11159739
-0.11590779 -0.2683174 0.11082366
-0.11546469 -0.26972824 0.11004725
-0.11502007 -0.27114385 0.10926822
-0.11457388 -0.27256447 0.10848641
-0.11412615 -0.27398998 0.1077019
-0.11367685 -0.27542049 0.10691464
-0.11322601 -0.27685592 0.10612473
-0.11277361 -0.27829635 0.10533202
-0.11231959 -0.27974188 0.1045365
-0.11186399 -0.28119242 0.10373822
-0.11140686 -0.28264803 0.10293722
-0.11094806 -0.28410876 0.1021333
-0.11048765 -0.28557467 0.10132658
-0.11002561 -0.28704572 0.10051703
-0.10956198 -0.28852195 0.099704623
-0.10917363 -0.28991297 0.09906441
-0.10913204 -0.29089707 0.099213213
-0.10909052 -0.29188001 0.099361897
-0.10904899 -0.29286191 0.099510252
-0.1090073 -0.29384288 0.099658012
-0.1088154 -0.29500327 0.099464744
-0.10847723 -0.29634055 0.098940015
-0.10813832 -0.29768068 0.098414153
-0.10779868 -0.29902366 0.097887158
-0.10745835 -0.30036953 0.097359091
-0.10711728 -0.30171821 0.096829861
-0.10677551 -0.3030698 0.096299529
-0.10643297 -0.30442426 0.095768064
-0.10608971 -0.30578163 0.095235407
-0.1057457 -0.3071419 0.094701648
-0.10540098 -0.30850506 0.094166756
-0.10505554 -0.30987117 0.093630731
-0.10470933 -0.3112402 0.093093544
-0.10436237 -0.31261218 0.092555135
-0.10401466 -0.31398705 0.092015654
-0.10366622 -0.31536493 0.091474921
-0.10331704 -0.31674576 0.090933144
-0.10296711 -0.31812954 0.090390176
-0.10099387 -0.32161343 0.086204201
-0.098680511 -0.32555681 0.081260115
-0.096313581 -0.32959145 0.076201588
-0.093891203 -0.33372068 0.071024448
-0.14911328 0.081186824 0.10226792
-0.14911303 0.079829887 0.10262412
-0.14911287 0.078475863 0.10297978
-0.14911291 0.077124596 0.10333523
-0.14911295 0.075776339 0.10368988
-0.14911303 0.074431047 0.10404384
-0.14911309 0.073088735 0.10439694
-0.14911313 0.071749374 0.10474932
-0.14911319 0.070412986 0.10510087
-0.14911325 0.069079548 0.10545161
-0.14893264 0.067935735 0.1052826
-0.14833553 0.067218021 0.10391808
-0.14773464 0.066495784 0.10254499
-0.14712997 0.065768965 0.10116327
-0.14652148 0.065037563 0.099772781
-0.1459091 0.064301521 0.098373443
-0.14529282 0.063560769 0.096965164
-0.14467263 0.062815294 0.095547944
-0.14404842 0.062065057 0.094121516
-0.14342023 0.061309963 0.092685968
-0.14278798 0.060549989 0.09124127
-0.14215161 0.059785105 0.089787066
-0.14151116 0.059015263 0.088323474
-0.14086644 0.058240376 0.086850345
-0.1402176 0.057460424 0.08536759
-0.13956444 0.056675386 0.08387506
-0.13890699 0.055885166 0.082372695
-0.13824521 0.055089708 0.080860436
-0.13757902 0.054288987 0.079338163
-0.13690847 0.053482946 0.077805787
-0.13623339 0.052671529 0.07626316
-0.1356805 0.051748291 0.075067818
-0.13527684 0.050694101 0.074295044
-0.13487197 0.049636647 0.073519915
-0.13446584 0.04857593 0.072742373
-0.13405842 0.047511935 0.071962386
-0.13364975 0.046444625 0.071180016
-0.13323979 0.045373999 0.070395201
-0.13282859 0.044300035 0.069607943
-0.13241607 0.04322271 0.068818271
-0.13200226 0.042142026 0.068026036
-0.13158719 0.041057959 0.067231387
-0.13117081 0.039970491 0.066434234
-0.1307531 0.038879622 0.065634578
-0.13033406 0.03778531 0.064832389
-0.12991376 0.036687553 0.064027727
-0.12949209 0.035586335 0.063220471
-0.12906915 0.034481637 0.062410682
-0.12864481 0.033373442 0.061598361
-0.12821916 0.032261737 0.060783476
-0.12779212 0.031146504 0.059965938
-0.12736373 0.030027717 0.059145868
-0.12693401 0.028905373 0.058323115
-0.12650289 0.02777946 0.05749774
-0.1260704 0.026649922 0.056669801
-0.12566152 0.025501072 0.055908412
-0.12542629 0.024240509 0.055628031
-0.12519093 0.022978999 0.055347443
-0.12495531 0.021716494 0.055066586
-0.12471955 0.020453036 0.05478555
-0.12448357 0.019188598 0.054504246
-0.12424748 0.017923176 0.054222822
-0.12401114 0.016656779 0.053941101
-0.12377463 0.015389413 0.053659141
-0.12353796 0.014121056 0.053377062
-0.12330109 0.012851723 0.053094655
-0.12306404 0.011581406 0.052812099
-0.12282681 0.01031011 0.052529335
-0.12258939 0.0090378225 0.052246332
-0.12235177 0.0077645592 0.051963061
-0.12211399 0.0064903051 0.051679671
-0.12187602 0.00521506 0.051395953
-0.12163788 0.0039388239 0.051112115
-0.12139954 0.0026615933 0.05082798
-0.12116101 0.001383394 0.050543636
-0.12092231 0.00010418147 0.050259113
-0.12068342 -0.0011760145 0.049974352
-0.12046935 -0.0024683177 0.049757391
-0.12042502 -0.0038352311 0.050001472
-0.12038076 -0.005200088 0.050245255
-0.12033655 -0.0065628514 0.050488621
-0.12029243 -0.0079235584 0.050731659
-0.12024835 -0.0092821866 0.05097428
-0.12020436 -0.010638766 0.051216573
-0.12016042 -0.011993282 0.051458478
-0.12011656 -0.013345741 0.051700026
-0.12007278 -0.014696166 0.051941246
-0.12002903 -0.016044535 0.052181989
-0.11998539 -0.017390862 0.052422464
-0.11994177 -0.01873517 0.052662581
-0.11989823 -0.020077437 0.052902251
-0.11985479 -0.0214177 0.053141654
-0.11981137 -0.022755928 0.053380638
-0.11976802 -0.024092138 0.053619266
-0.11972472 -0.025426343 0.053857565
-0.11968154 -0.026758544 0.054095447
-0.11963841 -0.028088748 0.054333061
-0.11970989 -0.029449403 0.054876775
-0.11991191 -0.030842207 0.055768579
-0.12011307 -0.032228924 0.05665645
-0.12031332 -0.033609591 0.057540447
-0.12051274 -0.034984268 0.058420628
-0.12071127 -0.036352955 0.059296876
-0.12090892 -0.037715726 0.060169488
-0.12110572 -0.03907261 0.061038226
-0.12130168 -0.040423639 0.061903238
-0.12149684 -0.041768856 0.062764555
-0.12169111 -0.043108292 0.063622147
-0.12188458 -0.044442005 0.064476103
-0.1220772 -0.045769997 0.065326363
-0.12226902 -0.047092326 0.066172987
-0.12245999 -0.04840903 0.067016065
-0.12265018 -0.049720131 0.067855507
-0.12283956 -0.051025685 0.068691403
-0.12311548 -0.052338973 0.069754541
-0.12374596 -0.053696658 0.071751475
-0.12437043 -0.055041458 0.073729545
-0.12498899 -0.056373581 0.075688928
-0.12560181 -0.05769318 0.077629864
-0.12620886 -0.059000432 0.07955271
-0.12681024 -0.060295518 0.081457675
-0.12740609 -0.061578616 0.083344877
-0.12799641 -0.062849864 0.085214734
-0.12858133 -0.064109445 0.087067455
-0.12916088 -0.065357521 0.088903189
-0.12973517 -0.066594243 0.090722293
-0.13030425 -0.067819774 0.092524856
-0.13086824 -0.069034234 0.094311237
-0.13305549 -0.070313811 0.10033718
-0.13976778 -0.095608465 0.12444878
-0.13639472 -0.097098015 0.1160664
-0.13435584 -0.098454401 0.11111957
-0.13435581 -0.099549897 0.11140758
-0.13435587 -0.10064328 0.1116952
-0.1343559 -0.10173458 0.11198226
-0.13435596 -0.10282384 0.11226887
-0.13435599 -0.10391104 0.11255479
-0.13435602 -0.10499617 0.11284027
-0.13435605 -0.10607927 0.11312515
-0.1343561 -0.1071603 0.11340955
-0.13435614 -0.10823932 0.11369339
-0.13435617 -0.1093163 0.11397672
-0.13435625 -0.11039124 0.11425945
-0.13435625 -0.11146417 0.11454168
-0.13435629 -0.1125351 0.1148234
-0.13435632 -0.11360401 0.11510459
-0.13435638 -0.11467089 0.11538526
-0.13435644 -0.11573581 0.11566541
-0.13435645 -0.11679871 0.11594504
-0.1343565 -0.11785965 0.11622411
-0.13435651 -0.11891861 0.11650261
-0.13435654 -0.11997555 0.11678067
-0.13435662 -0.12103057 0.11705819
-0.13435663 -0.1220836 0.11733523
-0.13435669 -0.12313469 0.11761174
-0.13435671 -0.12418382 0.11788771
-0.13435674 -0.125231 0.11816317
-0.13435681 -0.12627622 0.11843807
-0.1343568 -0.12731954 0.11871246
-0.13435681 -0.12836091 0.11898634
-0.13435684 -0.12940034 0.11925974
-0.13435684 -0.13043788 0.11953259
-0.13435686 -0.1314735 0.11980495
-0.13435687 -0.13250721 0.12007684
-0.1343569 -0.13353899 0.12034819
-0.13435692 -0.1345689 0.12061897
-0.13435692 -0.1355969 0.12088943
-0.13435693 -0.136623 0.12115926
-0.13435696 -0.13764724 0.12142867
-0.13435699 -0.13866958 0.12169752
-0.13435699 -0.13969007 0.12196589
-0.13435698 -0.14070868 0.12223378
-0.13435702 -0.14172542 0.12250119
-0.13435702 -0.14274031 0.1227681
-0.13435702 -0.14375335 0.12303451
-0.13435706 -0.14476454 0.12330043
-0.13435705 -0.14577389 0.12356594
-0.11889079 -0.2624945 0.11402804
-0.11845659 -0.26388335 0.11326373
-0.11802083 -0.26527697 0.11249679
-0.11758363 -0.26667535 0.11172724
-0.11714491 -0.26807854 0.110955
-0.11670467 -0.26948658 0.11018014
-0.11626296 -0.27089944 0.1094026
-0.11581965 -0.2723172 0.10862234
-0.11537486 -0.2737399 0.10783944
-0.1149285 -0.27516755 0.10705382
-0.1144806 -0.27660009 0.10626543
-0.11403115 -0.27803767 0.10547429
-0.11358006 -0.27948025 0.10468039
-0.1131275 -0.28092784 0.10388374
-0.1126733 -0.28238055 0.10308427
-0.1122175 -0.28383833 0.10228202
-0.11176011 -0.28530124 0.10147697
-0.11130112 -0.2867693 0.10066903
-0.11084051 -0.28824246 0.099858344
-0.11037828 -0.28972086 0.09904471
-0.11033225 -0.29070836 0.099184602
-0.1102901 -0.29169014 0.099333137
-0.1102479 -0.29267091 0.099481314
-0.11020559 -0.29365069 0.099628955
-0.11007215 -0.2947396 0.099568069
-0.10973582 -0.29607448 0.099044323
-0.1093988 -0.29741219 0.098519385
-0.10906108 -0.29875275 0.097993374
-0.10872261 -0.30009612 0.09746626
-0.10838343 -0.30144238 0.096938014
-0.10804352 -0.30279151 0.096408635
-0.10770293 -0.30414352 0.095878094
-0.10736158 -0.30549842 0.095346481
-0.10701947 -0.30685622 0.094813645
-0.10667665 -0.30821684 0.094279766
-0.10633311 -0.30958045 0.093744695
-0.10598882 -0.31094694 0.093208462
-0.10564384 -0.31231633 0.092671156
-0.10529806 -0.3136887 0.092132598
-0.10495156 -0.31506401 0.091592997
-0.1046043 -0.31644228 0.091052115
-0.10425632 -0.31782353 0.09051016
-0.10272227 -0.32074839 0.087288916
-0.10043754 -0.32466662 0.082376182
-0.098100305 -0.32867497 0.077350557
-0.095708549 -0.33277681 0.072207749
-0.14911303 0.080907688 0.099009752
-0.14911278 0.079542533 0.099371761
-0.14911254 0.078180432 0.099732965
-0.14911243 0.076821178 0.10009387
-0.14911246 0.0754648 0.10045436
-0.14911255 0.074111432 0.10081407
-0.14911261 0.072761074 0.10117298
-0.14911266 0.071413711 0.10153115
-0.1491127 0.070069343 0.10188845
-0.14911276 0.068727955 0.10224497
-0.14898527 0.067521021 0.10223144
-0.14838481 0.066797778 0.10084927
-0.14778054 0.066069961 0.099458396
-0.14717247 0.065337509 0.098058701
-0.14656051 0.064600401 0.096650034
-0.14594463 0.063858576 0.095232427
-0.1453248 0.063111998 0.093805671
-0.14470094 0.062360629 0.092369795
-0.14407313 0.061604399 0.090924621
-0.14344123 0.06084327 0.089470088
-0.14280522 0.060077198 0.088006139
-0.14216504 0.059306134 0.086532682
-0.14152069 0.05853004 0.08504951
-0.14087215 0.057748843 0.083556652
-0.14021935 0.056962512 0.082053959
-0.13956217 0.056170996 0.080541342
-0.13890067 0.055374231 0.079018712
-0.13823478 0.054572161 0.077485949
-0.13756445 0.053764753 0.075942993
-0.13699242 0.052864142 0.074682564
-0.13659093 0.051812001 0.073909461
-0.13618824 0.050756633 0.073133945
-0.13578422 0.049697988 0.072356075
-0.135379 0.048636064 0.071575761
-0.1349725 0.04757084 0.070793033
-0.13456476 0.046502307 0.070007831
-0.13415569 0.045430437 0.069220275
-0.1337454 0.044355229 0.068430245
-0.13333382 0.043276675 0.067637652
-0.13292095 0.042194728 0.066842705
-0.13250682 0.041109405 0.066045135
-0.1320913 0.040020682 0.065245152
-0.1316746 0.038928509 0.064442635
-0.13125646 0.037832908 0.063637584
-0.13083707 0.036733858 0.062830031
-0.13041638 0.035631318 0.062019885
-0.12999427 0.034525324 0.061207175
-0.12957092 0.033415806 0.060391873
-0.12914617 0.032302748 0.059574068
-0.12872009 0.03118619 0.05875361
-0.12829264 0.030066062 0.057930499
-0.12786387 0.02894235 0.057104856
-0.12743366 0.027815063 0.05627647
-0.12700211 0.026684169 0.055445492
-0.12669295 0.0254714 0.054957122
-0.12645796 0.024210002 0.054676145
-0.12622276 0.022947636 0.05439499
-0.12598746 0.021684289 0.054113626
-0.12575191 0.020419978 0.053831995
-0.12551616 0.019154686 0.053550154
-0.12528031 0.017888401 0.053268194
-0.12504423 0.016621161 0.052985877
-0.12480795 0.015352931 0.052703381
-0.12457152 0.014083713 0.052420735
-0.1243349 0.012813523 0.052137822
-0.12409811 0.011542339 0.0518547
-0.1238611 0.010270175 0.051571339
-0.12362394 0.008997038 0.05128774
-0.12338656 0.0077228993 0.051003963
-0.12314904 0.0064477772 0.050720006
-0.12291129 0.0051716678 0.050435692
-0.12267338 0.00389456 0.050151318
-0.12243527 0.0026164725 0.049866617
-0.122197 0.0013373867 0.049581707
-0.12195855 5.7309866e-05 0.049296618
-0.12171987 -0.0012237653 0.04901129
-0.12152909 -0.0025272667 0.048857331
-0.12148395 -0.0038948879 0.049102336
-0.12143882 -0.0052604079 0.049346834
-0.12139381 -0.0066238493 0.049591064
-0.12134884 -0.0079852268 0.049834877
-0.12130395 -0.0093445256 0.050078303
-0.12125914 -0.010701776 0.05032143
-0.12121436 -0.012056962 0.05056414
-0.12116969 -0.013410091 0.050806493
-0.12112506 -0.014761165 0.051048458
-0.1210805 -0.016110212 0.051290095
-0.12103604 -0.01745721 0.051531345
-0.1209916 -0.018802166 0.051772207
-0.12094727 -0.020145103 0.052012771
-0.12090297 -0.021486007 0.052252918
-0.12085876 -0.022824883 0.052492678
-0.12081461 -0.024161749 0.05273217
-0.12077051 -0.02549661 0.052971214
-0.12072651 -0.026829451 0.05320996
-0.12068257 -0.028160289 0.053448319
-0.12069905 -0.029506326 0.05384919
-0.1208991 -0.030900173 0.054743916
-0.12109822 -0.032287918 0.055634797
-0.1212965 -0.033669613 0.056521714
-0.12149395 -0.035045296 0.057404906
-0.12169053 -0.036415003 0.058284134
-0.12188621 -0.037778765 0.059159577
-0.12208109 -0.039136641 0.060031265
-0.12227511 -0.040488638 0.060899168
-0.12246834 -0.041834824 0.061763376
-0.12266067 -0.043175228 0.062623829
-0.12285219 -0.044509873 0.063480586
-0.12304294 -0.045838818 0.064333707
-0.12323281 -0.047162078 0.065183133
-0.12342192 -0.048479706 0.066028982
-0.12361021 -0.049791731 0.066871226
-0.12379766 -0.05109819 0.067709833
-0.12398438 -0.052399121 0.068544984
-0.12447031 -0.053737909 0.070174694
-0.12509272 -0.055085447 0.072164565
-0.12570922 -0.056420237 0.074135602
-0.12631993 -0.05774245 0.076088011
-0.12692492 -0.059052289 0.078022212
-0.12752426 -0.060349893 0.079938293
-0.12811804 -0.06163545 0.081836611
-0.12870632 -0.062909126 0.083717406
-0.12928918 -0.064171083 0.085580915
-0.12986675 -0.065421499 0.087427318
-0.13043901 -0.066660509 0.089256942
-0.13100608 -0.067888267 0.091069907
-0.13156807 -0.069104947 0.09286651
-0.13212493 -0.070310667 0.094646931
-0.13486959 -0.071591079 0.10218307
-0.13765708 -0.072829738 0.10982046
-0.14052556 -0.095712774 0.12342077
-0.13716443 -0.097206488 0.1150054
-0.1343555 -0.098671168 0.10803011
-0.13435557 -0.099773377 0.10832307
-0.13435562 -0.10087347 0.10861546
-0.13435562 -0.10197146 0.10890728
-0.13435569 -0.10306737 0.10919854
-0.13435571 -0.1041612 0.10948926
-0.13435578 -0.10525294 0.10977939
-0.13435583 -0.1063426 0.11006904
-0.13435583 -0.1074302 0.11035812
-0.1343559 -0.10851573 0.11064667
-0.13435593 -0.1095992 0.11093462
-0.13435596 -0.11068062 0.11122206
-0.13435602 -0.11176001 0.11150894
-0.13435601 -0.11283736 0.11179522
-0.13435608 -0.11391266 0.11208105
-0.13435613 -0.11498594 0.11236629
-0.13435617 -0.1160572 0.11265102
-0.13435622 -0.11712645 0.11293525
-0.13435625 -0.11819368 0.1132189
-0.13435629 -0.11925891 0.113502
-0.13435629 -0.12032212 0.11378455
-0.13435636 -0.12138336 0.11406663
-0.13435639 -0.1224426 0.11434814
-0.13435645 -0.12349986 0.11462918
-0.13435647 -0.12455516 0.11490965
-0.13435653 -0.12560847 0.11518961
-0.13435653 -0.12665981 0.11546901
-0.13435657 -0.12770921 0.11574781
-0.13435656 -0.12875666 0.11602616
-0.13435657 -0.12980214 0.11630401
-0.1343566 -0.1308457 0.11658132
-0.13435662 -0.1318873 0.11685804
-0.13435665 -0.13292697 0.11713436
-0.13435665 -0.13396475 0.11741009
-0.13435665 -0.13500057 0.11768532
-0.13435666 -0.13603446 0.1179601
-0.13435668 -0.13706645 0.11823428
-0.13435672 -0.13809654 0.11850801
-0.13435671 -0.13912475 0.11878127
-0.13435674 -0.14015102 0.11905396
-0.13435677 -0.14117545 0.11932617
-0.13435677 -0.14219797 0.11959791
-0.13435677 -0.14321861 0.11986911
-0.1343568 -0.14423737 0.12013981
-0.1343568 -0.14525425 0.12041
-0.13435681 -0.14626929 0.12067977
-0.13435686 -0.14728245 0.12094897
-0.13435686 -0.14829376 0.12121767
-0.13435687 -0.14930326 0.12148595
-0.1343569 -0.15031087 0.12175369
-0.1343569 -0.15131664 0.12202093
-0.1343569 -0.15232059 0.12228775
-0.13435692 -0.15332273 0.122554
-0.11968103 -0.26365355 0.11339009
-0.11924812 -0.26504442 0.11262465
-0.11881375 -0.26644009 0.11185661
-0.11837788 -0.26784047 0.11108595
-0.11794052 -0.26924574 0.11031258
-0.11750165 -0.27065584 0.10953656
-0.11706127 -0.2720708 0.10875785
-0.11661936 -0.27349067 0.1079765
-0.11617589 -0.27491546 0.1071924
-0.11573091 -0.27634513 0.10640559
-0.11528435 -0.27777982 0.10561603
-0.11483631 -0.27921951 0.10482377
-0.11438666 -0.28066421 0.10402873
-0.11393546 -0.28211391 0.10323089
-0.11348262 -0.28356877 0.10243028
-0.11302824 -0.28502867 0.10162687
-0.1125723 -0.28649369 0.10082057
-0.11211468 -0.28796393 0.10001147
-0.11165549 -0.28943932 0.099199593
-0.11152938 -0.29052013 0.099156082
-0.11148657 -0.29150078 0.099304408
-0.11144374 -0.29248038 0.099452466
-0.11140083 -0.29345909 0.099599898
-0.11132485 -0.29447687 0.099671096
-0.11099039 -0.29580927 0.099148244
-0.11065523 -0.29714459 0.098624319
-0.11031941 -0.29848272 0.098099262
-0.1099828 -0.2998237 0.097573072
-0.10964547 -0.30116749 0.097045779
-0.10930748 -0.30251414 0.096517354
-0.10896876 -0.3038637 0.095987827
-0.10862929 -0.30521607 0.095457166
-0.10828914 -0.30657136 0.094925374
-0.10794821 -0.30792952 0.094392419
-0.10760657 -0.30929062 0.093858331
-0.10726421 -0.31065458 0.093323082
-0.10692112 -0.31202149 0.092786729
-0.10657731 -0.3133913 0.092249215
-0.10623275 -0.31476405 0.091710597
-0.1058874 -0.31613979 0.091170758
-0.10554135 -0.31751847 0.090629756
-0.10443738 -0.3198899 0.088365316
-0.10218075 -0.32378343 0.083483368
-0.099872842 -0.32776567 0.078490496
-0.097511262 -0.33184054 0.073381543
-0.14911284 0.080625005 0.095710188
-0.14911257 0.079251535 0.096078217
-0.14911231 0.077881128 0.096445471
-0.14911206 0.076513812 0.096811831
-0.14911203 0.075149328 0.097177953
-0.14911205 0.073787779 0.097543657
-0.14911208 0.072429292 0.097908467
-0.14911218 0.07107383 0.098272473
-0.14911221 0.069721401 0.098635644
-0.14911227 0.068371974 0.09899807
-0.14903855 0.067101434 0.09914434
-0.14843468 0.066372573 0.097744226
-0.14782706 0.065639094 0.096335232
-0.14721547 0.064900912 0.094917238
-0.14659996 0.064158022 0.093490094
-0.14598057 0.063410349 0.092053831
-0.14535713 0.062657848 0.090608299
-0.14472967 0.061900463 0.089153469
-0.14409812 0.061138194 0.087689102
-0.14346246 0.06037093 0.086215228
-0.14282265 0.059598655 0.084731758
-0.14217868 0.058821317 0.083238602
-0.14153038 0.058038887 0.081735462
-0.14087792 0.057251282 0.080222517
-0.14022106 0.056458458 0.078699529
-0.13955988 0.055660367 0.077166498
-0.13889427 0.054856963 0.075623125
-0.1383035 0.053979278 0.074297607
-0.13790417 0.0529292 0.073524147
-0.13750358 0.051875889 0.072748274
-0.13710178 0.050819308 0.071970046
-0.13669872 0.04975947 0.071189374
-0.13629441 0.048696332 0.070406318
-0.13588884 0.047629878 0.069620818
-0.135482 0.046560131 0.068832815
-0.13507392 0.045487031 0.068042427
-0.13466455 0.044410586 0.067249537
-0.13425387 0.043330766 0.066454172
-0.13384193 0.042247571 0.065656304
-0.13342869 0.041160963 0.064855993
-0.13301414 0.040070962 0.064053118
-0.1325983 0.038977515 0.06324774
-0.13218118 0.037880626 0.062439799
-0.13176268 0.036780268 0.061629266
-0.1313429 0.035676442 0.060816228
-0.13092183 0.0345691 0.060000628
-0.13049936 0.033458263 0.059182405
-0.13007557 0.032343894 0.05836156
-0.12965038 0.031225968 0.057538211
-0.1292239 0.030104488 0.056712151
-0.12879606 0.028979428 0.055883408
-0.12836681 0.027850758 0.055052131
-0.12796025 0.026702981 0.054285824
-0.12772569 0.02544171 0.05400455
-0.12749097 0.024179459 0.053723007
-0.12725602 0.02291625 0.053441316
-0.12702094 0.021652047 0.053159356
-0.12678562 0.020386878 0.052877218
-0.12655015 0.019120716 0.052594841
-0.12631452 0.017853595 0.052312255
-0.12607867 0.016585492 0.052029401
-0.12584269 0.015316382 0.051746428
-0.12560646 0.014046326 0.051463157
-0.12537007 0.012775265 0.051179677
-0.12513351 0.011503227 0.050895989
-0.12489678 0.010230199 0.050612092
-0.12465982 0.0089561939 0.050327927
-0.12442271 0.0076811835 0.050043583
-0.12418544 0.0064051896 0.04975903
-0.12394795 0.0051282197 0.04947421
-0.12371024 0.0038502514 0.04918924
-0.12347239 0.0025712773 0.048903972
-0.12323438 0.0012913197 0.048618585
-0.12299615 1.0371208e-05 0.04833284
-0.12275775 -0.0012715757 0.048046947
-0.12258993 -0.0025863051 0.047956407
-0.12254395 -0.0039545819 0.048202157
-0.12249802 -0.0053207949 0.048447579
-0.12245217 -0.0066849142 0.048692524
-0.12240635 -0.0080469549 0.048937172
-0.12236065 -0.0094069466 0.049181461
-0.122315 -0.010764852 0.049425304
-0.12226944 -0.012120716 0.049668878
-0.12222393 -0.013474509 0.049912006
-0.12217844 -0.014826246 0.050154805
-0.12213309 -0.016175956 0.050397247
-0.12208779 -0.017523617 0.050639302
-0.12204257 -0.018869236 0.050880969
-0.12199737 -0.020212814 0.051122308
-0.12195228 -0.021554388 0.05136323
-0.12190725 -0.022893913 0.051603854
-0.12186228 -0.024231426 0.05184409
-0.1218174 -0.025566936 0.052083969
-0.12177257 -0.026900426 0.052323461
-0.12172781 -0.028231911 0.052562594
-0.12168989 -0.029563338 0.052819848
-0.12188792 -0.03095822 0.053717554
-0.12208506 -0.032347016 0.054611474
-0.12228136 -0.033729732 0.055501401
-0.1224768 -0.035106421 0.056387424
-0.12267141 -0.036477149 0.057269663
-0.12286514 -0.037841909 0.058148026
-0.12305807 -0.039200768 0.059022665
-0.12325014 -0.040553749 0.059893429
-0.12344138 -0.041900903 0.060760468
-0.12363182 -0.043242268 0.061623782
-0.12382142 -0.044577867 0.06248343
-0.12401022 -0.045907751 0.063339412
-0.1241982 -0.04723195 0.064191639
-0.12438537 -0.048550509 0.065040261
-0.12457179 -0.049863443 0.065885335
-0.12475735 -0.051170811 0.066726744
-0.12494217 -0.052472636 0.067564666
-0.12519784 -0.053779345 0.068591058
-0.12581815 -0.055129621 0.070592761
-0.12643254 -0.056467094 0.07257551
-0.12704115 -0.057791941 0.074539542
-0.12764406 -0.059104349 0.076485127
-0.12824132 -0.060404494 0.078412473
-0.12883301 -0.06169254 0.080321997
-0.12941924 -0.062968642 0.082213789
-0.13000005 -0.064232998 0.084088087
-0.13057557 -0.065485746 0.085945219
-0.13114581 -0.066727057 0.087785453
-0.13171086 -0.067957059 0.089608848
-0.13227075 -0.069175944 0.091415793
-0.13282563 -0.070383847 0.093206435
-0.13381737 -0.071597978 0.0961532
-0.13666162 -0.072852775 0.10400653
-0.13939863 -0.074060246 0.1115638
-0.14203446 -0.075223081 0.11884162
-0.14128526 -0.09581732 0.12239015
-0.13793615 -0.097315237 0.11394164
-0.13443938 -0.098879203 0.10512066
-0.13435528 -0.099999718 0.10519922
-0.13435532 -0.10110661 0.10549647
-0.1343554 -0.10221136 0.10579315
-0.13435544 -0.10331401 0.10608926
-0.13435546 -0.10441453 0.10638481
-0.13435552 -0.10551295 0.1066798
-0.13435556 -0.10660928 0.10697418
-0.13435559 -0.1077035 0.10726804
-0.13435562 -0.10879564 0.10756135
-0.13435565 -0.10988569 0.1078541
-0.13435572 -0.11097369 0.10814628
-0.13435575 -0.11205958 0.10843784
-0.13435577 -0.11314344 0.10872892
-0.13435584 -0.11422522 0.1090194
-0.13435586 -0.11530495 0.10930941
-0.1343559 -0.11638263 0.10959882
-0.13435593 -0.11745828 0.10988766
-0.13435601 -0.1185319 0.110176
-0.13435601 -0.11960347 0.11046377
-0.13435608 -0.12067303 0.11075097
-0.13435611 -0.12174056 0.11103767
-0.13435616 -0.12280609 0.11132377
-0.13435617 -0.12386961 0.11160943
-0.13435623 -0.12493113 0.11189452
-0.13435625 -0.12599064 0.11217901
-0.13435631 -0.12704819 0.11246297
-0.13435631 -0.12810373 0.11274636
-0.13435629 -0.1291573 0.11302927
-0.13435635 -0.13020892 0.11331162
-0.13435635 -0.13125856 0.1135934
-0.13435636 -0.13230625 0.11387467
-0.13435636 -0.13335195 0.11415544
-0.13435641 -0.13439572 0.1144357
-0.13435639 -0.13543753 0.11471537
-0.13435644 -0.13647743 0.11499462
-0.13435645 -0.13751538 0.1152733
-0.13435647 -0.13855141 0.11555144
-0.13435647 -0.13958549 0.11582911
-0.13435648 -0.14061768 0.11610618
-0.1343565 -0.14164793 0.11638281
-0.13435651 -0.14267629 0.11665896
-0.13435653 -0.14370275 0.11693451
-0.13435654 -0.1447273 0.11720958
-0.13435654 -0.14574997 0.11748412
-0.13435657 -0.14677075 0.11775827
-0.13435659 -0.14778964 0.1180318
-0.1343566 -0.14880668 0.11830485
-0.13435665 -0.14982182 0.11857742
-0.13435663 -0.15083513 0.11884946
-0.13435665 -0.15184654 0.11912104
-0.13435668 -0.15285608 0.1193921
-0.13435668 -0.15386382 0.11966264
-0.13435669 -0.15486971 0.11993271
-0.13435672 -0.15587373 0.12020227
-0.13435672 -0.15687591 0.12047136
-0.13435672 -0.1578763 0.12073991
-0.13435677 -0.15887482 0.12100804
-0.13435677 -0.15987155 0.12127566
-0.13435677 -0.16086645 0.12154275
-0.12047133 -0.26481265 0.11275211
-0.12003976 -0.26620555 0.11198556
-0.11960673 -0.26760322 0.11121637
-0.11917222 -0.26900575 0.11044455
-0.11873619 -0.27041304 0.10967004
-0.11829866 -0.27182519 0.10889289
-0.1178596 -0.27324224 0.10811311
-0.11741908 -0.27466416 0.10733059
-0.11697701 -0.27609104 0.10654539
-0.11653338 -0.27752286 0.10575739
-0.11608821 -0.27895963 0.10496667
-0.11564153 -0.28040144 0.10417321
-0.11519325 -0.28184825 0.10337698
-0.11474346 -0.28330013 0.10257798
-0.11429203 -0.28475708 0.10177615
-0.11383905 -0.28621915 0.10097161
-0.11338449 -0.28768635 0.10016415
-0.11292835 -0.28915867 0.099353909
-0.11272347 -0.29033238 0.099127591
-0.11268002 -0.29131192 0.099275768
-0.11263655 -0.29229033 0.099423647
-0.11259302 -0.29326785 0.09957093
-0.11254947 -0.29424432 0.099718004
-0.11224097 -0.29554492 0.099251896
-0.11190768 -0.29687783 0.098728895
-0.11157371 -0.29821354 0.098204762
-0.11123899 -0.29955208 0.097679555
-0.11090353 -0.30089343 0.097153276
-0.11056741 -0.30223763 0.096625805
-0.11023058 -0.30358472 0.096097231
-0.10989296 -0.30493465 0.095567495
-0.10955469 -0.30628744 0.095036656
-0.10921569 -0.30764312 0.094504684
-0.10887595 -0.30900171 0.09397158
-0.10853551 -0.31036317 0.093437403
-0.10819431 -0.31172758 0.092901945
-0.1078524 -0.31309491 0.092365444
-0.10750975 -0.31446514 0.09182778
-0.10716638 -0.31583828 0.091288984
-0.10682224 -0.3172144 0.090749025
-0.10613918 -0.31903809 0.089433432
-0.10391034 -0.32290715 0.084581912
-0.10163133 -0.32686368 0.079621345
-0.099299595 -0.33091176 0.07454595
-0.14911264 0.080338702 0.092368662
-0.14911234 0.078956828 0.092742741
-0.14911208 0.077578031 0.093116075
-0.14911182 0.076202348 0.093488574
-0.14911157 0.074829787 0.093860149
-0.14911158 0.073460028 0.094231665
-0.14911161 0.072093308 0.094602495
-0.14911166 0.070729628 0.094972581
-0.14911173 0.069369048 0.095341742
-0.14911176 0.068011492 0.095710158
-0.14909242 0.06667687 0.096020669
-0.14848521 0.065942332 0.094602317
-0.14787406 0.065203108 0.093174815
-0.14725898 0.064459115 0.091738194
-0.14663996 0.063710347 0.090292275
-0.14601693 0.062956721 0.088837057
-0.14538984 0.062198196 0.087372363
-0.1447587 0.061434735 0.085898161
-0.14412342 0.060666297 0.084414274
-0.14348397 0.059892826 0.0829207
-0.14284031 0.059114262 0.081417292
-0.14219242 0.058330566 0.07990399
-0.14154024 0.057541691 0.078380644
-0.14088373 0.056747563 0.076847196
-0.14022288 0.055948157 0.075303555
-0.13961378 0.055093706 0.073912829
-0.13921656 0.0540457 0.073139012
-0.13881816 0.052994438 0.07236287
-0.1384185 0.051939934 0.071584255
-0.13801758 0.050882161 0.070803225
-0.13761547 0.049821094 0.070019841
-0.13721208 0.048756756 0.069233954
-0.13680743 0.047689095 0.068445623
-0.13640153 0.046618089 0.067654908
-0.13599436 0.045543768 0.066861659
-0.13558592 0.044466071 0.066065937
-0.1351762 0.043384984 0.065267801
-0.13476516 0.042300541 0.064467043
-0.13435286 0.041212678 0.063663781
-0.1339393 0.040121369 0.062858135
-0.13352437 0.039026648 0.062049806
-0.13310818 0.037928466 0.061238915
-0.13269065 0.036826804 0.06042558
-0.13227184 0.035721652 0.059609622
-0.13185166 0.03461301 0.058791012
-0.13143013 0.033500832 0.057969868
-0.13100727 0.032385118 0.057146132
-0.13058306 0.031265859 0.056319684
-0.13015753 0.030143011 0.055490702
-0.12973063 0.029016584 0.054658979
-0.12930234 0.027886562 0.053824604
-0.12899414 0.026674103 0.053332508
-0.12875983 0.025411975 0.053050697
-0.12852533 0.024148881 0.052768618
-0.12829065 0.022884801 0.05248636
-0.12805578 0.021619752 0.052203864
-0.12782076 0.020353731 0.051921099
-0.12758552 0.019086715 0.051638216
-0.12735012 0.017818734 0.051355064
-0.1271145 0.01654977 0.051071674
-0.12687877 0.015279811 0.050788105
-0.12664282 0.014008876 0.050504267
-0.12640667 0.012736961 0.050220221
-0.12617032 0.011464052 0.049936026
-0.12593383 0.010190174 0.049651504
-0.12569715 0.0089152828 0.049366862
-0.12546027 0.0076394193 0.049081922
-0.12522323 0.0063625611 0.048796773
-0.12498598 0.0050847009 0.048511446
-0.12474856 0.0038058683 0.04822585
-0.12451094 0.0025260299 0.047940016
-0.12427315 0.0012451932 0.047654033
-0.12403518 -3.6634505e-05 0.047367781
-0.123797 -0.0013194531 0.047081262
-0.12365192 -0.0026453808 0.04705447
-0.1236051 -0.0040143505 0.047301084
-0.12355831 -0.0053812414 0.047547251
-0.1235116 -0.0067460313 0.047793031
-0.12346503 -0.0081087649 0.048038542
-0.12341847 -0.0094694272 0.048283577
-0.12337199 -0.010828018 0.048528343
-0.12332559 -0.01218453 0.048772633
-0.12327921 -0.013538994 0.049016565
-0.12323299 -0.014891408 0.049260199
-0.12318677 -0.016241774 0.049503416
-0.12314065 -0.017590098 0.049746305
-0.12309459 -0.018936366 0.049988806
-0.12304863 -0.020280607 0.050230861
-0.12300272 -0.021622829 0.050472677
-0.12295686 -0.02296301 0.050714016
-0.12291107 -0.024301186 0.050955087
-0.12286538 -0.025637336 0.051195771
-0.12281972 -0.026971474 0.051436007
-0.12277415 -0.028303608 0.051676005
-0.12272863 -0.029633738 0.051915556
-0.12287843 -0.031016387 0.052689552
-0.12307356 -0.032406203 0.053586334
-0.12326786 -0.033789963 0.054479301
-0.12346131 -0.035167672 0.055368334
-0.12365395 -0.036539391 0.056253493
-0.12384568 -0.037905149 0.057134777
-0.12403664 -0.039264992 0.058012307
-0.12422676 -0.040618964 0.058886021
-0.12441605 -0.041967086 0.059755951
-0.12460452 -0.043309413 0.060622185
-0.12479222 -0.044645965 0.061484635
-0.12497908 -0.045976803 0.062343389
-0.12516515 -0.047301933 0.063198537
-0.12535045 -0.048621416 0.064049959
-0.12553494 -0.049935274 0.064897805
-0.12571862 -0.051243551 0.065742016
-0.12590152 -0.052546274 0.06658265
-0.12608369 -0.053843498 0.067419767
-0.12654671 -0.055173986 0.069014072
-0.12715903 -0.056514151 0.071008652
-0.12776551 -0.057841651 0.072984308
-0.12836629 -0.059156638 0.074941397
-0.12896143 -0.060459331 0.076880157
-0.12955104 -0.061749868 0.078800857
-0.13013518 -0.063028425 0.080703706
-0.13071392 -0.064295173 0.082589
-0.13128735 -0.065550268 0.084456921
-0.13185552 -0.066793874 0.086307764
-0.13241851 -0.06802614 0.088141739
-0.13297638 -0.069247238 0.089959085
-0.13352925 -0.070457309 0.09176001
-0.13407712 -0.071656495 0.093544811
-0.13563967 -0.072876394 0.098038107
-0.13843188 -0.074099168 0.10580778
-0.14111952 -0.075276136 0.1132865
-0.14370832 -0.076409832 0.12049016
-0.14204685 -0.09592215 0.12135693
-0.13870987 -0.097424269 0.11287519
-0.13522558 -0.098992705 0.10401893
-0.13435504 -0.10022898 0.10203531
-0.13435507 -0.10134272 0.10233754
-0.1343551 -0.10245433 0.10263914
-0.13435516 -0.10356379 0.1029402
-0.1343552 -0.10467111 0.10324067
-0.13435523 -0.1057763 0.10354057
-0.13435529 -0.10687934 0.10383987
-0.13435529 -0.10798029 0.10413858
-0.13435537 -0.10907912 0.10443678
-0.13435541 -0.11017583 0.10473436
-0.13435547 -0.11127044 0.1050314
-0.1343555 -0.11236294 0.10532781
-0.13435553 -0.11345338 0.10562375
-0.13435557 -0.11454172 0.10591906
-0.13435559 -0.115628 0.10621381
-0.13435563 -0.11671218 0.10650796
-0.13435571 -0.11779431 0.1068016
-0.13435572 -0.11887437 0.10709468
-0.13435575 -0.11995238 0.10738721
-0.13435583 -0.12102835 0.10767916
-0.13435584 -0.12210226 0.1079706
-0.13435587 -0.12317414 0.10826141
-0.13435593 -0.124244 0.10855168
-0.13435598 -0.12531182 0.10884148
-0.13435599 -0.12637761 0.10913068
-0.13435604 -0.12744142 0.10941929
-0.13435605 -0.12850319 0.10970733
-0.13435604 -0.12956299 0.10999483
-0.13435605 -0.13062078 0.11028183
-0.1343561 -0.13167657 0.11056826
-0.13435608 -0.13273039 0.11085412
-0.13435614 -0.13378221 0.11113948
-0.13435616 -0.13483208 0.1114243
-0.13435616 -0.13587998 0.11170855
-0.13435617 -0.13692589 0.11199236
-0.13435619 -0.13796988 0.11227554
-0.1343562 -0.13901189 0.11255822
-0.13435625 -0.14005196 0.11284038
-0.13435623 -0.14109008 0.11312199
-0.13435626 -0.14212628 0.11340308
-0.13435626 -0.14316054 0.11368373
-0.13435629 -0.14419287 0.11396375
-0.13435628 -0.14522329 0.11424327
-0.13435632 -0.1462518 0.11452231
-0.13435632 -0.1472784 0.11480081
-0.13435636 -0.14830309 0.11507881
-0.13435632 -0.14932588 0.11535624
-0.13435636 -0.15034677 0.11563322
-0.13435641 -0.15136579 0.11590967
-0.13435639 -0.15238291 0.11618564
-0.13435644 -0.15339816 0.11646104
-0.13435642 -0.15441152 0.11673594
-0.13435645 -0.15542305 0.11701035
-0.13435645 -0.15643269 0.1172843
-0.13435647 -0.15744048 0.11755767
-0.13435648 -0.15844642 0.11783057
-0.13435651 -0.15945052 0.118103
-0.13435653 -0.16045277 0.11837485
-0.13435654 -0.1614532 0.11864626
-0.13435656 -0.16245179 0.1189172
-0.13435657 -0.16344851 0.11918759
-0.13435659 -0.16444346 0.11945745
-0.13435657 -0.16543657 0.11972693
-0.13435671 -0.16642787 0.11999601
-0.13435677 -0.16741732 0.12026459
-0.12126172 -0.26597184 0.11211407
-0.1208315 -0.2673668 0.11134639
-0.12039976 -0.26876652 0.11057609
-0.1199666 -0.27017105 0.10980317
-0.11953191 -0.27158046 0.10902756
-0.11909576 -0.2729947 0.10824922
-0.11865808 -0.27441376 0.10746828
-0.11821887 -0.27583784 0.10668457
-0.11777817 -0.27726674 0.10589823
-0.11733593 -0.27870065 0.10510913
-0.11689216 -0.28013957 0.10431725
-0.11644682 -0.28158346 0.10352263
-0.116 -0.28303239 0.10272524
-0.11555152 -0.28448641 0.10192508
-0.11510153 -0.2859455 0.10112208
-0.11464992 -0.28740972 0.10031632
-0.11419675 -0.28887907 0.09950766
-0.11391452 -0.2901451 0.099099219
-0.11387043 -0.29112351 0.099247158
-0.11382639 -0.29210076 0.099394947
-0.1137822 -0.29307717 0.099542052
-0.11373806 -0.29405248 0.099689007
-0.11348756 -0.29528141 0.099355191
-0.11315612 -0.29661191 0.098833114
-0.11282399 -0.2979452 0.098309964
-0.11249113 -0.2992813 0.097785681
-0.11215757 -0.30062023 0.097260356
-0.11182329 -0.30196205 0.096733809
-0.1114883 -0.30330667 0.096206188
-0.11115262 -0.30465412 0.095677495
-0.1108162 -0.30600449 0.09514761
-0.11047909 -0.30735767 0.094616652
-0.11014122 -0.30871376 0.094084471
-0.10980269 -0.31007275 0.093551248
-0.10946339 -0.31143466 0.093016833
-0.10912339 -0.31279942 0.092481345
-0.10878263 -0.31416711 0.091944665
-0.10844119 -0.31553775 0.091406792
-0.10809898 -0.31691134 0.090867847
-0.10775603 -0.31828782 0.09032768
-0.10562669 -0.32203746 0.085672438
-0.103376 -0.32596874 0.080743283
-0.10107365 -0.32999042 0.075701058
-0.0987176 -0.33410585 0.070541203
-0.14911239 0.08004874 0.088984162
-0.14911211 0.078658327 0.089364499
-0.14911185 0.077271037 0.089744061
-0.14911163 0.075886905 0.09012273
-0.14911133 0.074505925 0.090500534
-0.14911105 0.073128082 0.090877473
-0.14911108 0.071753033 0.091254413
-0.14911115 0.07038106 0.091630608
-0.1491112 0.069012195 0.092005968
-0.14911126 0.067646414 0.092380434
-0.14911133 0.066283725 0.092754096
-0.14853628 0.065506965 0.091422796
-0.14792164 0.064761877 0.089976549
-0.14730301 0.064011991 0.088520974
-0.14668043 0.063257255 0.087055892
-0.14605375 0.062497586 0.085581303
-0.14542297 0.061732963 0.084097117
-0.14478809 0.060963325 0.082603216
-0.14414902 0.060188666 0.081099391
-0.14350575 0.059408858 0.079585731
-0.14285819 0.058623914 0.078062087
-0.14220639 0.057833765 0.076528281
-0.14155017 0.057038337 0.074984282
-0.14092319 0.056207441 0.07352832
-0.14052817 0.055161461 0.072754204
-0.14013186 0.05411227 0.071977615
-0.13973436 0.053059831 0.071198672
-0.13933563 0.052004121 0.070417374
-0.13893567 0.05094514 0.069633603
-0.13853446 0.049882896 0.068847358
-0.13813201 0.048817314 0.068058759
-0.13772832 0.047748432 0.067267627
-0.13732331 0.046676219 0.06647402
-0.13691711 0.045600623 0.06567803
-0.1365096 0.044521689 0.064879417
-0.1361008 0.043439373 0.064078391
-0.13569076 0.042353638 0.063274831
-0.13527939 0.041264493 0.062468737
-0.13486674 0.040171925 0.061660081
-0.1344528 0.039075904 0.060848922
-0.13403751 0.037976418 0.060035169
-0.13362095 0.036873456 0.059218824
-0.13320307 0.035766982 0.058399945
-0.13278382 0.034657013 0.057578385
-0.13236327 0.033543516 0.056754261
-0.13194133 0.032426458 0.055927545
-0.13151811 0.031305838 0.055098146
-0.13109352 0.030181643 0.054266095
-0.13066758 0.029053841 0.053431362
-0.1302633 0.027907178 0.052660137
-0.13002943 0.026645161 0.052377999
-0.12979536 0.025382198 0.052095592
-0.1295611 0.024118252 0.051812947
-0.12932664 0.022853322 0.051530153
-0.12909202 0.021587424 0.05124703
-0.12885723 0.020320542 0.050963759
-0.12862225 0.019052677 0.05068028
-0.12838706 0.017783824 0.050396591
-0.12815177 0.016513988 0.050112695
-0.12791623 0.015243188 0.049828529
-0.12768051 0.013971396 0.049544126
-0.12744464 0.012698606 0.049259543
-0.12720853 0.011424836 0.048974723
-0.12697227 0.010150082 0.048689693
-0.12673584 0.0088743344 0.048404485
-0.12649922 0.0075975992 0.048118979
-0.1262624 0.006319873 0.047833204
-0.12602539 0.0050411448 0.04754734
-0.12578823 0.0037614331 0.047261208
-0.12555085 0.0024807155 0.046974808
-0.1253133 0.001199007 0.046688229
-0.12507556 -8.3699822e-05 0.046401411
-0.12483767 -0.0013674125 0.046114385
-0.12471503 -0.002704531 0.046151608
-0.12466736 -0.0040741786 0.046398968
-0.12461975 -0.0054417476 0.046645969
-0.12457226 -0.0068072304 0.046892643
-0.12452482 -0.0081706345 0.0471389
-0.12447742 -0.0095319673 0.047384858
-0.12443012 -0.010891229 0.04763034
-0.12438287 -0.012248412 0.047875464
-0.12433572 -0.013603561 0.04812026
-0.12428862 -0.014956623 0.048364609
-0.12424162 -0.016307659 0.048608661
-0.12419465 -0.017656639 0.048852354
-0.12414776 -0.01900357 0.049095601
-0.12410097 -0.020348474 0.049338579
-0.12405422 -0.02169136 0.04958111
-0.12400758 -0.023032196 0.049823344
-0.12396097 -0.024371013 0.05006513
-0.12391444 -0.025707811 0.050306559
-0.12386797 -0.027042605 0.050547689
-0.12382156 -0.02837538 0.050788432
-0.12377532 -0.029706158 0.051028788
-0.12387058 -0.031074636 0.051659763
-0.12406372 -0.032465495 0.052559584
-0.12425599 -0.033850275 0.053455472
-0.12444746 -0.035229005 0.054347515
-0.1246381 -0.036601737 0.055235624
-0.12482789 -0.037968509 0.056119889
-0.12501684 -0.039329335 0.057000309
-0.12520503 -0.04068429 0.057876974
-0.12539236 -0.042033382 0.058749765
-0.12557887 -0.043376669 0.05961886
-0.12576461 -0.044714183 0.060484201
-0.12594955 -0.046045959 0.061345816
-0.12613371 -0.047372028 0.062203795
-0.12631704 -0.048692435 0.063058048
-0.12649964 -0.050007224 0.063908666
-0.12668143 -0.051316403 0.064755678
-0.12686247 -0.052620038 0.065599084
-0.12704274 -0.053918153 0.066439003
-0.12727851 -0.05521854 0.06742847
-0.12788863 -0.056561418 0.069434941
-0.12849298 -0.057891559 0.071422368
-0.12909164 -0.059209168 0.07339105
-0.12968466 -0.060514402 0.075341254
-0.13027216 -0.061807435 0.07727325
-0.13085419 -0.063088447 0.079187244
-0.1314308 -0.064357594 0.081083536
-0.13200213 -0.065615058 0.082962334
-0.13256821 -0.066860974 0.084823936
-0.13312915 -0.068095505 0.086668521
-0.13368495 -0.069318831 0.088496327
-0.13423577 -0.070531078 0.090307564
-0.13478157 -0.071732402 0.092102557
-0.13532251 -0.07292296 0.093881428
-0.13743959 -0.074139111 0.099899828
-0.14018089 -0.07533057 0.1075874
-0.14282006 -0.076477662 0.11498877
-0.14536275 -0.077582806 0.12211961
-0.14281039 -0.096027225 0.12032107
-0.13948561 -0.097533576 0.11180595
-0.13601379 -0.099106506 0.10291427
-0.13435477 -0.10046118 0.098830611
-0.13435479 -0.10158189 0.099137843
-0.13435483 -0.10270043 0.099444509
-0.13435487 -0.10381678 0.099750638
-0.13435493 -0.10493097 0.10005608
-0.13435496 -0.10604301 0.10036102
-0.13435504 -0.10715289 0.10066533
-0.13435507 -0.10826062 0.10096911
-0.13435508 -0.10936622 0.10127217
-0.13435513 -0.11046967 0.10157469
-0.13435517 -0.11157101 0.10187668
-0.13435523 -0.11267021 0.10217807
-0.13435526 -0.11376729 0.10247886
-0.13435529 -0.11486228 0.10277912
-0.13435535 -0.11595514 0.10307878
-0.13435537 -0.11704592 0.10337782
-0.13435543 -0.1181346 0.10367635
-0.13435546 -0.11922121 0.10397425
-0.1343555 -0.12030572 0.10427159
-0.13435555 -0.12138817 0.10456842
-0.1343556 -0.12246853 0.10486463
-0.13435563 -0.12354685 0.1051603
-0.13435566 -0.1246231 0.10545537
-0.13435572 -0.12569731 0.10574993
-0.13435572 -0.12676948 0.10604385
-0.13435574 -0.1278396 0.10633722
-0.13435577 -0.12890768 0.10663003
-0.13435578 -0.12997377 0.10692224
-0.13435583 -0.1310378 0.10721394
-0.13435583 -0.13209984 0.10750505
-0.13435583 -0.13315988 0.10779563
-0.13435589 -0.13421789 0.10808566
-0.13435586 -0.1352739 0.10837516
-0.1343559 -0.13632794 0.1086641
-0.1343559 -0.13737997 0.10895249
-0.13435592 -0.13843003 0.10924032
-0.13435596 -0.13947812 0.10952765
-0.13435596 -0.14052424 0.10981444
-0.13435599 -0.14156838 0.11010063
-0.13435601 -0.14261056 0.11038631
-0.13435602 -0.14365081 0.11067149
-0.13435604 -0.14468908 0.1109561
-0.13435605 -0.14572543 0.11124018
-0.13435604 -0.14675984 0.11152375
-0.13435607 -0.14779231 0.11180675
-0.1343561 -0.14882286 0.11208928
-0.13435608 -0.1498515 0.11237124
-0.13435611 -0.15087821 0.11265266
-0.13435614 -0.151903 0.11293364
-0.13435616 -0.15292589 0.11321399
-0.13435616 -0.15394689 0.11349392
-0.13435617 -0.154966 0.11377323
-0.13435617 -0.15598319 0.11405209
-0.13435622 -0.15699854 0.11433041
-0.13435623 -0.15801197 0.1146082
-0.13435625 -0.15902355 0.11488551
-0.13435628 -0.16003323 0.11516234
-0.13435626 -0.16104111 0.11543858
-0.13435629 -0.16204709 0.11571434
-0.13435632 -0.16305123 0.1159896
-0.13435632 -0.16405351 0.11626437
-0.13435642 -0.16505392 0.11653882
-0.13435648 -0.16605248 0.11681268
-0.13435656 -0.16704921 0.11708611
-0.13435665 -0.16804413 0.11735901
-0.13435675 -0.16903719 0.11763141
-0.13435681 -0.17002846 0.11790332
-0.13435687 -0.1710179 0.11817473
-0.13435696 -0.17200556 0.11844563
-0.13435702 -0.17299141 0.11871606
-0.13435711 -0.17397544 0.11898595
-0.13435721 -0.17495766 0.11925542
-0.12205213 -0.26713112 0.11147597
-0.12162322 -0.26852813 0.11070716
-0.12119292 -0.26992992 0.10993579
-0.12076107 -0.2713365 0.1091617
-0.12032773 -0.27274793 0.10838497
-0.11989291 -0.27416426 0.10760549
-0.11945657 -0.27558541 0.10682335
-0.11901876 -0.27701154 0.10603854
-0.11857943 -0.27844256 0.10525101
-0.11813852 -0.27987856 0.10446075
-0.11769615 -0.28131959 0.10366771
-0.11725222 -0.28276557 0.10287198
-0.11680672 -0.28421664 0.1020734
-0.1163597 -0.28567278 0.10127211
-0.11591107 -0.28713402 0.10046789
-0.11546086 -0.28860039 0.099660933
-0.11510253 -0.28995827 0.099070907
-0.1150578 -0.29093558 0.099218696
-0.11501318 -0.29191172 0.099366307
-0.11496834 -0.29288697 0.099513233
-0.11492358 -0.29386115 0.099660039
-0.11473027 -0.29501873 0.099458188
-0.11440063 -0.29634687 0.098937035
-0.11407031 -0.29767776 0.098414838
-0.1137393 -0.29901144 0.09789148
-0.11340755 -0.30034795 0.097367078
-0.11307517 -0.3016873 0.096841544
-0.11274204 -0.30302948 0.096314877
-0.11240822 -0.30437452 0.095787108
-0.11207366 -0.30572242 0.095258206
-0.1117384 -0.30707315 0.094728172
-0.11140248 -0.30842671 0.094197065
-0.11106579 -0.30978325 0.093664736
-0.1107284 -0.31114262 0.093131334
-0.11039028 -0.31250492 0.092596799
-0.11005145 -0.3138701 0.092061102
-0.10971187 -0.31523818 0.091524273
-0.10937162 -0.3166092 0.090986282
-0.10903057 -0.31798318 0.090447158
-0.10732982 -0.32117435 0.08675468
-0.10510701 -0.32508081 0.081856549
-0.10283366 -0.32907632 0.076847017
-0.10050747 -0.33316466 0.071721166
-0.14911188 0.078355953 0.085942715
-0.14911161 0.076960102 0.086328566
-0.14911136 0.075567402 0.086713612
-0.14911112 0.074177913 0.087097704
-0.14911084 0.072791576 0.087480932
-0.1491106 0.071408391 0.087863356
-0.14911067 0.070028022 0.088245809
-0.14911073 0.068650775 0.088627428
-0.14911079 0.067276679 0.089008152
-0.14911079 0.065905713 0.089387983
-0.14858799 0.065066338 0.088205129
-0.14796981 0.064315334 0.086739719
-0.14734763 0.063559458 0.085264772
-0.14672135 0.062798664 0.083780199
-0.14609098 0.062032875 0.082285911
-0.14545652 0.061262064 0.080781817
-0.14481783 0.060486153 0.07926783
-0.14417493 0.059705146 0.077743769
-0.14352779 0.058918919 0.076209664
-0.14287631 0.058127478 0.074665338
-0.14223178 0.057320438 0.073144078
-0.14183885 0.056276523 0.072369546
-0.14144474 0.055229396 0.071592659
-0.14104941 0.05417899 0.070813447
-0.14065284 0.053125374 0.070031732
-0.14025506 0.052068487 0.069247574
-0.13985603 0.051008299 0.068461061
-0.13945575 0.049944825 0.067672044
-0.13905422 0.048878044 0.066880584
-0.13865148 0.047807924 0.06608668
-0.13824739 0.046734467 0.065290272
-0.13784212 0.045657642 0.064491391
-0.13743556 0.044577457 0.063689977
-0.1370277 0.043493859 0.062886029
-0.13661858 0.042406872 0.062079608
-0.13620821 0.041316446 0.061270654
-0.1357965 0.040222596 0.060459048
-0.13538349 0.039125279 0.059644997
-0.13496919 0.038024481 0.058828354
-0.13455358 0.036920216 0.058009058
-0.1341366 0.035812438 0.0571872
-0.13371833 0.034701142 0.056362718
-0.13329874 0.03358629 0.055535614
-0.13287778 0.032467902 0.054705828
-0.13245554 0.031345934 0.053873479
-0.13203187 0.030220374 0.053038418
-0.13160688 0.029091205 0.052200675
-0.13129973 0.027879063 0.051704913
-0.13106608 0.026616208 0.051422179
-0.13083225 0.025352374 0.051139176
-0.13059825 0.024087574 0.050856054
-0.13036405 0.022821791 0.050572634
-0.13012964 0.02155504 0.050289005
-0.12989509 0.020287286 0.050005198
-0.12966037 0.019018576 0.049721152
-0.12942544 0.01774887 0.049436837
-0.12919036 0.016478173 0.049152374
-0.12895504 0.015206508 0.048867643
-0.12871958 0.013933856 0.048582673
