# .PCD v0.7 - Point Cloud Data file format
VERSION 0.7
FIELDS x y z
SIZE 4 4 4
TYPE F F F
COUNT 1 1 1
WIDTH 1353
HEIGHT 1
VIEWPOINT 0 0 0 1 0 0 0
POINTS 1353
DATA ascii
0.093675658 -0.12861018 0.098020554
0.093675435 -0.12941962 0.099948287
0.093675196 -0.13022269 0.10186085
0.09367498 -0.13101952 0.10375845
0.093674771 -0.13181013 0.10564122
0.093674548 -0.13259457 0.1075094
0.093674339 -0.13337298 0.10936317
0.093674161 -0.13414536 0.1112026
0.093673922 -0.13491181 0.11302793
0.093673714 -0.13567244 0.11483932
0.09367349 -0.13642722 0.11663687
0.093673319 -0.13717631 0.11842084
0.09367311 -0.13791971 0.12019131
0.093672886 -0.13865757 0.12194839
0.093672693 -0.13938983 0.1236923
0.093672514 -0.14011663 0.12542316
0.09367232 -0.14083801 0.12714121
0.093672276 -0.14155403 0.12884623
0.093672216 -0.14226474 0.13053873
0.093672179 -0.14297022 0.13221875
0.093672119 -0.1436705 0.1338864
0.093672074 -0.1443657 0.13554189
0.093672 -0.14505585 0.13718531
0.09367197 -0.14574093 0.13881686
0.093671918 -0.1464211 0.14043653
0.093671888 -0.14709634 0.14204454
0.093671814 -0.14776675 0.14364102
0.093671799 -0.1484324 0.14522609
0.093671761 -0.14909324 0.14679983
0.093671717 -0.14974943 0.1483624
0.093671642 -0.15040097 0.149914
0.093671635 -0.15104789 0.15145457
0.09367156 -0.15169029 0.15298432
0.093671501 -0.15232816 0.15450335
0.093671478 -0.1529616 0.15601179
0.093671419 -0.15359066 0.15750974
0.093671396 -0.15421532 0.15899736
0.093671352 -0.15483569 0.1604746
0.093671322 -0.15545174 0.16194174
0.094619244 -0.15588859 0.16232535
0.096011221 -0.15624395 0.16220716
0.09740629 -0.15660009 0.16208881
0.098804481 -0.15695699 0.16197011
0.10020578 -0.15731472 0.16185114
0.1016102 -0.1576732 0.16173193
0.10301775 -0.15803252 0.16161245
0.10442848 -0.15839262 0.16149268
0.10584232 -0.15875357 0.16137266
0.10725935 -0.15911528 0.16125238
0.10867956 -0.15947779 0.16113183
0.11010301 -0.15984114 0.16101095
0.11152968 -0.1602053 0.16088974
0.1129595 -0.16057029 0.16076833
0.11439261 -0.1609361 0.16064659
0.11582892 -0.16130273 0.16052464
0.11726851 -0.16167018 0.16040236
0.11871128 -0.16203846 0.16027984
0.12015737 -0.16240756 0.16015702
0.12160672 -0.16277753 0.16003394
0.12305933 -0.16314831 0.15991056
0.12451527 -0.16351993 0.159787
0.12597452 -0.16389243 0.15966299
0.1274371 -0.16426574 0.15953881
0.12890299 -0.16463991 0.15941429
0.13037223 -0.16501497 0.15928957
0.1318448 -0.16539083 0.15916449
0.13332079 -0.16576758 0.15903914
-0.14911111 -0.027386263 0.021507084
-0.14890601 -0.030883785 0.029753298
-0.14778423 -0.03166084 0.03083232
-0.14666605 -0.032435425 0.031907916
-0.14555141 -0.033207506 0.032980084
-0.14444034 -0.033977114 0.034048766
-0.14333284 -0.034744274 0.03511408
-0.14222884 -0.035509009 0.036176026
-0.14112836 -0.036271334 0.037234634
-0.14015576 -0.037335541 0.039106876
-0.13919507 -0.038405623 0.041001558
-0.13824083 -0.039468534 0.042883486
-0.13729295 -0.040524248 0.044752687
-0.1363515 -0.041572914 0.046609491
-0.13541625 -0.042614624 0.048453897
-0.13448724 -0.043649372 0.050285935
-0.080309607 -0.097141586 0.14069256
-0.07905408 -0.097309001 0.14021567
-0.077784888 -0.09746962 0.1397129
-0.076510459 -0.097630888 0.13920805
-0.075230844 -0.097792827 0.13870111
-0.073945895 -0.097955421 0.13819209
-0.072655693 -0.098118693 0.13768098
-0.071360111 -0.09828265 0.13716772
-0.070059188 -0.098447286 0.13665238
-0.068752818 -0.098612584 0.13613483
-0.067441054 -0.098778613 0.13561523
-0.066123791 -0.098945282 0.13509336
-0.064801015 -0.099112697 0.13456938
-0.063472696 -0.099280782 0.13404316
-0.062138814 -0.099449575 0.13351476
-0.060799304 -0.099619091 0.1329841
-0.059454162 -0.099789292 0.13245127
-0.058103327 -0.099960238 0.13191614
-0.056746781 -0.10013191 0.13137874
-0.055384457 -0.10030431 0.13083908
-0.054016352 -0.10047744 0.13029706
-0.052642405 -0.10065131 0.12975284
-0.051262617 -0.10082591 0.12920621
-0.049876913 -0.10100129 0.12865728
-0.048485234 -0.10117739 0.12810594
-0.047087613 -0.10135427 0.1275523
-0.045683969 -0.10153186 0.12699628
-0.0442742 -0.10171027 0.12643769
-0.042858355 -0.1018894 0.12587675
-0.041436367 -0.10206931 0.12531337
-0.040008206 -0.10225002 0.12474757
-0.038573809 -0.10243148 0.12417927
-0.03713315 -0.1026138 0.1236085
-0.035686236 -0.1027969 0.12303525
-0.034232911 -0.10298075 0.12245947
-0.032773226 -0.10316543 0.12188116
-0.031307116 -0.10335097 0.12130028
-0.029834572 -0.10353725 0.1207169
-0.028355455 -0.10372441 0.12013084
-0.026869826 -0.1039124 0.11954227
-0.025377583 -0.1041012 0.11895102
-0.023878707 -0.10429085 0.11835721
-0.022373112 -0.10448134 0.11776069
-0.020860825 -0.10467269 0.11716157
-0.019341744 -0.10486492 0.11655971
-0.01781581 -0.10505796 0.11595511
-0.01628305 -0.10525192 0.11534789
-0.014743361 -0.10544674 0.11473787
-0.013196683 -0.10564243 0.1141251
-0.011643018 -0.10583902 0.11350951
-0.010082304 -0.10603647 0.11289117
-0.0085144527 -0.10623484 0.11227003
-0.0069394791 -0.10643411 0.11164606
-0.0053572785 -0.1066343 0.11101916
-0.0037678357 -0.1068354 0.11038947
-0.0021710768 -0.10703746 0.10975683
-0.00056700152 -0.10724042 0.10912129
0.001241739 -0.10734698 0.10811144
0.003170403 -0.10740142 0.10689244
0.0051135947 -0.1074562 0.10566422
0.0070714797 -0.10751148 0.10442683
0.0090441899 -0.10756709 0.10318005
0.011031966 -0.1076232 0.1019237
0.013034955 -0.10767968 0.10065773
0.015053293 -0.10773664 0.099382102
0.017087216 -0.10779401 0.098096639
0.019136859 -0.1078518 0.096801162
0.021202449 -0.10791011 0.095495611
0.023284113 -0.1079688 0.094179958
0.025382111 -0.10802799 0.092853934
0.027496545 -0.10808767 0.091517568
0.09367758 -0.10521095 0.03831026
0.093677498 -0.1062212 0.040733635
0.093677454 -0.10722255 0.043135673
0.093677409 -0.10821511 0.04551664
0.093677327 -0.10919906 0.047876924
0.093677253 -0.11017445 0.050216675
0.09367723 -0.11114138 0.05253616
0.093677171 -0.11210002 0.054835707
0.093677118 -0.11305042 0.057115525
0.093677081 -0.1139927 0.059375882
0.093677022 -0.11492699 0.061617047
0.093676992 -0.11585338 0.063839197
0.093677625 -0.11677173 0.066041678
0.093677476 -0.11768264 0.068226814
0.093677342 -0.1185859 0.070393622
0.093677215 -0.11948169 0.072542459
0.093677111 -0.12036999 0.074673414
0.093676992 -0.12125102 0.076786846
0.09367688 -0.12212478 0.078882813
0.093676731 -0.1229914 0.080961734
0.093676627 -0.12385094 0.083023608
0.093676478 -0.12470351 0.085068911
0.093676344 -0.12554918 0.087097585
0.093676217 -0.12638804 0.089109838
0.093676098 -0.12722015 0.091105998
0.093676008 -0.12804566 0.093086153
0.093675785 -0.12886459 0.095050782
0.093675576 -0.12967704 0.096999794
0.093675397 -0.13048306 0.098933399
0.093675114 -0.13128276 0.10085186
0.09367492 -0.13207619 0.10275531
0.093674712 -0.13286342 0.10464376
0.093674518 -0.13364457 0.10651764
0.09367425 -0.13441963 0.10837704
0.093674071 -0.13518873 0.11022204
0.093673877 -0.13595191 0.11205289
0.093673669 -0.13670924 0.11386967
0.09367346 -0.13746081 0.11567262
0.093673252 -0.13820668 0.11746198
0.093673043 -0.13894689 0.11923766
0.093672864 -0.13968155 0.12100002
0.093672656 -0.14041065 0.12274915
0.093672447 -0.14113432 0.12448516
0.093672313 -0.14185256 0.12620819
0.093672261 -0.14256547 0.12791827
0.093672216 -0.14327307 0.12961572
0.093672171 -0.14397551 0.13130069
0.093672097 -0.14467275 0.13297325
0.093672067 -0.1453649 0.13463354
0.093672015 -0.146052 0.13628179
0.093671955 -0.14673413 0.13791806
0.093671925 -0.1474113 0.13954243
0.093671866 -0.14808358 0.14115512
0.093671843 -0.14875107 0.14275622
0.093671799 -0.14941375 0.14434591
0.093671754 -0.15007168 0.14592415
0.093671687 -0.15072495 0.14749128
0.093671642 -0.15137361 0.14904723
0.093671612 -0.1520177 0.15059224
0.093671575 -0.15265721 0.15212637
0.09367153 -0.15329228 0.15364972
0.093671441 -0.15392286 0.15516248
0.093671434 -0.15454912 0.15666467
0.093671374 -0.15517102 0.15815645
0.093671344 -0.15578862 0.15963793
0.093671322 -0.15640192 0.16110915
0.09418872 -0.15691712 0.16198298
0.095579423 -0.1572734 0.16186452
0.096973285 -0.15763044 0.16174573
0.098370209 -0.15798834 0.16162679
0.09977024 -0.15834701 0.16150749
0.10117336 -0.15870647 0.16138801
0.10257965 -0.15906672 0.1612682
0.10398907 -0.15942779 0.16114816
0.10540166 -0.15978965 0.16102779
0.10681741 -0.16015235 0.16090718
0.10823634 -0.16051583 0.16078633
0.10965853 -0.16088015 0.16066509
0.11108384 -0.16124526 0.16054359
0.11251237 -0.16161118 0.16042185
0.11394417 -0.16197795 0.16029981
0.11537917 -0.16234553 0.1601775
0.1168174 -0.16271397 0.16005498
0.1182589 -0.16308324 0.15993211
0.11970367 -0.16345334 0.15980893
0.12115167 -0.16382426 0.15968546
0.12260292 -0.164196 0.15956181
0.12405752 -0.1645686 0.15943787
0.12551545 -0.16494209 0.15931362
0.12697664 -0.16531637 0.15918905
0.12844118 -0.16569155 0.15906426
0.12990905 -0.16606756 0.15893912
0.13138027 -0.16644447 0.15881377
0.13285483 -0.16682215 0.15868807
0.13433281 -0.1672008 0.15856209
-0.1491109 -0.027656311 0.018451303
-0.14911215 -0.031764451 0.028379202
-0.1481552 -0.033012044 0.030717552
-0.14703758 -0.033783633 0.031792223
-0.14592354 -0.034552749 0.032863408
-0.14481306 -0.035319407 0.033931226
-0.14370613 -0.03608365 0.034995615
-0.14260375 -0.036848146 0.03606388
-0.14163104 -0.037923962 0.037976116
-0.14066488 -0.03899255 0.039875478
-0.13970527 -0.04005396 0.041762024
-0.13875206 -0.041108172 0.043635845
-0.13780525 -0.042155378 0.045497149
-0.1368648 -0.043195598 0.047346085
-0.13593055 -0.044228856 0.049182653
-0.13500252 -0.045255274 0.051007062
-0.079915859 -0.097526707 0.13838568
-0.078644745 -0.09768822 0.13787767
-0.077368416 -0.097850405 0.13736758
-0.076086804 -0.098013267 0.13685536
-0.074799918 -0.0981768 0.13634107
-0.073507652 -0.098341018 0.13582462
-0.072210073 -0.098505914 0.13530603
-0.070907071 -0.098671481 0.13478526
-0.069598652 -0.098837741 0.13426238
-0.068284765 -0.099004716 0.13373724
-0.066965394 -0.099172391 0.13320997
-0.065640472 -0.099340744 0.13268045
-0.064309947 -0.099509813 0.13214871
-0.062973879 -0.099679597 0.13161474
-0.061632145 -0.099850111 0.13107851
-0.060284752 -0.10002135 0.13054001
-0.058931623 -0.10019325 0.12999925
-0.057572741 -0.10036594 0.12945616
-0.056208111 -0.10053938 0.12891075
-0.054837637 -0.10071351 0.12836307
-0.053461302 -0.10088838 0.12781298
-0.052079085 -0.10106406 0.12726063
-0.050690923 -0.10124045 0.12670577
-0.049296785 -0.10141762 0.12614864
-0.047896627 -0.1015955 0.12558904
-0.046490408 -0.10177419 0.12502694
-0.045078091 -0.10195365 0.12446246
-0.043659635 -0.10213383 0.12389547
-0.042235028 -0.10231485 0.12332609
-0.040804189 -0.10249662 0.12275416
-0.039367139 -0.10267925 0.12217978
-0.037923768 -0.10286263 0.12160286
-0.036474053 -0.10304682 0.12102339
-0.035018001 -0.10323181 0.12044147
-0.033555496 -0.10341762 0.11985689
-0.032086555 -0.10360428 0.11926973
-0.030611092 -0.10379177 0.11867997
-0.029129084 -0.10398005 0.11808765
-0.02764049 -0.10416916 0.11749265
-0.026145281 -0.10435915 0.11689502
-0.02464338 -0.10454997 0.11629468
-0.023134746 -0.10474166 0.11569169
-0.021619376 -0.10493415 0.11508599
-0.020097164 -0.1051276 0.11447757
-0.0185681 -0.10532185 0.11386639
-0.017032122 -0.10551701 0.11325246
-0.015489199 -0.10571305 0.11263579
-0.013939303 -0.10590997 0.11201626
-0.01238233 -0.10610783 0.11139396
-0.010818249 -0.10630652 0.1107688
-0.0092470599 -0.10650616 0.11014077
-0.0076686437 -0.10670671 0.10950986
-0.0060830158 -0.10690816 0.10887611
-0.0044900561 -0.10711054 0.10823938
-0.0028897661 -0.10731387 0.10759979
-0.0012820699 -0.10751814 0.1069572
0.0003958843 -0.10769234 0.10619223
0.0023264552 -0.10774817 0.10496277
0.0042716144 -0.10780443 0.10372415
0.0062315105 -0.10786114 0.102476
0.0082063517 -0.10791826 0.10121837
0.010196288 -0.10797585 0.099951178
0.012201454 -0.10803386 0.098674238
0.01422207 -0.10809231 0.097387493
0.016258303 -0.1081512 0.096090794
0.018310333 -0.10821056 0.094784021
0.020378347 -0.1082704 0.093467087
0.022462532 -0.10833068 0.0921399
0.024563078 -0.10839146 0.090802222
0.093677692 -0.10638113 0.037099779
0.09367761 -0.1073873 0.039531231
0.093677558 -0.10838459 0.041941196
0.093677498 -0.10937317 0.044330001
0.093677424 -0.11035315 0.046698004
0.093677394 -0.11132455 0.049045384
0.093677342 -0.11228754 0.051372439
0.093677267 -0.11324225 0.053679407
0.093677223 -0.11418877 0.055966645
0.093677163 -0.11512724 0.058234364
0.093677118 -0.11605763 0.060482711
0.093677044 -0.11698022 0.062712103
0.093677662 -0.11789482 0.064921647
0.093677528 -0.11880193 0.067113727
0.093677409 -0.11970145 0.069287449
0.093677297 -0.12059352 0.071443051
0.093677133 -0.12147814 0.073580861
0.093677014 -0.12235549 0.075700969
0.09367691 -0.12322558 0.077803582
0.093676768 -0.12408856 0.079889029
0.093676634 -0.12494453 0.08195743
0.093676545 -0.12579352 0.084008932
0.093676381 -0.1266356 0.086044014
0.093676262 -0.12747093 0.088062525
0.093676135 -0.12829952 0.090064913
0.093675971 -0.12912154 0.092051327
0.093675733 -0.12993699 0.094021976
0.093675509 -0.13074601 0.095977038
0.0936753 -0.13154861 0.097916603
0.093675092 -0.1323449 0.099840879
0.093674868 -0.13313496 0.10175011
0.093674645 -0.13391879 0.10364443
0.093674436 -0.13469656 0.105524
0.093674228 -0.13546833 0.10738894
0.093674034 -0.1362341 0.10923955
0.093673795 -0.13699396 0.11107597
0.093673587 -0.13774806 0.11289826
0.093673393 -0.13849637 0.11470661
0.093673185 -0.139239 0.11650121
0.093672976 -0.13997602 0.11828229
0.093672767 -0.14070745 0.12004989
0.093672596 -0.14143339 0.12180424
0.093672402 -0.14215389 0.12354541
0.093672328 -0.142869 0.12527341
0.093672268 -0.14357878 0.12698856
0.093672194 -0.14428332 0.12869105
0.093672164 -0.14498264 0.13038093
0.093672097 -0.14567681 0.13205844
0.093672052 -0.14636593 0.13372362
0.093672007 -0.14704999 0.1353766
0.093671948 -0.1477291 0.13701764
0.093671925 -0.14840323 0.13864672
0.093671896 -0.14907259 0.14026412
0.093671836 -0.14973707 0.1418699
0.093671806 -0.15039684 0.14346406
0.093671754 -0.15105186 0.14504692
0.093671709 -0.15170218 0.14661852
0.09367165 -0.15234797 0.14817899
0.093671627 -0.15298913 0.14972836
0.093671568 -0.15362583 0.1512669
0.093671523 -0.15425804 0.1527946
0.093671456 -0.15488581 0.15431169
0.093671456 -0.15550926 0.15581807
0.093671404 -0.1561283 0.15731409
0.093671359 -0.15674315 0.15879977
0.093671314 -0.1573537 0.16027519
0.093758658 -0.15794452 0.16164103
0.095148154 -0.15830171 0.16152224
0.096540712 -0.15865974 0.16140321
0.097936392 -0.15901853 0.16128388
0.099335141 -0.15937814 0.16116434
0.10073704 -0.15973856 0.16104448
0.10214205 -0.16009974 0.16092435
0.1035502 -0.16046178 0.16080397
0.10496148 -0.16082461 0.16068336
0.10637593 -0.16118827 0.16056246
0.10779363 -0.16155268 0.16044119
0.10921447 -0.16191797 0.16031969
0.11063852 -0.16228403 0.16019785
0.11206579 -0.16265096 0.16007572
0.11349624 -0.16301866 0.15995342
0.11492991 -0.16338722 0.15983081
0.11636683 -0.16375662 0.1597079
0.11780702 -0.16412683 0.15958473
0.11925039 -0.16449787 0.15946126
0.12069708 -0.16486976 0.15933755
0.12214705 -0.16524252 0.15921348
0.12360031 -0.16561611 0.15908915
0.12505685 -0.16599058 0.15896463
0.12651674 -0.16636582 0.15883973
0.12797992 -0.166742 0.15871459
0.12944643 -0.16711897 0.15858915
0.13091625 -0.16749683 0.15846348
0.13238947 -0.16787556 0.15833747
0.13386607 -0.16825515 0.15821114
-0.14911067 -0.027929042 0.015365064
-0.14911182 -0.032051545 0.025401384
-0.14852534 -0.034360386 0.030603081
-0.14740837 -0.035129026 0.031676799
-0.14629489 -0.035895176 0.03274709
-0.14518498 -0.036658902 0.033813924
-0.14408575 -0.03743865 0.034927368
-0.14310756 -0.038512964 0.036844343
-0.14213598 -0.039580047 0.038748354
-0.14117099 -0.040639907 0.040639549
-0.14021245 -0.041692644 0.04251799
-0.13926034 -0.04273833 0.044383883
-0.13831462 -0.04377706 0.04623729
-0.13737515 -0.044808842 0.048078358
-0.13644189 -0.045833789 0.049907267
-0.13551486 -0.046851955 0.051724017
-0.079509631 -0.097908109 0.13603175
-0.078231342 -0.098071225 0.13551641
-0.076947786 -0.098235019 0.13499889
-0.075658888 -0.09839949 0.13447917
-0.074364655 -0.098564647 0.13395739
-0.073065028 -0.09873049 0.13343334
-0.071759991 -0.098897018 0.13290718
-0.070449486 -0.099064246 0.13237879
-0.069133483 -0.099232174 0.13184819
-0.067811981 -0.099400833 0.13131538
-0.066484891 -0.099570177 0.13078031
-0.065152213 -0.099740237 0.13024294
-0.063813902 -0.099910982 0.12970334
-0.062469952 -0.10008249 0.12916148
-0.061120294 -0.10025472 0.12861732
-0.059764884 -0.10042767 0.12807083
-0.058403693 -0.10060135 0.12752199
-0.05703672 -0.1007758 0.12697086
-0.055663876 -0.10095099 0.12641734
-0.054285161 -0.10112693 0.12586144
-0.052900519 -0.10130361 0.12530315
-0.051509894 -0.10148104 0.12474248
-0.050113238 -0.10165927 0.12417927
-0.048710547 -0.10183822 0.12361366
-0.047301795 -0.10201798 0.12304559
-0.0458869 -0.1021985 0.12247506
-0.044465851 -0.10237978 0.12190202
-0.043038592 -0.10256191 0.12132651
-0.04160513 -0.10274481 0.12074846
-0.04016535 -0.10292849 0.12016788
-0.03871927 -0.10311303 0.1195848
-0.037266795 -0.1032983 0.11899903
-0.035807945 -0.10348444 0.11841083
-0.034342613 -0.10367139 0.11781994
-0.032870825 -0.10385918 0.11722645
-0.0313925 -0.10404781 0.11663038
-0.029907569 -0.10423726 0.11603156
-0.028416039 -0.10442754 0.11543012
-0.026917821 -0.10461871 0.11482593
-0.025412925 -0.10481072 0.11421916
-0.023901206 -0.10500357 0.11360952
-0.022382751 -0.10519731 0.11299726
-0.020857396 -0.10539193 0.11238217
-0.019325202 -0.10558742 0.11176434
-0.017786006 -0.10578383 0.11114365
-0.016239865 -0.1059811 0.11052021
-0.014686677 -0.10617927 0.10989392
-0.013126381 -0.10637832 0.1092647
-0.011558991 -0.10657831 0.10863268
-0.0099843601 -0.1067792 0.10799772
-0.0084025618 -0.10698104 0.10735989
-0.0068134316 -0.10718381 0.10671908
-0.0052170008 -0.10738751 0.10607538
-0.0036131493 -0.1075921 0.10542861
-0.0020019219 -0.1077977 0.10477892
-0.00038312454 -0.1080042 0.10412607
0.0014780376 -0.10809677 0.10302287
0.0034251637 -0.10815451 0.1017735
0.0053871009 -0.10821268 0.10051465
0.0073639988 -0.10827132 0.099246234
0.0093560517 -0.10833038 0.097968072
0.011363421 -0.10838991 0.096680015
0.013386318 -0.10844993 0.095382094
0.015424846 -0.10851038 0.0940741
0.017479287 -0.10857126 0.092755884
0.019549763 -0.10863268 0.091427386
0.093677744 -0.10855597 0.038326144
0.093677655 -0.10954923 0.040744096
0.093677603 -0.11053374 0.043140799
0.093677551 -0.11150971 0.045516491
0.093677483 -0.11247713 0.04787159
0.093677439 -0.11343616 0.050206184
0.093677364 -0.11438695 0.052520752
0.09367732 -0.11532955 0.054815382
0.093677305 -0.11626409 0.057090342
0.093677215 -0.1171907 0.05934599
0.093677156 -0.11810944 0.061582506
0.093677714 -0.11902021 0.063799262
0.09367758 -0.11992358 0.065998346
0.093677461 -0.12081936 0.068179041
0.093677327 -0.12170765 0.070341498
0.093677185 -0.12258858 0.072486043
0.093677096 -0.12346222 0.074612796
0.093676962 -0.12432867 0.076722085
0.093676798 -0.12518801 0.078814089
0.093676671 -0.12604029 0.080888957
0.093676552 -0.12688568 0.082946986
0.093676463 -0.12772423 0.084988266
0.093676314 -0.128556 0.087013125
0.093676105 -0.12938111 0.089021862
0.093675911 -0.13019958 0.091014445
0.093675666 -0.13101156 0.092991173
0.093675457 -0.13181712 0.094952196
0.093675219 -0.13261625 0.096897751
0.093675025 -0.1334091 0.098827958
0.093674816 -0.13419573 0.10074303
0.093674593 -0.13497624 0.10264307
0.093674354 -0.13575062 0.1045284
0.093674146 -0.13651904 0.10639903
0.093673952 -0.13728146 0.10825527
0.093673773 -0.13803805 0.11009708
0.09367352 -0.13878886 0.11192489
0.093673326 -0.13953389 0.11373872
0.093673125 -0.1402733 0.11553875
0.093672946 -0.14100707 0.1173251
0.093672708 -0.1417353 0.11909801
0.093672514 -0.14245804 0.12085751
0.093672365 -0.14317533 0.1226038
0.09367232 -0.14388731 0.12433696
0.093672261 -0.14459394 0.12605718
0.093672208 -0.14529535 0.12776464
0.093672149 -0.14599156 0.12945947
0.093672104 -0.14668268 0.13114187
0.093672045 -0.14736874 0.13281196
0.093672015 -0.14804976 0.13446984
0.093671992 -0.14872585 0.13611561
0.093671948 -0.149397 0.13774943
0.093671888 -0.15006332 0.13937154
0.093671851 -0.15072489 0.14098191
0.093671776 -0.15138164 0.14258078
0.093671747 -0.15203373 0.14416817
0.093671687 -0.15268117 0.14574426
0.09367165 -0.15332405 0.14730915
0.093671605 -0.15396233 0.14886305
0.093671553 -0.15459614 0.15040594
0.093671508 -0.15522549 0.15193805
0.093671478 -0.15585044 0.15345931
0.093671471 -0.15647104 0.15497005
0.093671411 -0.15708733 0.1564703
0.093671344 -0.15769933 0.15796018
0.093671314 -0.15830714 0.15943977
0.093671255 -0.15891074 0.16090915
0.094717331 -0.15932885 0.16118035
0.096108653 -0.15968785 0.16106096
0.097503036 -0.16004758 0.16094139
0.098900542 -0.16040815 0.16082147
0.10030121 -0.16076951 0.16070127
0.10170495 -0.16113167 0.16058087
0.10311181 -0.1614946 0.16046017
0.10452183 -0.16185841 0.16033921
0.105935 -0.16222298 0.16021797
0.10735137 -0.1625884 0.16009644
0.10877095 -0.16295461 0.15997458
0.11019371 -0.16332164 0.15985245
0.11161964 -0.16368954 0.15973008
0.11304878 -0.16405821 0.15960738
0.11448116 -0.1644277 0.15948445
0.11591677 -0.16479808 0.15936124
0.1173556 -0.16516925 0.15923774
0.11879771 -0.16554126 0.15911394
0.12024307 -0.16591413 0.15898988
0.1216917 -0.16628785 0.15886551
0.12314358 -0.16666242 0.15874097
0.12459882 -0.16703783 0.15861604
0.12605731 -0.1674141 0.15849081
0.12751913 -0.16779122 0.15836537
0.12898427 -0.16816919 0.1582396
0.13045278 -0.168548 0.15811351
0.13192464 -0.16892776 0.15798727
0.13339983 -0.16930827 0.15786061
-0.14911158 -0.032341816 0.022395104
-0.14889474 -0.035705917 0.030488938
-0.14777832 -0.036471557 0.031561583
-0.14666548 -0.037234776 0.032630891
-0.14556909 -0.038029712 0.033789873
-0.14458542 -0.039102476 0.035711557
-0.14360842 -0.04016804 0.037620276
-0.14263801 -0.04122638 0.039516062
-0.14167413 -0.042277623 0.041399151
-0.1407167 -0.043321807 0.043269575
-0.13976566 -0.044359032 0.045127571
-0.13882099 -0.04538931 0.046973079
-0.13788256 -0.046412822 0.048806459
-0.13695031 -0.047429513 0.050627649
-0.13602424 -0.048439514 0.052436918
-0.077813812 -0.098458074 0.1331315
-0.076522939 -0.098623477 0.13260636
-0.075226702 -0.09878958 0.13207912
-0.073925026 -0.098956399 0.13154963
-0.072617933 -0.09912388 0.13101801
-0.071305327 -0.099292077 0.13048404
-0.069987237 -0.099460989 0.1299479
-0.068663582 -0.099630624 0.12940949
-0.067334354 -0.099800929 0.12886882
-0.065999486 -0.099972017 0.12832582
-0.064658999 -0.10014379 0.12778056
-0.063312791 -0.10031625 0.12723297
-0.061960857 -0.10048953 0.12668306
-0.060603168 -0.10066346 0.12613079
-0.059239682 -0.10083823 0.12557623
-0.05787034 -0.10101368 0.12501916
-0.056495126 -0.10118993 0.1244598
-0.055113982 -0.10136688 0.123898
-0.053726908 -0.10154464 0.12333375
-0.052333802 -0.1017231 0.12276703
-0.050934672 -0.10190239 0.12219784
-0.049529463 -0.10208243 0.1216262
-0.048118144 -0.10226326 0.12105206
-0.046700686 -0.10244486 0.12047544
-0.045277029 -0.10262728 0.11989626
-0.043847173 -0.10281046 0.11931461
-0.042411003 -0.10299447 0.11873034
-0.040968541 -0.1031793 0.11814356
-0.039519705 -0.10336494 0.1175541
-0.038064502 -0.1035514 0.11696216
-0.036602836 -0.10373866 0.11636749
-0.035134714 -0.10392673 0.11577028
-0.033660039 -0.10411568 0.11517036
-0.032178808 -0.10430547 0.11456779
-0.030690959 -0.10449611 0.1139625
-0.029196464 -0.1046876 0.11335456
-0.02769528 -0.10487994 0.11274388
-0.026187314 -0.10507312 0.11213037
-0.02467257 -0.1052672 0.11151421
-0.023151001 -0.10546216 0.11089519
-0.021622518 -0.10565799 0.11027339
-0.020087119 -0.10585472 0.10964876
-0.018544748 -0.10605234 0.10902131
-0.016995329 -0.10625084 0.10839099
-0.015438879 -0.1064503 0.10775784
-0.013875244 -0.10665061 0.10712168
-0.012304488 -0.10685189 0.10648271
-0.010726503 -0.10705406 0.1058408
-0.0091412179 -0.10725717 0.10519585
-0.0075486316 -0.10746123 0.10454798
-0.0059486688 -0.10766623 0.10389709
-0.0043412861 -0.10787216 0.10324326
-0.0027264077 -0.10807906 0.10258627
-0.0011040193 -0.10828692 0.10192627
0.00062507502 -0.10844724 0.10107267
0.002574153 -0.10850646 0.099812567
0.0045381314 -0.10856616 0.098542869
0.0065171304 -0.10862628 0.097263455
0.0085113281 -0.10868686 0.095974147
0.010520874 -0.1087479 0.094675004
0.012546007 -0.10880946 0.093365729
0.014586858 -0.1088715 0.09204632
0.01664364 -0.108934 0.09071663
0.093677789 -0.11071639 0.039544344
0.093677692 -0.11169689 0.041948915
0.09367767 -0.11266879 0.044332445
0.093677565 -0.11363223 0.046695262
0.093677506 -0.11458731 0.049037516
0.093677483 -0.11553409 0.051359534
0.093677446 -0.11647277 0.053661555
0.093677394 -0.11740346 0.055943966
0.093677312 -0.11832617 0.058206916
0.093677253 -0.11924104 0.060450643
0.093677729 -0.12014803 0.062674552
0.093677633 -0.12104756 0.064880639
0.093677513 -0.12193956 0.067068249
0.093677349 -0.1228241 0.06923762
0.093677253 -0.12370129 0.0713889
0.093677118 -0.12457122 0.073522419
0.093676969 -0.12543398 0.075638413
0.09367682 -0.12628968 0.077737004
0.093676724 -0.12713833 0.079818338
0.093676604 -0.1279801 0.081882775
0.093676515 -0.12881504 0.083930463
0.093676291 -0.12964329 0.085961729
0.093676083 -0.13046481 0.087976635
0.093675815 -0.13127981 0.089975506
0.093675606 -0.13208824 0.091958344
0.093675397 -0.13289028 0.093925416
0.093675189 -0.13368599 0.095876962
0.093674935 -0.13447542 0.09781307
0.093674719 -0.1352586 0.099733919
0.093674526 -0.13603568 0.10163984
0.093674317 -0.1368067 0.10353085
0.093674071 -0.13757175 0.10540721
0.093673892 -0.13833085 0.10726902
0.093673669 -0.13908412 0.10911641
0.093673475 -0.1398316 0.11094975
0.093673252 -0.14057337 0.11276904
0.093673043 -0.14130948 0.11457443
0.093672879 -0.14204004 0.11636609
0.09367267 -0.14276506 0.1181443
0.093672432 -0.14348461 0.11990905
0.093672357 -0.14419873 0.12166047
0.09367229 -0.1449075 0.12339872
0.093672246 -0.145611 0.12512404
0.093672201 -0.14630927 0.12683654
0.093672127 -0.14700238 0.12853637
0.093672097 -0.14769043 0.13022372
0.09367203 -0.14837338 0.1318987
0.09367203 -0.14905137 0.13356134
0.09367197 -0.14972442 0.13521197
0.093671925 -0.15039258 0.13685051
0.093671873 -0.15105589 0.13847733
0.093671843 -0.15171441 0.14009237
0.093671769 -0.15236825 0.14169583
0.093671761 -0.15301739 0.14328781
0.093671687 -0.15366189 0.14486843
0.093671657 -0.15430184 0.14643782
0.093671605 -0.15493722 0.14799619
0.09367156 -0.15556818 0.14954349
0.093671516 -0.15619461 0.15107983
0.093671493 -0.15681674 0.15260556
0.093671419 -0.15743451 0.15412062
0.093671411 -0.15804794 0.15562508
0.093671322 -0.15865718 0.15711915
0.093671307 -0.15926215 0.15860286
0.093671255 -0.15986301 0.16007641
0.094286978 -0.16035491 0.16083881
0.095677063 -0.16071482 0.16071916
0.09707021 -0.16107549 0.16059917
0.098466478 -0.161437 0.16047898
0.099865824 -0.1617993 0.16035852
0.10126827 -0.16216241 0.16023779
0.10267388 -0.16252632 0.16011679
0.10408261 -0.16289106 0.1599955
0.10549454 -0.16325659 0.15987396
0.10690966 -0.16362293 0.15975207
0.10832794 -0.16399011 0.15962991
0.10974935 -0.16435808 0.15950751
0.11117402 -0.16472691 0.15938479
0.11260188 -0.16509658 0.15926173
0.11403296 -0.16546704 0.1591385
0.11546723 -0.16583838 0.15901494
0.11690476 -0.1662105 0.15889114
0.11834554 -0.16658348 0.15876701
0.11978958 -0.16695732 0.15864262
0.12123682 -0.16733202 0.15851802
0.12268741 -0.16770753 0.15839303
0.12414128 -0.16808391 0.15826777
0.12559842 -0.16846117 0.15814227
0.12705891 -0.16883926 0.1580165
0.12852271 -0.1692182 0.15789041
0.12998986 -0.169598 0.15776405
0.13146026 -0.16997872 0.15763745
0.13293414 -0.17036027 0.15751046
-0.14911136 -0.032634929 0.019359201
-0.14911246 -0.036625206 0.029219002
-0.14814752 -0.037811246 0.031446606
-0.14705375 -0.038621277 0.032651395
-0.14606459 -0.039692521 0.034577757
-0.14508218 -0.04075655 0.036491185
-0.14410634 -0.0418134 0.03839165
-0.14313711 -0.042863123 0.040279359
-0.14217435 -0.043905787 0.042154342
-0.14121804 -0.044941507 0.044016838
-0.1402681 -0.045970339 0.045866966
-0.13932444 -0.046992306 0.047704697
-0.13838705 -0.048007566 0.049530387
-0.13745581 -0.049016107 0.051344007
-0.13653074 -0.050017979 0.053145647
-0.077392064 -0.098848768 0.13072252
-0.076093815 -0.099015854 0.13018981
-0.074790113 -0.099183626 0.12965479
-0.073480941 -0.099352054 0.12911755
-0.072166272 -0.099521272 0.1285781
-0.070846073 -0.099691145 0.12803629
-0.06952028 -0.099861786 0.12749225
-0.068188891 -0.10003309 0.12694591
-0.066851839 -0.10020514 0.12639725
-0.065509126 -0.10037795 0.12584621
-0.06416069 -0.10055146 0.12529287
-0.062806517 -0.10072574 0.12473717
-0.061446514 -0.10090075 0.1241791
-0.060080707 -0.10107648 0.1236186
-0.05870901 -0.101253 0.1230557
-0.057331413 -0.1014303 0.12249035
-0.055947855 -0.10160829 0.12192255
-0.054558322 -0.10178709 0.12135226
-0.053162754 -0.10196668 0.12077951
-0.051761124 -0.10214698 0.12020427
-0.050353412 -0.10232814 0.11962652
-0.048939545 -0.10251003 0.11904624
-0.047519509 -0.10269275 0.11846343
-0.046093248 -0.10287625 0.11787811
-0.044660725 -0.1030606 0.11729017
-0.043221902 -0.10324571 0.1166997
-0.041776728 -0.10343166 0.11610654
-0.04032518 -0.10361843 0.11551082
-0.038867172 -0.10380603 0.11491242
-0.037402734 -0.10399444 0.1143114
-0.035931736 -0.10418372 0.11370772
-0.034454215 -0.10437384 0.11310133
-0.032970078 -0.10456478 0.11249223
-0.031479321 -0.10475662 0.11188042
-0.02998185 -0.10494927 0.11126581
-0.028477641 -0.1051428 0.11064845
-0.02696668 -0.10533723 0.11002836
-0.025448836 -0.1055325 0.10940543
-0.023924138 -0.10572869 0.1087797
-0.022392541 -0.10592577 0.10815108
-0.020853953 -0.10612373 0.10751963
-0.019308349 -0.10632261 0.10688531
-0.017755711 -0.10652236 0.10624808
-0.016195908 -0.10672306 0.1056079
-0.014628995 -0.10692467 0.10496485
-0.013054841 -0.10712721 0.10431877
-0.011473445 -0.10733066 0.10366979
-0.0098847328 -0.10753506 0.10301772
-0.0082886592 -0.10774048 0.10236269
-0.0066851652 -0.10794678 0.10170466
-0.0050742058 -0.10815407 0.10104346
-0.0034557362 -0.10836231 0.10037926
-0.0018296974 -0.10857153 0.099711895
-0.00019602921 -0.10878173 0.099041432
0.0017186273 -0.10886032 0.097841084
0.0036846027 -0.10892151 0.096560419
0.005665658 -0.10898314 0.095269948
0.0076619866 -0.10904527 0.093969524
0.0096737221 -0.1091079 0.092659116
0.011701104 -0.109171 0.091338396
0.093677878 -0.11188612 0.038341969
0.093677789 -0.11286254 0.040754527
0.093677737 -0.11383037 0.043145835
0.093677677 -0.11478979 0.045516342
0.093677647 -0.11574086 0.047866255
0.093677551 -0.11668374 0.050195903
0.093677521 -0.11761847 0.052505404
0.093677476 -0.11854522 0.054795146
0.093677424 -0.119464 0.057065338
0.093677379 -0.12037504 0.059316248
0.093677782 -0.12127817 0.061547399
0.09367767 -0.12217391 0.063760608
0.093677551 -0.1230621 0.065955162
0.093677431 -0.12394285 0.068131417
0.093677305 -0.12481629 0.070289552
0.093677126 -0.12568255 0.072429925
0.093677007 -0.1265416 0.074552476
0.093676887 -0.12739357 0.076657683
0.093676783 -0.1282386 0.078745544
0.093676686 -0.1290767 0.080816418
0.093676448 -0.1299081 0.082870662
0.09367618 -0.13073272 0.084908336
0.093675971 -0.1315507 0.08692953
0.093675762 -0.13236213 0.088934511
0.093675524 -0.13316707 0.090923488
0.093675315 -0.13396563 0.09289661
0.093675107 -0.13475782 0.094854087
0.093674883 -0.13554379 0.096796155
0.09367466 -0.13632356 0.098722935
0.093674436 -0.13709721 0.10063463
0.093674228 -0.13786483 0.10253137
0.093674064 -0.13862649 0.10441342
0.09367381 -0.13938227 0.10628086
0.093673617 -0.1401322 0.10813391
0.093673393 -0.14087637 0.10997269
0.093673199 -0.14161484 0.11179745
0.093672976 -0.14234769 0.1136083
0.093672797 -0.14307497 0.11540535
0.093672588 -0.14379673 0.11718878
0.093672402 -0.14451307 0.1189588
0.093672357 -0.14522399 0.12071532
0.093672298 -0.1459296 0.12245876
0.093672238 -0.14662996 0.1241892
0.093672208 -0.1473251 0.12590668
0.093672141 -0.14801511 0.12761158
0.093672097 -0.1487 0.12930387
0.093672067 -0.14937986 0.13098365
0.093672022 -0.1500548 0.13265121
0.093671955 -0.1507248 0.13430667
0.09367194 -0.1513899 0.13595003
0.093671881 -0.1520502 0.13758153
0.093671836 -0.15270574 0.13920122
0.093671784 -0.1533566 0.14080933
0.093671724 -0.15400277 0.14240593
0.093671665 -0.15464434 0.14399108
0.093671627 -0.15528134 0.145565
0.093671583 -0.15591386 0.14712778
0.093671583 -0.15654188 0.14867949
0.093671501 -0.1571655 0.1502203
0.093671486 -0.1577847 0.15175033
0.093671419 -0.15839963 0.15326962
0.093671389 -0.15901025 0.15477842
0.093671352 -0.15961668 0.1562767
0.093671277 -0.16021886 0.15776464
0.093671247 -0.16081694 0.1592423
0.09385711 -0.16137981 0.16049773
0.095245913 -0.16174065 0.16037771
0.096637823 -0.1621023 0.16025743
0.098032825 -0.16246472 0.16013694
0.099430934 -0.16282795 0.16001612
0.10083213 -0.163192 0.15989512
0.10223649 -0.16355686 0.15977374
0.10364394 -0.16392252 0.15965217
0.10505457 -0.16428903 0.15953031
0.10646842 -0.16465631 0.15940809
0.10788537 -0.16502443 0.15928566
0.10930555 -0.16539335 0.15916285
0.11072893 -0.16576317 0.1590398
0.11215546 -0.16613373 0.1589165
0.11358519 -0.16650519 0.15879294
0.11501819 -0.16687745 0.15866905
0.1164544 -0.16725057 0.1585449
0.11789383 -0.16762452 0.1584205
0.11933655 -0.16799934 0.15829581
0.12078252 -0.16837497 0.15817079
0.12223172 -0.16875149 0.15804556
0.12368423 -0.16912882 0.15792003
0.12514006 -0.16950704 0.15779418
0.12659918 -0.16988611 0.15766805
0.12806167 -0.17026603 0.15754157
0.12952742 -0.17064685 0.15741497
0.13099651 -0.17102849 0.15728796
0.132469 -0.17141105 0.15716067
0.13394481 -0.17179443 0.15703312
-0.14911115 -0.032930996 0.016293317
-0.14911228 -0.03693486 0.026261061
-0.14853975 -0.039213393 0.031511843
-0.14754511 -0.040283132 0.033443004
-0.14655721 -0.041345615 0.035361081
-0.14557599 -0.04240093 0.037266195
-0.14460136 -0.043449149 0.039158553
-0.14363326 -0.044490308 0.041038096
-0.14267167 -0.045524538 0.042905182
-0.14171647 -0.046551879 0.04475978
-0.14076756 -0.047572371 0.046602041
-0.13982502 -0.048586123 0.048432142
-0.13888866 -0.049593173 0.050250173
-0.13795845 -0.050593607 0.052056193
-0.13703433 -0.051587511 0.053850442
-0.076966055 -0.099243455 0.12828928
-0.075660311 -0.09941218 0.12774867
-0.074349098 -0.099581622 0.12720588
-0.073032327 -0.099751808 0.1266607
-0.071710043 -0.099922679 0.1261133
-0.070382111 -0.1000943 0.12556356
-0.069048576 -0.10026666 0.12501147
-0.067709319 -0.1004397 0.124457
-0.0663644 -0.10061353 0.12390023
-0.065013722 -0.10078809 0.12334111
-0.063657261 -0.10096339 0.12277952
-0.062294979 -0.10113943 0.12221554
-0.060926829 -0.10131624 0.12164912
-0.059552763 -0.10149378 0.12108019
-0.058172777 -0.10167211 0.12050882
-0.056786809 -0.10185118 0.11993498
-0.055394847 -0.10203106 0.11935866
-0.05399679 -0.10221168 0.11877981
-0.052592684 -0.10239313 0.11819845
-0.051182408 -0.10257534 0.11761451
-0.049766012 -0.10275836 0.11702809
-0.048343383 -0.10294219 0.11643904
-0.046914514 -0.10312682 0.11584744
-0.045479339 -0.10331225 0.11525318
-0.044037845 -0.10349851 0.11465636
-0.042589977 -0.1036856 0.11405692
-0.041135654 -0.10387351 0.1134547
-0.039674927 -0.10406229 0.11284995
-0.038207643 -0.10425188 0.1122424
-0.036733828 -0.10444228 0.11163217
-0.035253432 -0.10463358 0.11101922
-0.033766404 -0.10482574 0.11040354
-0.032272652 -0.10501873 0.10978505
-0.030772243 -0.10521264 0.10916382
-0.029264994 -0.10540734 0.10853973
-0.027750963 -0.10560299 0.10791287
-0.026230065 -0.10579952 0.10728317
-0.024702268 -0.10599695 0.10665059
-0.023167511 -0.10619524 0.10601515
-0.02162572 -0.10639446 0.10537675
-0.020076914 -0.1065946 0.10473546
-0.018520968 -0.10679562 0.10409126
-0.016957914 -0.10699761 0.10344407
-0.015387634 -0.10720051 0.1027939
-0.013810112 -0.10740434 0.10214075
-0.012225274 -0.10760912 0.1014846
-0.010633104 -0.10781486 0.10082534
-0.0090335142 -0.10802151 0.10016301
-0.007426504 -0.10822918 0.099497676
-0.0058119982 -0.10843783 0.09882924
-0.0041898484 -0.10864739 0.098157585
-0.0025601734 -0.10885802 0.09748286
-0.00092275039 -0.10906956 0.096804857
0.00085848238 -0.10921602 0.095858991
0.0028264546 -0.10927876 0.094567299
0.0048095807 -0.10934194 0.093265623
0.0068080104 -0.10940564 0.091953963
0.0088219373 -0.10946983 0.090632081
0.093677908 -0.11403071 0.039557368
0.093677878 -0.11499452 0.041956574
0.093677804 -0.11594987 0.044334859
0.093677729 -0.11689696 0.04669252
0.09367767 -0.11783582 0.049029708
0.093677603 -0.11876657 0.051346719
0.093677573 -0.11968938 0.053643823
0.093677521 -0.12060429 0.055921376
0.093677625 -0.12151138 0.058179319
0.093677834 -0.12241073 0.06041792
0.093677722 -0.12330259 0.062638223
0.093677588 -0.12418696 0.06483978
0.093677439 -0.12506396 0.067023009
0.093677305 -0.12593363 0.069188029
0.093677163 -0.12679611 0.071335047
0.093677089 -0.12765144 0.073464304
0.09367694 -0.12849975 0.075576097
0.093676865 -0.12934108 0.077670515
0.093676597 -0.13017559 0.079748094
0.093676381 -0.13100332 0.081808776
0.093676142 -0.13182437 0.083852708
0.093675919 -0.13263877 0.08588022
0.093675651 -0.13344663 0.087891489
0.093675502 -0.13424805 0.089886487
0.093675233 -0.13504305 0.091865778
0.093675025 -0.13583179 0.093829274
0.093674816 -0.13661423 0.095777273
0.093674608 -0.13739055 0.097709924
0.093674369 -0.13816079 0.099627495
0.093674175 -0.13892503 0.10153002
0.093673967 -0.13968331 0.10341772
0.093673773 -0.1404357 0.10529086
0.093673535 -0.14118227 0.10714948
0.093673341 -0.14192311 0.1089938
0.093673132 -0.14265831 0.11082402
0.093672939 -0.14338784 0.11264029
0.093672723 -0.14411186 0.11444271
0.093672514 -0.14483038 0.11623153
0.093672395 -0.14554346 0.11800671
0.093672335 -0.14625119 0.11976844
0.09367229 -0.14695361 0.12151703
0.093672231 -0.14765076 0.12325257
0.093672194 -0.14834274 0.1249752
0.093672119 -0.14902961 0.12668508
0.093672119 -0.14971142 0.1283823
0.093672059 -0.15038823 0.13006702
0.093672007 -0.15106004 0.13173947
0.093671963 -0.15172696 0.13339972
0.093671918 -0.15238903 0.13504788
0.093671881 -0.15304635 0.13668415
0.093671806 -0.15369888 0.13830858
0.093671761 -0.15434673 0.13992128
0.093671724 -0.15498991 0.14152244
0.093671665 -0.15562853 0.14311221
0.09367162 -0.15626261 0.14469063
0.093671598 -0.15689217 0.14625782
0.093671568 -0.1575173 0.14781398
0.093671523 -0.15813799 0.14935917
0.093671471 -0.15875438 0.15089357
0.093671411 -0.15936644 0.15241721
0.093671389 -0.15997423 0.15393022
0.093671329 -0.16057782 0.15543276
0.093671262 -0.16117722 0.1569249
0.093671232 -0.16177249 0.15840676
0.093671203 -0.16236365 0.15987837
0.094815299 -0.16276538 0.16003662
0.096205942 -0.16312791 0.15991607
0.097599685 -0.16349128 0.15979522
0.098996527 -0.16385548 0.15967417
0.10039649 -0.16422045 0.15955278
0.10179953 -0.16458623 0.15943113
0.10320575 -0.16495286 0.15930921
0.10461513 -0.16532029 0.15918702
0.10602763 -0.16568854 0.15906447
0.10744334 -0.16605759 0.15894172
0.10886223 -0.16642749 0.1588186
0.11028427 -0.1667982 0.15869528
0.11170953 -0.16716979 0.15857169
0.113138 -0.16754217 0.15844777
0.11456966 -0.16791539 0.15832359
0.11600452 -0.16828948 0.15819916
0.11744267 -0.1686644 0.15807438
0.11888406 -0.16904017 0.15794933
0.12032872 -0.16941676 0.15782401
0.12177657 -0.16979423 0.15769845
0.12322776 -0.17017253 0.1575726
0.12468223 -0.17055175 0.15744638
0.12614 -0.17093177 0.15731996
0.12760109 -0.1713127 0.15719327
0.1290655 -0.17169444 0.15706623
0.13053328 -0.1720771 0.15693891
0.13200434 -0.17246059 0.15681136
0.13347881 -0.17284498 0.15668342
-0.14911206 -0.037247524 0.023274183
-0.14902693 -0.040874224 0.032307208
-0.14803359 -0.041935183 0.034229964
-0.14704692 -0.042988949 0.036139756
-0.1460669 -0.044035677 0.038036704
-0.14509347 -0.045075316 0.039920866
-0.14412659 -0.046108026 0.041792482
-0.14316608 -0.047133878 0.04365164
-0.14221199 -0.048152879 0.045498401
-0.14126423 -0.049165159 0.047332942
-0.14032273 -0.050170764 0.049155384
-0.1393874 -0.051169708 0.050965756
-0.13845821 -0.052162148 0.052764356
-0.1375351 -0.053148068 0.054551214
-0.075222448 -0.099812567 0.12528276
-0.073903583 -0.099983715 0.12473196
-0.072579168 -0.10015564 0.1241788
-0.071249105 -0.10032823 0.12362328
-0.069913395 -0.10050162 0.12306541
-0.068571977 -0.10067568 0.12250516
-0.067224838 -0.10085054 0.12194249
-0.065871917 -0.10102613 0.12137744
-0.064513154 -0.10120245 0.12080997
-0.063148551 -0.10137957 0.12023997
-0.061778061 -0.1015574 0.1196675
-0.060401656 -0.10173602 0.11909258
-0.059019275 -0.10191539 0.11851513
-0.057630904 -0.10209557 0.11793524
-0.056236468 -0.10227651 0.11735272
-0.054835986 -0.1024582 0.11676779
-0.053429358 -0.10264074 0.11618018
-0.052016594 -0.10282411 0.1155901
-0.050597604 -0.10300822 0.11499733
-0.049172398 -0.10319316 0.114402
-0.047740888 -0.10337891 0.11380407
-0.046303064 -0.1035655 0.11320347
-0.044858873 -0.1037529 0.11260021
-0.043408293 -0.10394115 0.11199433
-0.041951228 -0.10413019 0.1113857
-0.040487699 -0.10432013 0.11077437
-0.03901764 -0.1045109 0.11016032
-0.037540983 -0.10470253 0.1095435
-0.036057711 -0.10489497 0.10892394
-0.034567729 -0.10508835 0.10830155
-0.033071075 -0.10528255 0.10767639
-0.031567641 -0.10547764 0.10704836
-0.030057425 -0.10567359 0.10641754
-0.028540326 -0.10587049 0.10578385
-0.027016329 -0.10606822 0.1051473
-0.025485387 -0.10626686 0.10450777
-0.023947485 -0.10646648 0.10386541
-0.022402523 -0.10666697 0.10322005
-0.020850454 -0.10686834 0.10257176
-0.019291244 -0.10707066 0.10192046
-0.017724838 -0.10727396 0.10126615
-0.016151235 -0.10747816 0.10060886
-0.0145703 -0.10768329 0.099948436
-0.01298205 -0.10788941 0.099285066
-0.01138638 -0.10809645 0.098618507
-0.0097833173 -0.10830451 0.097948939
-0.00817273 -0.1085135 0.097276151
-0.0065545887 -0.10872348 0.096600294
-0.0049288329 -0.1089344 0.095921159
-0.0032954628 -0.10914638 0.095238894
-0.0016543741 -0.10935935 0.094553441
-5.5069777e-06 -0.1095733 0.093864709
0.001963672 -0.10963796 0.092563391
0.0039488547 -0.10970271 0.091250479
0.09367796 -0.11616118 0.040764868
0.093677886 -0.1171125 0.043150932
0.093677841 -0.1180555 0.045516133
0.093677782 -0.11899038 0.04786095
0.093677759 -0.11991718 0.050185442
0.09367767 -0.120836 0.052490115
0.093677603 -0.12174698 0.054775
0.09367796 -0.12265008 0.057039857
0.093677901 -0.12354564 0.059286058
0.093677759 -0.12443365 0.061513424
0.09367761 -0.12531421 0.063722074
0.093677461 -0.12618738 0.065912217
0.093677357 -0.12705329 0.068084121
0.09367723 -0.12791198 0.070237964
0.093677111 -0.1287636 0.072373956
0.093677036 -0.12960818 0.074492306
0.093676783 -0.13044584 0.076593578
0.093676545 -0.13127668 0.078677624
0.093676321 -0.13210078 0.080744684
0.093676113 -0.13291818 0.082795024
0.093675837 -0.13372903 0.084828854
0.093675613 -0.1345333 0.086846292
0.09367542 -0.13533115 0.088847518
0.093675196 -0.13612263 0.090832889
0.093674958 -0.13690782 0.092802435
0.093674749 -0.1376868 0.094756365
0.093674541 -0.13845967 0.096695006
0.093674317 -0.13922648 0.098618329
0.093674093 -0.13998725 0.10052669
0.093673885 -0.14074212 0.10242018
0.093673661 -0.14149113 0.10429895
0.093673497 -0.14223436 0.10616317
0.093673266 -0.14297186 0.10801306
0.093673058 -0.14370371 0.1098488
0.093672879 -0.14442994 0.11167043
0.093672685 -0.14515069 0.1134783
0.093672432 -0.14586598 0.11527249
0.093672387 -0.14657578 0.11705282
0.093672328 -0.14728028 0.11881986
0.09367229 -0.14797948 0.12057358
0.093672246 -0.14867352 0.12231427
0.093672216 -0.1493623 0.12404191
0.093672156 -0.15004604 0.12575683
0.093672119 -0.15072469 0.12745905
0.093672059 -0.15139836 0.12914875
0.093672015 -0.15206711 0.13082609
0.093671955 -0.15273099 0.13249117
0.093671903 -0.15339001 0.1341441
0.093671873 -0.15404421 0.13578507
0.093671814 -0.15469375 0.13741422
0.093671776 -0.1553386 0.13903165
0.093671717 -0.15597883 0.14063737
0.093671687 -0.15661448 0.1422317
0.09367165 -0.15724558 0.14381465
0.093671605 -0.15787221 0.14538631
0.09367156 -0.15849443 0.146947
0.093671508 -0.15911224 0.14849657
0.093671463 -0.15972574 0.15003532
0.093671411 -0.16033494 0.15156329
0.093671381 -0.16093987 0.15308061
0.093671329 -0.16154061 0.15458739
0.093671285 -0.1621372 0.15608367
0.093671232 -0.1627297 0.15756974
0.093671218 -0.16331805 0.15904552
0.094385125 -0.16378891 0.15969595
0.095774539 -0.16415241 0.15957505
0.09716703 -0.1645167 0.15945393
0.098562606 -0.16488181 0.15933254
0.099961303 -0.16524774 0.15921083
0.10136308 -0.16561449 0.15908891
0.10276801 -0.16598205 0.15896666
0.1041761 -0.16635042 0.15884411
0.10558736 -0.16671962 0.1587213
0.10700182 -0.16708961 0.15859818
0.10841938 -0.16746046 0.1584748
0.10984014 -0.16783215 0.15835115
0.11126412 -0.16820468 0.15822715
0.11269128 -0.16857801 0.15810296
0.11412159 -0.1689522 0.15797848
0.11555517 -0.16932721 0.15785369
0.116992 -0.1697031 0.15772864
0.11843208 -0.17007983 0.15760332
0.11987537 -0.17045741 0.15747765
0.12132194 -0.17083581 0.15735173
0.12277179 -0.17121512 0.15722552
0.12422489 -0.17159525 0.15709913
0.12568133 -0.17197624 0.15697235
0.12714107 -0.17235811 0.15684527
0.12860414 -0.17274088 0.15671787
0.13007049 -0.17312446 0.15659025
0.13154024 -0.17350894 0.1564624
0.13301332 -0.17389432 0.15633416
-0.14911182 -0.037563231 0.02025795
-0.14911276 -0.041437652 0.030050069
-0.14851916 -0.043577533 0.035012305
-0.14753377 -0.044622716 0.036913872
-0.14655501 -0.04566085 0.038802683
-0.14558275 -0.04669207 0.040678859
-0.14461701 -0.047716416 0.042542517
-0.14365767 -0.048733942 0.044393748
-0.1427047 -0.049744714 0.04623279
-0.14175802 -0.050748829 0.048059642
-0.14081758 -0.051746313 0.049874425
-0.13988326 -0.052737296 0.051677346
-0.13895512 -0.053721771 0.053468555
-0.13803299 -0.054699838 0.055247933
-0.074780077 -0.10021706 0.12279165
-0.073453508 -0.10038996 0.12223268
-0.072121322 -0.10056362 0.12167135
-0.070783444 -0.10073798 0.12110761
-0.069439843 -0.10091309 0.12054148
-0.068090461 -0.10108898 0.11997291
-0.066735283 -0.10126561 0.1194019
-0.065374233 -0.10144297 0.11882833
-0.064007342 -0.10162111 0.11825231
-0.06263452 -0.10180003 0.11767378
-0.061255746 -0.10197973 0.11709279
-0.059870955 -0.10216015 0.11650923
-0.058480185 -0.10234142 0.11592317
-0.05708332 -0.10252345 0.11533451
-0.055680331 -0.10270631 0.11474329
-0.054271236 -0.10288994 0.11414951
-0.052855909 -0.10307439 0.11355308
-0.051434383 -0.10325961 0.11295402
-0.050006572 -0.10344571 0.11235234
-0.048572455 -0.1036326 0.11174801
-0.047131959 -0.10382032 0.11114097
-0.045685075 -0.10400888 0.11053127
-0.044231765 -0.10419827 0.1099188
-0.042771988 -0.10438851 0.10930365
-0.041305628 -0.10457962 0.10868573
-0.039832752 -0.10477157 0.10806507
-0.038353235 -0.10496436 0.10744154
-0.036867052 -0.10515805 0.10681531
-0.035374213 -0.1053526 0.10618624
-0.033874564 -0.10554803 0.10555425
-0.032368153 -0.10574435 0.10491946
-0.030854881 -0.10594156 0.10428175
-0.029334743 -0.10613966 0.10364112
-0.027807645 -0.10633867 0.10299763
-0.026273603 -0.1065386 0.10235119
-0.024732484 -0.10673943 0.10170171
-0.023184301 -0.10694118 0.1010493
-0.021628996 -0.1071439 0.10039392
-0.020066528 -0.10734753 0.099735469
-0.018496813 -0.10755207 0.099074036
-0.016919812 -0.10775757 0.098409444
-0.01533551 -0.10796408 0.097741842
-0.013743788 -0.10817148 0.097071052
-0.012144689 -0.10837989 0.096397221
-0.010538067 -0.10858928 0.095720142
-0.0089239189 -0.10879962 0.095039934
-0.0073021562 -0.10901096 0.094356507
-0.0056727799 -0.10922333 0.093669921
-0.0040356694 -0.10943664 0.092980027
-0.0023908403 -0.10965105 0.092286915
-0.00073820353 -0.10986638 0.091590405
0.0010962256 -0.10999907 0.090548575
0.093678065 -0.11733038 0.039570421
0.093677983 -0.11827764 0.041964322
0.093677938 -0.11921658 0.044337332
0.093677893 -0.12014745 0.046689779
0.093677834 -0.12107023 0.04902181
0.093677782 -0.12198509 0.051333904
0.093677714 -0.1228921 0.053626209
0.093678057 -0.12379126 0.055898279
0.093677983 -0.12468293 0.058151782
0.093677834 -0.12556709 0.0603863
0.093677647 -0.12644379 0.062602073
0.093677513 -0.12731314 0.06479913
0.093677394 -0.12817523 0.066977948
0.093677305 -0.12903012 0.069138557
0.093677178 -0.129878 0.071281284
0.093676925 -0.1307189 0.073406577
