# .PCD v0.7 - Point Cloud Data file format
VERSION 0.7
FIELDS x y z
SIZE 4 4 4
TYPE F F F
COUNT 1 1 1
WIDTH 1373
HEIGHT 1
VIEWPOINT 0 0 0 1 0 0 0
POINTS 1373
DATA ascii
0.13075526 -0.1628956 0.16007861
0.13126871 -0.16396965 0.1597217
0.13178244 -0.16504426 0.15936467
0.13229641 -0.1661194 0.15900734
0.13281067 -0.16719508 0.15864989
0.13332519 -0.16827127 0.15829223
0.13383995 -0.16934805 0.15793443
0.13435498 -0.17042534 0.15757638
0.095579207 0.068265453 0.15963328
0.092246622 0.063542545 0.16368169
0.088995904 0.058935687 0.1676307
0.085824117 0.054440677 0.17148381
0.082728475 0.050053574 0.17524439
0.079706423 0.045770615 0.17891565
0.076755233 0.041588083 0.18250081
0.073872387 0.037502393 0.18600294
0.071055569 0.033510253 0.18942478
0.069275931 0.030447423 0.19166672
0.069271185 0.028928712 0.19189608
0.069266468 0.027414873 0.19212466
0.069261722 0.025905848 0.19235256
0.069257013 0.02440165 0.19257972
0.06925232 0.02290222 0.19280618
0.069247618 0.021407545 0.19303194
0.069242969 0.019917622 0.19325694
0.069238327 0.018432423 0.19348124
0.069233656 0.016951874 0.19370493
0.069229037 0.015476033 0.19392776
0.069224447 0.014004856 0.19414994
0.069219857 0.012538284 0.19437149
0.069215253 0.011076316 0.19459227
0.069210693 0.0096189529 0.19481233
0.069206096 0.0081661046 0.19503182
0.069201596 0.0067178607 0.19525051
0.069197044 0.0052741021 0.1954686
0.069192499 0.0038348138 0.19568598
0.069187984 0.0024000257 0.19590271
0.069183506 0.00096972287 0.19611877
0.069179028 -0.00045616925 0.19633406
0.069174536 -0.0018776506 0.19654882
0.069170095 -0.0032947212 0.19676283
0.069165654 -0.0047074109 0.19697621
0.069161236 -0.0061157495 0.19718894
0.069156788 -0.0075197518 0.19740102
0.069152415 -0.0089194328 0.1976124
0.069148012 -0.010314852 0.19782314
0.069143668 -0.01170595 0.19803324
0.069139287 -0.013092831 0.19824275
0.069134936 -0.01447548 0.19845158
0.069130614 -0.015853852 0.19865978
0.069126286 -0.017228082 0.19886735
0.069121987 -0.018598109 0.19907427
0.069477536 -0.019718349 0.19888246
0.070042722 -0.020695806 0.19845894
0.07060843 -0.02167432 0.19803494
0.071174778 -0.022653788 0.19761047
0.07174167 -0.023634255 0.19718561
0.072309136 -0.02461575 0.1967603
0.072877184 -0.025598228 0.19633457
0.073445842 -0.026581675 0.19590837
0.074015029 -0.02756618 0.19548178
0.074584804 -0.028551668 0.19505477
0.075155184 -0.029538155 0.19462731
0.075726159 -0.030525655 0.19419935
0.076297686 -0.031514153 0.19377097
0.076869801 -0.032503679 0.19334221
0.077442519 -0.033494219 0.192913
0.078015834 -0.034485728 0.19248325
0.078589708 -0.035478279 0.19205317
0.07916414 -0.036471874 0.19162273
0.079739206 -0.037466466 0.1911917
0.080314882 -0.038462088 0.19076023
0.080891095 -0.039458707 0.19032839
0.081467927 -0.04045637 0.18989608
0.082045361 -0.041455075 0.18946329
0.082623385 -0.042454764 0.18903011
0.083201975 -0.043455496 0.18859646
0.083781205 -0.044457242 0.18816233
0.084361017 -0.04546006 0.18772781
0.084941432 -0.046463877 0.18729278
0.085522428 -0.047468752 0.18685737
0.08610402 -0.048474625 0.18642142
0.086686254 -0.049481541 0.18598506
0.087269045 -0.050489545 0.18554837
0.087852478 -0.051498547 0.18511105
0.08843644 -0.052508608 0.1846734
0.089021072 -0.053519711 0.18423519
0.089606285 -0.054531842 0.18379658
0.090192124 -0.055545032 0.18335754
0.090778537 -0.056559294 0.18291801
0.091365568 -0.057574555 0.1824781
0.091953255 -0.058590889 0.18203762
0.092541471 -0.059608296 0.18159673
0.093130365 -0.06062673 0.18115538
0.093672499 -0.061669484 0.18076459
0.09367241 -0.062977135 0.18095806
0.093672387 -0.064281061 0.18115091
0.09367229 -0.065581337 0.18134332
0.093672246 -0.066877946 0.18153509
0.093672201 -0.06817092 0.18172631
0.093749464 -0.069424272 0.18183401
0.094085224 -0.070555419 0.18166375
0.094420716 -0.07168591 0.18149373
0.094756037 -0.072815716 0.18132368
0.095091157 -0.073944822 0.1811538
0.095426045 -0.075073287 0.18098399
0.095760763 -0.076201051 0.18081427
0.096095279 -0.077328131 0.18064475
0.096429624 -0.078454509 0.18047521
0.09676373 -0.079580247 0.18030584
0.097097635 -0.0807053 0.18013656
0.097431339 -0.081829682 0.17996737
0.097764835 -0.082953379 0.17979831
0.098098144 -0.084076419 0.17962933
0.098431282 -0.085198745 0.17946041
0.098764174 -0.08632043 0.17929164
0.099096894 -0.087441429 0.17912295
0.099429399 -0.088561773 0.17895439
0.099761724 -0.089681432 0.17878586
0.10009381 -0.090800419 0.17861754
0.10042576 -0.091918722 0.17844927
0.10075746 -0.093036383 0.17828101
0.10108899 -0.09415336 0.17811301
0.10142028 -0.09526968 0.17794505
0.10175141 -0.096385315 0.17777714
0.10208231 -0.097500294 0.17760941
0.10241303 -0.098614588 0.17744175
0.10274358 -0.099728227 0.17727411
0.10307389 -0.10084122 0.17710668
0.10340402 -0.10195352 0.17693931
0.10373399 -0.10306516 0.17677203
0.10406371 -0.10417613 0.17660484
0.10439329 -0.10528646 0.17643771
0.10472264 -0.10639608 0.17627078
0.10505177 -0.1075051 0.17610389
0.10538077 -0.1086134 0.17593715
0.10570952 -0.10972109 0.17577046
0.10603809 -0.1108281 0.17560384
0.10636644 -0.11193444 0.1754373
0.10669465 -0.11304013 0.17527094
0.1070226 -0.11414516 0.17510468
0.10735041 -0.11524951 0.1749385
0.10767798 -0.11635324 0.17477241
0.1080054 -0.11745629 0.17460638
0.10833259 -0.1185587 0.17444053
0.10865961 -0.11966045 0.17427474
0.10901192 -0.1207543 0.17408234
0.10951418 -0.12180576 0.17373294
0.11001672 -0.12285772 0.17338338
0.11051947 -0.1239102 0.17303354
0.11102253 -0.12496322 0.17268363
0.1115258 -0.12601677 0.17233351
0.11202931 -0.12707087 0.17198324
0.11253309 -0.12812547 0.17163277
0.11303712 -0.12918061 0.17128211
0.11354143 -0.13023627 0.17093128
0.11404595 -0.13129243 0.17058036
0.11455072 -0.13234918 0.1702292
0.11505578 -0.13340642 0.16987783
0.11556107 -0.13446422 0.16952625
0.11606666 -0.1355225 0.16917461
0.11657246 -0.13658136 0.16882271
0.1170785 -0.13764071 0.16847071
0.11758481 -0.13870063 0.16811845
0.11809137 -0.13976109 0.16776606
0.11859822 -0.14082202 0.16741344
0.1191053 -0.14188354 0.16706064
0.11961257 -0.14294559 0.16670787
0.12012018 -0.14400814 0.16635466
0.12062802 -0.14507127 0.16600141
0.1211361 -0.1461349 0.16564798
0.12164444 -0.14719909 0.16529435
0.12215307 -0.14826378 0.16494054
0.12266191 -0.14932905 0.16458651
0.12317103 -0.15039484 0.16423231
0.12368036 -0.15146117 0.16387805
0.12419 -0.15252802 0.16352347
0.12469986 -0.1535954 0.16316879
0.12521005 -0.15466337 0.1628139
0.12572044 -0.15573181 0.16245884
0.12623107 -0.15680085 0.16210359
0.12674201 -0.1578704 0.16174823
0.12725312 -0.15894049 0.16139263
0.12776454 -0.16001114 0.16103685
0.12827623 -0.16108228 0.1606808
0.12878817 -0.16215399 0.16032472
0.12930039 -0.16322628 0.15996847
0.12981284 -0.16429909 0.15961191
0.13032557 -0.1653724 0.15925527
0.13083856 -0.16644627 0.15889829
0.13135175 -0.16752073 0.15854138
0.13186526 -0.16859566 0.15818414
0.13237903 -0.16967119 0.15782675
0.13289306 -0.17074724 0.15746912
0.13340734 -0.17182383 0.15711141
0.13392186 -0.17290099 0.15675342
0.091440178 0.065261215 0.162379
0.088190243 0.060620196 0.1663551
0.085019514 0.056092255 0.17023438
0.081924975 0.051673159 0.17402044
0.078904189 0.047359258 0.17771631
0.075954534 0.043146878 0.18132508
0.073073342 0.039032295 0.18485013
0.070258275 0.035012096 0.18829423
0.067507088 0.031083137 0.1916602
0.067474939 0.029538631 0.19192389
0.067473099 0.028025314 0.1921522
0.067471206 0.02651681 0.19237989
0.067469344 0.025013104 0.19260681
0.067467496 0.023514196 0.19283295
0.067465641 0.022020012 0.19305849
0.067463815 0.020530596 0.1932832
0.067461975 0.01904586 0.19350725
0.067460135 0.017565832 0.19373062
0.067458332 0.016090468 0.19395325
0.067456529 0.014619753 0.19417512
0.067454688 0.013153642 0.19439638
0.067452878 0.011692137 0.19461691
0.06745109 0.01023522 0.19483671
0.067449249 0.0087828338 0.19505599
0.067447476 0.0073350072 0.19527444
0.067445673 0.0058916658 0.1954923
0.067443855 0.0044528246 0.19570944
0.06744206 0.0030184835 0.19592586
0.067440271 0.001588583 0.19614172
0.067438543 0.00016310811 0.1963568
0.067436755 -0.0012579411 0.19657123
0.067434974 -0.0026746243 0.19678509
0.067433223 -0.0040869266 0.19699821
0.067431472 -0.0054948926 0.19721067
0.067429736 -0.0068984926 0.19742253
0.067427963 -0.0082978159 0.19763362
0.067426242 -0.0096928179 0.19784418
0.067424506 -0.011083573 0.19805405
0.067422763 -0.012470081 0.19826332
0.067421064 -0.013852343 0.19847187
0.067419343 -0.015230402 0.19867989
0.067417644 -0.016604245 0.19888717
0.067415923 -0.017973945 0.19909391
0.067507654 -0.019275099 0.19919598
0.068070769 -0.020250514 0.19877341
0.06863445 -0.021226913 0.19835028
0.06919869 -0.022204325 0.19792682
0.069763511 -0.02318272 0.19750294
0.070328891 -0.024162129 0.19707862
0.07089489 -0.025142476 0.19665384
0.071461424 -0.026123896 0.19622865
0.072028533 -0.02710627 0.19580299
0.07259623 -0.028089672 0.19537693
0.073164538 -0.029074013 0.1949504
0.073733367 -0.030059412 0.19452348
0.074302807 -0.031045809 0.19409612
0.074872807 -0.03203322 0.19366834
0.075443447 -0.033021599 0.19324005
0.076014623 -0.034011006 0.19281137
0.076586381 -0.035001457 0.19238222
0.077158734 -0.035992891 0.19195268
0.077731684 -0.036985353 0.19152269
0.0783052 -0.037978813 0.19109225
0.078879304 -0.038973302 0.19066134
0.079453968 -0.039968833 0.1902301
0.080029301 -0.040965334 0.18979833
0.080605164 -0.041962892 0.18936616
0.081181638 -0.042961463 0.18893349
0.08175873 -0.043961048 0.1885004
0.082336396 -0.044961661 0.18806678
0.082914628 -0.045963317 0.18763286
0.083493493 -0.046965986 0.1871984
0.084072918 -0.047969714 0.18676347
0.084652983 -0.048974425 0.18632811
0.085233621 -0.049980208 0.18589237
0.085814856 -0.05098705 0.1854561
0.086396679 -0.051994905 0.18501946
0.086979143 -0.053003773 0.18458229
0.087562174 -0.054013699 0.18414477
0.088145815 -0.055024698 0.1837067
0.088730067 -0.056036711 0.18326819
0.0893149 -0.057049781 0.18282926
0.089900367 -0.058063895 0.18238986
0.090486415 -0.059079051 0.18195
0.091073088 -0.060095266 0.18150973
0.091660343 -0.061112538 0.18106902
0.092248239 -0.062130854 0.18062776
0.092836745 -0.063150227 0.18018606
0.093425833 -0.064170673 0.17974395
0.093672663 -0.065356404 0.17967215
0.093672633 -0.066657737 0.17986694
0.093672544 -0.067955419 0.18006119
0.093672469 -0.069249466 0.18025497
0.093672454 -0.070539862 0.18044809
0.093672372 -0.071826637 0.18064073
0.09367232 -0.073109806 0.1808328
0.093672261 -0.074389383 0.18102437
0.093952805 -0.075540483 0.18091333
0.094287463 -0.076666474 0.18074396
0.094621941 -0.07779181 0.18057463
0.094956197 -0.078916445 0.18040535
0.095290288 -0.08004041 0.18023628
0.095624194 -0.081163704 0.18006715
0.09595786 -0.082286328 0.17989832
0.096291311 -0.083408266 0.17972949
0.09662459 -0.084529534 0.17956081
0.096957669 -0.085650131 0.1793921
0.097290516 -0.086770087 0.17922363
0.097623222 -0.087889314 0.17905521
0.097955689 -0.089007914 0.17888686
0.09828797 -0.090125844 0.17871869
0.098620012 -0.091243088 0.17855057
0.098951906 -0.092359692 0.17838255
0.099283583 -0.09347558 0.17821467
0.099615082 -0.094590813 0.17804685
0.099946365 -0.09570539 0.1778791
0.10027744 -0.096819311 0.17771155
0.10060832 -0.097932547 0.177544
0.100939 -0.099045128 0.1773766
0.10126948 -0.10015707 0.17720935
0.10159978 -0.10126831 0.1770421
0.1019299 -0.10237892 0.176875
0.10225978 -0.10348883 0.17670795
0.10258953 -0.1045981 0.176541
0.10291902 -0.10570669 0.17637423
0.10324837 -0.10681461 0.17620748
0.10357746 -0.10792191 0.17604092
0.10390641 -0.1090285 0.17587432
0.10423513 -0.1101345 0.17570791
0.10456369 -0.11123979 0.17554155
0.104892 -0.11234444 0.17537537
0.1052202 -0.11344841 0.17520922
0.10554811 -0.11455177 0.17504314
0.10587588 -0.11565444 0.1748772
0.10620346 -0.11675644 0.17471141
0.10653082 -0.11785783 0.17454565
0.10685799 -0.11895855 0.17438003
0.10718495 -0.1200586 0.17421451
0.10760003 -0.12113297 0.17395616
0.10810131 -0.12218323 0.17360717
0.10860287 -0.12323399 0.17325798
0.10910471 -0.1242853 0.17290863
0.10960677 -0.12533711 0.17255908
0.11010905 -0.12638946 0.17220938
0.11061162 -0.12744232 0.17185944
0.1111144 -0.12849574 0.17150941
0.11161749 -0.12954964 0.17115918
0.11212078 -0.1306041 0.17080876
0.11262435 -0.13165911 0.17045814
0.11312814 -0.1327146 0.17010739
0.11363222 -0.13377064 0.16975647
0.11413655 -0.13482721 0.16940534
0.11464112 -0.13588428 0.169054
0.11514594 -0.13694194 0.1687026
0.11565103 -0.1380001 0.16835093
0.11615632 -0.13905878 0.16799918
0.1166619 -0.14011799 0.16764718
0.11716777 -0.14117777 0.16729492
0.11767387 -0.14223804 0.16694254
0.11818022 -0.14329888 0.16659003
0.1186868 -0.14436021 0.16623735
0.11919366 -0.14542212 0.16588444
0.11970074 -0.14648451 0.16553149
0.12020809 -0.14754748 0.16517821
0.1207157 -0.14861096 0.16482484
0.12122357 -0.14967497 0.16447124
0.12173169 -0.15073955 0.16411749
0.12224007 -0.15180464 0.16376352
0.12274873 -0.15287025 0.16340938
0.12325761 -0.1539364 0.16305506
0.12376672 -0.15500312 0.16270065
0.12427613 -0.15607034 0.16234598
0.1247858 -0.15713811 0.16199121
0.12529573 -0.15820642 0.16163617
0.12580588 -0.15927532 0.16128096
0.12631631 -0.16034466 0.16092563
0.126827 -0.16141458 0.16057006
0.12733789 -0.16248506 0.16021442
0.1278491 -0.16355608 0.15985847
0.12836057 -0.16462764 0.15950239
0.12887228 -0.16569972 0.1591461
0.12938426 -0.16677238 0.15878969
0.12989649 -0.16784552 0.15843305
0.13040899 -0.16891924 0.15807626
0.13092175 -0.16999349 0.15771928
0.13143472 -0.1710683 0.15736213
0.13194799 -0.17214365 0.15700477
0.13246152 -0.17321952 0.15664724
0.13297532 -0.17429596 0.15628952
0.13348939 -0.17537293 0.15593159
0.1340037 -0.17645043 0.15557355
0.090629123 0.06698972 0.16106877
0.087380052 0.062314257 0.16507235
0.084210359 0.057752989 0.16897812
0.081117071 0.053301707 0.17278966
0.078097597 0.048956588 0.17651033
0.075149521 0.044714063 0.18014306
0.072270051 0.040570274 0.18369126
0.069456831 0.036521837 0.18715772
0.066707626 0.032565519 0.19054541
0.065682255 0.030147344 0.1919516
0.065683253 0.028634548 0.19217965
0.065684244 0.027126566 0.19240707
0.065685213 0.025623366 0.19263375
0.065686196 0.02412495 0.19285971
0.06568718 0.022631288 0.19308487
0.065688156 0.021142349 0.1933094
0.065689139 0.019658133 0.19353312
0.065690093 0.018178582 0.19375628
0.065691076 0.016703695 0.19397861
0.065692022 0.015233442 0.19420025
0.065693013 0.013767838 0.1944212
0.06569393 0.012306765 0.19464162
0.065694883 0.010850281 0.19486117
0.065695807 0.0093983412 0.19508013
0.065696776 0.0079509765 0.19529834
0.065697685 0.0065080673 0.1955159
0.065698609 0.0050696731 0.19573277
0.065699525 0.0036357343 0.19594905
0.065700442 0.002206251 0.19616461
0.06570138 0.00078120828 0.19637945
0.065702304 -0.00063945353 0.19659367
0.065703198 -0.0020557195 0.19680721
0.065704107 -0.0034676492 0.19702011
0.065704994 -0.004875198 0.1972324
0.065705933 -0.0062784106 0.1974439
0.065706834 -0.0076773465 0.19765484
0.065707743 -0.0090719908 0.19786516
0.065708622 -0.010462373 0.19807485
0.065709509 -0.011848509 0.19828385
0.065710433 -0.013230413 0.19849223
0.065711312 -0.0146081 0.19869992
0.065712199 -0.015981629 0.19890705
0.065713055 -0.017350972 0.19911355
0.06571395 -0.018716171 0.19931936
0.066106237 -0.019806907 0.19908667
0.066667892 -0.020781219 0.19866455
0.067230068 -0.02175656 0.19824204
0.06779281 -0.022732899 0.19781908
0.068356119 -0.023710191 0.19739571
0.068920039 -0.024688497 0.19697189
0.069484532 -0.025667787 0.19654766
0.070049547 -0.026648104 0.196123
0.070615172 -0.027629375 0.1956979
0.071181372 -0.02861166 0.19527236
0.071748152 -0.029594958 0.19484642
0.072315477 -0.030579239 0.19442004
0.072883405 -0.031564549 0.19399321
0.073451929 -0.032550827 0.19356591
0.074021012 -0.033538133 0.19313821
0.074590661 -0.034526423 0.19271007
0.075160898 -0.035515741 0.19228151
0.075731762 -0.036506042 0.19185248
0.076303169 -0.037497386 0.19142297
0.07687515 -0.038489744 0.19099316
0.077447712 -0.039483115 0.19056281
0.078020908 -0.040477484 0.19013208
0.07859464 -0.041472882 0.18970084
0.079168975 -0.042469323 0.18926924
0.079743937 -0.043466732 0.18883708
0.080319464 -0.044465199 0.1884045
0.080895565 -0.045464694 0.18797147
0.081472293 -0.046465173 0.18753815
0.082049586 -0.04746671 0.1871042
0.082627468 -0.048469275 0.18666992
0.083205968 -0.049472868 0.18623507
0.083785072 -0.050477505 0.18579993
0.084364772 -0.051483139 0.18536416
0.084945008 -0.052489847 0.18492812
0.085525908 -0.053497583 0.18449154
0.086107358 -0.054506361 0.18405446
0.086689435 -0.055516168 0.18361706
0.087272093 -0.056527019 0.18317914
0.087855376 -0.057538912 0.18274078
0.088439286 -0.058551848 0.18230188
0.089023724 -0.059565842 0.18186265
0.089608841 -0.060580865 0.18142289
0.090194508 -0.061596975 0.18098277
0.09078081 -0.062614083 0.18054214
0.091367714 -0.063632295 0.18010104
0.091955222 -0.064651534 0.17965946
0.092741251 -0.065576896 0.17900231
0.093672983 -0.066436023 0.17818737
0.093672909 -0.067738459 0.17838469
0.093672842 -0.069037214 0.17858148
0.093672812 -0.070332304 0.17877766
0.09367273 -0.071623757 0.17897329
0.093672663 -0.07291159 0.1791684
0.093672618 -0.074195772 0.17936289
0.093672559 -0.075476378 0.17955691
0.093672477 -0.076753408 0.17975032
0.093672439 -0.078026846 0.17994326
0.09367238 -0.079296753 0.18013567
0.093821108 -0.080499247 0.1801669
0.094154939 -0.081620768 0.17999816
0.094488606 -0.082741648 0.17982942
0.094822042 -0.083861828 0.17966089
0.095155261 -0.084981352 0.17949241
0.09548828 -0.086100236 0.17932409
0.095821105 -0.087218419 0.17915586
0.096153744 -0.088335946 0.17898771
0.096486181 -0.089452788 0.17881963
0.096818432 -0.09056896 0.17865169
0.097150467 -0.09168449 0.17848381
0.097482294 -0.092799351 0.17831609
0.097813949 -0.093913496 0.17814842
0.098145366 -0.095027044 0.17798084
0.098476611 -0.096139878 0.1778135
0.098807693 -0.097252071 0.17764604
0.099138528 -0.098363608 0.17747885
0.099469192 -0.09947443 0.17731163
0.09979964 -0.10058466 0.17714459
0.10012989 -0.1016942 0.17697763
0.10045995 -0.10280308 0.17681083
0.10078982 -0.1039113 0.17664412
0.10111951 -0.10501882 0.17647737
0.101449 -0.10612571 0.17631084
0.10177828 -0.10723197 0.17614439
0.10210737 -0.10833755 0.17597803
0.10243627 -0.10944244 0.17581168
0.10276496 -0.11054671 0.17564553
0.10309348 -0.11165033 0.17547947
0.10342181 -0.11275326 0.17531344
0.10374992 -0.11385557 0.17514765
0.10407783 -0.1149572 0.17498186
0.10440555 -0.11605817 0.17481622
0.10473309 -0.11715852 0.17465058
0.10506041 -0.11825819 0.17448512
0.10538757 -0.1193572 0.17431974
0.10571451 -0.12045559 0.17415446
0.10619161 -0.12151071 0.17383033
0.10669194 -0.12255976 0.1734817
0.10719251 -0.12360932 0.17313296
0.10769337 -0.12465945 0.17278391
0.10819446 -0.12571006 0.17243478
0.1086958 -0.12676121 0.17208546
0.10919739 -0.12781288 0.171736
0.10969919 -0.12886509 0.17138642
0.11020131 -0.1299178 0.17103645
0.11070363 -0.13097107 0.17068648
0.11120623 -0.13202482 0.17033631
0.11170907 -0.13307914 0.16998589
0.11221214 -0.13413396 0.16963544
0.11271551 -0.13518932 0.16928467
0.11321911 -0.13624521 0.16893381
0.11372294 -0.13730162 0.16858268
0.11422704 -0.13835859 0.16823149
0.1147314 -0.13941607 0.16788009
0.11523601 -0.14047407 0.16752842
0.11574087 -0.1415326 0.16717672
0.11624597 -0.14259166 0.16682476
0.11675133 -0.14365128 0.16647264
0.11725694 -0.14471139 0.16612032
0.1177628 -0.14577205 0.16576794
0.11826892 -0.14683326 0.16541523
0.11877529 -0.14789498 0.16506243
0.11928192 -0.14895725 0.16470939
0.11978878 -0.15002005 0.16435623
0.1202959 -0.15108335 0.16400287
0.12080333 -0.15214723 0.16364932
0.12131095 -0.15321162 0.16329572
0.12181885 -0.15427658 0.16294172
0.122327 -0.15534203 0.1625877
0.12283541 -0.15640804 0.16223344
0.12334409 -0.15747459 0.161879
0.12385298 -0.15854168 0.16152444
0.12436216 -0.15960929 0.16116968
0.1248716 -0.16067742 0.1608147
0.12538129 -0.16174607 0.16045955
0.12589125 -0.16281535 0.16010427
0.12640147 -0.16388509 0.15974873
0.12691191 -0.16495541 0.1593931
0.12742263 -0.16602625 0.15903726
0.12793359 -0.16709761 0.15868127
0.12844482 -0.16816953 0.15832502
0.1289563 -0.16924201 0.15796861
0.12946805 -0.17031504 0.15761206
0.12998006 -0.17138857 0.15725532
0.13049231 -0.17246266 0.15689844
0.13100486 -0.17353728 0.15654126
0.13151762 -0.17461245 0.15618405
0.13203065 -0.17568819 0.15582657
0.13254397 -0.17676446 0.15546894
0.13305753 -0.17784128 0.1551111
0.13357136 -0.1789186 0.15475309
0.13408543 -0.17999651 0.15439487
0.089813434 0.068728134 0.15975106
0.086565264 0.064017892 0.16378227
0.083396673 0.059422992 0.16771477
0.080304705 0.05493924 0.17155212
0.077286601 0.050562613 0.17529786
0.07434015 0.046289697 0.17895469
0.07146246 0.042116478 0.1825262
0.06865114 0.03803955 0.18601525
0.065903969 0.034055591 0.18942478
0.063893117 0.03075482 0.19197938
0.063896976 0.029242575 0.19220722
0.063900813 0.027735114 0.19243419
0.063904606 0.026232421 0.19266066
0.063908428 0.024734557 0.19288632
0.06391222 0.023241386 0.19311127
0.063915975 0.021752939 0.1933355
0.063919768 0.0202692 0.19355899
0.063923523 0.018790126 0.19378182
0.063927256 0.017315716 0.19400394
0.063930988 0.01584594 0.1942254
0.063934729 0.014380783 0.19444612
0.063938409 0.012920186 0.19466609
0.063942134 0.011464179 0.19488543
0.063945793 0.010012701 0.19510418
0.063949436 0.0085657239 0.19532216
0.063953087 0.0071232915 0.19553947
0.063956723 0.0056853145 0.1957562
0.063960344 0.004251793 0.19597214
0.063963935 0.0028227419 0.19618744
0.063967578 0.0013981014 0.19640201
0.063971177 -2.2128224e-05 0.19661605
0.063974753 -0.0014379919 0.19682935
0.063978299 -0.0028495193 0.19704202
0.063981861 -0.0042566806 0.19725403
0.06398543 -0.0056595206 0.19746539
0.063988969 -0.0070580691 0.19767606
0.063992493 -0.0084523261 0.19788614
0.063996002 -0.0098423362 0.19809553
0.063999504 -0.011228114 0.19830436
0.064002998 -0.012609631 0.19851246
0.064006492 -0.01398699 0.19871998
0.064009972 -0.015360147 0.19892684
0.064013436 -0.016729131 0.1991331
0.064016864 -0.018094003 0.19933876
0.064149134 -0.019364908 0.19939873
0.064708702 -0.020337209 0.19897759
0.065268829 -0.021310493 0.1985561
0.06582953 -0.022284761 0.19813406
0.066390835 -0.023259968 0.19771162
0.066952661 -0.024236217 0.19728881
0.067515053 -0.02521345 0.19686547
0.068078049 -0.026191652 0.19644183
0.06864161 -0.027170852 0.19601759
0.069205731 -0.028151035 0.19559303
0.069770418 -0.029132232 0.19516805
0.070335694 -0.030114427 0.19474268
0.070901528 -0.031097621 0.1943168
0.071467958 -0.032081798 0.19389051
0.07203494 -0.033067003 0.1934638
0.07260251 -0.034053206 0.19303665
0.073170677 -0.035040379 0.19260901
0.073739417 -0.036028579 0.19218096
0.074308708 -0.037017807 0.19175252
0.074878596 -0.038008019 0.19132361
0.075449094 -0.038999259 0.19089425
0.076020136 -0.039991498 0.19046447
0.076591782 -0.04098475 0.19003433
0.077163987 -0.04197903 0.18960363
0.077736832 -0.042974293 0.18917257
0.078310229 -0.0439706 0.18874097
0.078884222 -0.04496792 0.18830892
0.079458803 -0.045966268 0.18787652
0.08003398 -0.046965629 0.18744367
0.080609716 -0.047966048 0.18701035
0.081186086 -0.048967451 0.18657652
0.081763022 -0.049969897 0.18614239
0.082340553 -0.050973371 0.18570769
0.082918666 -0.051977903 0.1852726
0.083497405 -0.052983433 0.18483698
0.08407671 -0.053989992 0.18440104
0.084656648 -0.054997593 0.18396452
0.08523716 -0.056006253 0.18352765
0.085818253 -0.057015941 0.18309033
0.086399965 -0.058026657 0.18265247
0.086982235 -0.05903843 0.18221432
0.087565169 -0.060051247 0.18177554
0.088148676 -0.061065108 0.1813364
0.088732809 -0.062080026 0.18089682
0.089317493 -0.063095987 0.18045676
0.089902833 -0.064112976 0.18001616
0.090488762 -0.065131038 0.17957523
0.091499321 -0.06594643 0.17867056
0.092656165 -0.06669715 0.17760694
0.093673266 -0.067520022 0.17669675
0.093673207 -0.068823531 0.17689648
0.09367317 -0.070123345 0.17709571
0.093673095 -0.071419492 0.17729437
0.093673021 -0.072712004 0.17749256
0.093672976 -0.074000835 0.17769012
0.093672894 -0.07528609 0.17788708
0.093672872 -0.07656768 0.17808354
0.093672797 -0.077845722 0.17827943
0.093672723 -0.079120174 0.17847478
0.093672678 -0.080391049 0.1786696
0.093672611 -0.081658378 0.17886394
0.093672559 -0.082922161 0.1790576
0.093672514 -0.084182441 0.17925078
0.093690135 -0.085431919 0.17942432
0.094023116 -0.086549044 0.17925623
0.094355911 -0.087665468 0.17908823
0.09468852 -0.088781253 0.17892033
0.095020898 -0.089896396 0.17875257
0.095353067 -0.091010839 0.17858487
0.095685095 -0.092124626 0.1784173
0.096016899 -0.093237728 0.17824978
0.096348494 -0.094350189 0.17808241
0.096679904 -0.095461994 0.1779151
0.097011097 -0.096573144 0.17774791
0.097342104 -0.097683609 0.1775808
0.097672917 -0.098793387 0.17741382
0.098003581 -0.099902555 0.1772469
0.098333992 -0.10101101 0.17708009
0.098664209 -0.10211886 0.17691338
0.098994248 -0.10322602 0.17674679
0.099324062 -0.10433255 0.17658037
0.099653706 -0.10543838 0.17641395
0.099983156 -0.10654359 0.17624763
0.1003124 -0.1076481 0.17608142
0.10064144 -0.108752 0.1759153
0.10097034 -0.1098552 0.17574927
0.10129902 -0.11095776 0.17558339
0.10162745 -0.11205967 0.17541757
0.10195573 -0.11316092 0.17525184
0.10228382 -0.11426152 0.17508626
0.10261171 -0.1153615 0.17492071
0.1029394 -0.1164608 0.17475528
0.10326692 -0.11755945 0.17458996
0.10359418 -0.11865743 0.17442474
0.10392132 -0.11975475 0.1742596
0.10428751 -0.12084019 0.17405286
0.10478663 -0.12188753 0.1737048
0.10528599 -0.1229354 0.17335659
0.10578564 -0.12398377 0.17300817
0.10628551 -0.12503269 0.17265961
0.10678561 -0.12608214 0.17231083
0.10728598 -0.12713206 0.17196196
0.10778658 -0.12818255 0.17161286
0.1082875 -0.12923354 0.17126358
0.10878862 -0.13028505 0.17091414
0.10928996 -0.13133711 0.17056453
0.10979158 -0.13238968 0.17021474
0.11029345 -0.1334428 0.16986474
0.11079556 -0.13449641 0.16951466
0.11129795 -0.13555059 0.16916433
0.11180058 -0.13660525 0.16881382
0.11230344 -0.13766044 0.16846317
0.11280657 -0.13871621 0.16811234
0.11330993 -0.13977246 0.1677613
0.11381358 -0.14082925 0.16741011
0.11431745 -0.14188656 0.16705877
0.1148216 -0.14294443 0.16670719
0.11532596 -0.14400281 0.16635549
0.11583061 -0.1450617 0.16600358
0.11633551 -0.14612114 0.1656515
0.11684063 -0.14718114 0.1652993
0.11734603 -0.14824165 0.16494685
0.11785166 -0.14930268 0.16459423
0.11835755 -0.15036428 0.16424146
0.11886372 -0.15142636 0.16388857
0.11937012 -0.15248901 0.16353545
0.11987674 -0.15355216 0.16318214
0.12038366 -0.15461586 0.16282862
0.12089084 -0.15568011 0.16247502
0.12139824 -0.15674488 0.16212118
0.12190594 -0.15781018 0.16176718
0.12241388 -0.15887603 0.16141298
0.12292208 -0.1599424 0.16105863
0.1234305 -0.16100933 0.16070408
0.12393919 -0.16207677 0.16034937
0.12444814 -0.16314475 0.15999445
0.12495735 -0.1642133 0.15963939
0.12546681 -0.16528235 0.15928414
0.12597653 -0.16635197 0.15892869
0.12648652 -0.16742209 0.15857306
0.12699676 -0.16849276 0.15821725
0.12750727 -0.16956399 0.15786126
0.12801798 -0.17063576 0.15750518
0.12852898 -0.17170805 0.15714881
0.12904027 -0.17278089 0.15679228
0.12955178 -0.17385428 0.15643561
0.13006355 -0.17492817 0.15607873
0.13057561 -0.17600267 0.15572169
0.13108788 -0.17707767 0.15536445
0.13160042 -0.17815322 0.15500706
0.13211322 -0.1792293 0.15464947
0.13265711 -0.18030316 0.15425989
0.1333026 -0.18136884 0.1537655
0.13394888 -0.18243596 0.15327054
0.085745849 0.065731175 0.16248485
0.082578465 0.061102405 0.16644433
0.079487845 0.056585848 0.17030776
0.076471299 0.052177534 0.17407855
0.073526405 0.047873825 0.17775989
0.070650555 0.043670923 0.18135482
0.067841209 0.039565265 0.18486676
0.065096095 0.035553455 0.18829826
0.062413082 0.031632379 0.19165224
0.062114209 0.029849365 0.19223455
0.0621209 0.028342471 0.19246134
0.062127493 0.026840284 0.19268754
0.062134139 0.025342926 0.19291285
0.062140748 0.023850262 0.19313759
0.062147282 0.022362292 0.19336155
0.062153861 0.02087906 0.1935848
0.062160395 0.019400492 0.19380739
0.062166892 0.017926544 0.19402924
0.062173396 0.01645723 0.19425046
0.062179871 0.01499255 0.19447088
0.062186308 0.01353243 0.19469067
0.062192753 0.012076885 0.19490972
0.062199131 0.010625839 0.1951282
0.062205501 0.009179309 0.19534597
0.062211849 0.0077373087 0.19556302
0.062218189 0.0062997639 0.19577941
0.062224485 0.0048666894 0.19599521
0.062230803 0.0034380406 0.19621024
0.062237099 0.0020138174 0.19642466
0.062243342 0.00059399009 0.19663835
0.062249586 -0.00082145631 0.1968514
0.062255792 -0.0022325814 0.19706383
0.062262014 -0.0036393404 0.19727558
0.062268198 -0.0050418079 0.19748679
0.062274359 -0.0064399689 0.19769722
0.062280498 -0.0078338534 0.19790709
0.062286623 -0.009223491 0.19811621
0.06229271 -0.010608912 0.19832477
0.062298842 -0.011990055 0.19853267
0.062304899 -0.013367042 0.19873995
0.062310942 -0.014739856 0.19894662
0.062316969 -0.016108513 0.19915265
0.062322967 -0.017473042 0.19935814
0.062328994 -0.018833399 0.19956279
0.062756889 -0.019894868 0.19928947
0.063314974 -0.020866096 0.1988689
0.063873686 -0.021838263 0.19844776
0.064432897 -0.022811472 0.19802633
0.064992666 -0.023785651 0.19760448
0.065553017 -0.024760798 0.19718218
0.066113971 -0.025736928 0.19675937
0.066675454 -0.026714057 0.19633621
0.067237541 -0.027692154 0.19591266
0.067800157 -0.02867128 0.19548863
0.068363369 -0.029651374 0.19506413
0.068927139 -0.030632466 0.19463924
0.069491491 -0.031614557 0.1942139
0.070056409 -0.032597646 0.19378814
0.070621923 -0.033581734 0.19336197
0.071187973 -0.034566835 0.19293535
0.071754605 -0.035552934 0.19250831
0.072321825 -0.036540017 0.1920808
0.072889611 -0.037528142 0.19165295
0.073458016 -0.038517222 0.19122446
0.074026957 -0.039507359 0.19079569
0.074596517 -0.040498465 0.19036651
0.075166628 -0.041490614 0.18993682
0.075737379 -0.042483717 0.18950665
0.07630866 -0.043477893 0.1890761
0.076880552 -0.044473067 0.18864509
0.077452973 -0.045469269 0.18821368
0.078026049 -0.046466485 0.18778181
0.078599654 -0.047464713 0.18734947
0.0791739 -0.048463956 0.18691668
0.07974869 -0.049464241 0.18648347
0.080324091 -0.050465554 0.18604985
0.080900095 -0.051467866 0.18561569
0.081476659 -0.05247122 0.18518117
0.082053848 -0.053475618 0.18474618
0.082631595 -0.05448103 0.18431073
0.083209954 -0.055487484 0.18387485
0.083788902 -0.056494981 0.18343854
0.084368475 -0.057503492 0.1830017
0.084948614 -0.05851306 0.18256453
0.085529365 -0.059523657 0.18212673
0.086110711 -0.060535282 0.18168873
0.086692654 -0.06154798 0.1812501
0.087275192 -0.062561706 0.18081099
0.087858297 -0.063576505 0.18037158
0.08844205 -0.064592332 0.17993158
0.089111321 -0.06556797 0.17939797
0.09025903 -0.066315457 0.17833918
0.091412172 -0.06706655 0.17727545
0.092570826 -0.067821249 0.17620659
0.093673587 -0.068608359 0.17519999
0.09367352 -0.069912955 0.17540234
0.093673445 -0.071213841 0.1756041
0.093673386 -0.072511032 0.17580527
0.093673334 -0.073804572 0.17600593
0.093673259 -0.075094491 0.17620599
0.093673229 -0.076380715 0.1764054
0.093673132 -0.077663362 0.17660439
0.093673073 -0.078942388 0.17680278
0.09367305 -0.080217823 0.17700049
0.093672991 -0.081489697 0.17719784
0.093672901 -0.082758009 0.17739454
0.093672857 -0.08402276 0.1775907
0.093672782 -0.085283995 0.17778629
0.093672745 -0.086541697 0.17798135
0.093672693 -0.087795913 0.1781759
0.093672633 -0.089046657 0.17836982
0.093672566 -0.090293914 0.17856333
0.093891963 -0.091451436 0.17851827
0.094223917 -0.092563495 0.1783509
0.094555654 -0.093674913 0.1781837
0.094887242 -0.094785661 0.17801651
0.095218629 -0.095895708 0.17784953
0.095549807 -0.097005144 0.17768252
0.095880769 -0.098113894 0.17751577
0.096211523 -0.099221975 0.177349
0.09654212 -0.10032941 0.17718241
0.096872509 -0.10143617 0.17701587
0.097202711 -0.10254231 0.17684937
0.097532697 -0.10364777 0.17668304
0.09786249 -0.10475257 0.17651683
0.098192073 -0.10585672 0.17635062
0.098521471 -0.10696022 0.17618465
0.098850682 -0.10806307 0.17601874
0.099179722 -0.10916524 0.17585281
0.099508539 -0.11026679 0.17568707
0.099837184 -0.11136766 0.17552137
0.10016559 -0.11246789 0.17535585
0.10049386 -0.11356743 0.17519033
0.10082188 -0.11466634 0.17502502
0.10114977 -0.11576463 0.17485976
0.10147741 -0.11686225 0.17469457
0.1018049 -0.11795923 0.17452949
0.10213216 -0.11905552 0.17436454
0.10245924 -0.12015121 0.17419964
0.10288692 -0.12121728 0.17392719
0.10338509 -0.12226343 0.17357957
0.1038835 -0.1233101 0.17323172
0.10438218 -0.12435728 0.17288378
0.10488108 -0.12540501 0.17253554
0.10538023 -0.12645324 0.17218721
0.10587963 -0.12750199 0.17183873
0.10637926 -0.12855127 0.17148995
0.1068792 -0.12960109 0.17114112
0.10737937 -0.13065138 0.17079207
0.10787976 -0.13170226 0.17044282
0.10838041 -0.13275364 0.17009351
0.10888129 -0.13380554 0.16974393
0.10938249 -0.13485795 0.16939411
0.10988386 -0.13591093 0.16904426
0.11038552 -0.13696441 0.16869417
0.11088744 -0.13801838 0.16834384
0.11138957 -0.13907294 0.16799343
0.11189201 -0.14012799 0.16764286
0.11239468 -0.14118357 0.16729203
0.11289758 -0.14223966 0.16694105
0.1134007 -0.14329632 0.16658998
0.11390412 -0.14435348 0.16623861
0.11440782 -0.14541118 0.16588709
0.11491172 -0.1464694 0.16553545
0.11541589 -0.14752819 0.16518357
0.1159203 -0.14858744 0.16483158
0.11642493 -0.14964727 0.16447943
0.11692984 -0.15070763 0.16412708
0.11743499 -0.15176851 0.16377455
0.11794044 -0.15282992 0.16342181
0.11844611 -0.15389186 0.16306895
0.11895205 -0.15495434 0.16271585
0.1194582 -0.15601735 0.16236261
0.11996466 -0.15708092 0.16200918
0.12047132 -0.15814497 0.16165555
0.12097827 -0.15920958 0.16130185
0.12148549 -0.1602747 0.16094789
0.12199293 -0.1613404 0.16059369
0.12250064 -0.16240664 0.1602394
0.12300859 -0.16347337 0.1598849
0.12351684 -0.16454068 0.15953022
0.12402528 -0.16560853 0.15917543
0.124534 -0.16667688 0.15882039
0.125043 -0.16774577 0.15846521
0.12555224 -0.16881518 0.15810975
0.12606175 -0.16988516 0.15775421
0.12657151 -0.17095566 0.15739849
0.12708153 -0.17202675 0.15704256
0.12759179 -0.17309834 0.15668648
0.12810229 -0.17417043 0.15633026
0.12861305 -0.17524312 0.15597373
0.1291241 -0.17631634 0.15561712
0.12963539 -0.17739008 0.15526035
0.13014697 -0.17846438 0.15490332
0.13065878 -0.17953923 0.15454614
0.13123912 -0.18060844 0.15411791
0.13188298 -0.18167317 0.15362403
0.13252765 -0.18273924 0.15312952
0.13317311 -0.18380666 0.15263447
0.13381943 -0.18487546 0.15213865
0.084921829 0.067454264 0.16118011
0.081755586 0.062791184 0.1651668
0.078666426 0.058241576 0.16905648
0.075651497 0.053801298 0.17285267
0.072708249 0.049466565 0.17655861
0.069834314 0.045233741 0.18017727
0.06702698 0.041099042 0.18371212
0.064284034 0.037059188 0.18716589
0.061603256 0.033110857 0.19054142
0.060334973 0.030455008 0.19226184
0.060344487 0.02894862 0.19248843
0.06035389 0.02744697 0.19271433
0.06036333 0.025950089 0.1929394
0.060372718 0.024457946 0.19316384
0.060382061 0.022970483 0.19338757
0.060391396 0.021487728 0.19361058
0.060400724 0.020009652 0.19383287
0.060409941 0.01853618 0.19405451
0.060419187 0.017067373 0.19427544
0.060428426 0.015603125 0.19449562
0.06043759 0.014143467 0.19471514
0.060446754 0.012688383 0.19493401
0.060455851 0.011237785 0.19515222
0.060464926 0.0097917169 0.19536972
0.060473986 0.0083501488 0.19558653
0.060482994 0.0069130361 0.19580269
0.060491987 0.0054803789 0.19601813
0.060500987 0.004052192 0.19623297
0.060509928 0.0026283711 0.19644713
0.060518831 0.0012089461 0.19666058
0.060527705 -0.00020612776 0.19687355
0.060536563 -0.0016168356 0.19708568
0.060545422 -0.0030231774 0.19729719
0.060554221 -0.0044252574 0.19750807
0.060563006 -0.0058230311 0.19771832
0.060571752 -0.007216543 0.19792792
0.060580447 -0.0086058229 0.1981369
0.060589187 -0.0099908113 0.19834515
0.060597867 -0.011371642 0.19855288
0.060606502 -0.012748271 0.19875997
0.0606151 -0.014120743 0.19896635
0.060623698 -0.015489057 0.19917217
0.060632303 -0.016853184 0.1993773
0.060640827 -0.018213227 0.19958186
0.060812406 -0.019454166 0.19960016
0.061368495 -0.020423338 0.19918051
0.061925113 -0.021393493 0.19876042
0.062482327 -0.022364631 0.19833985
0.06304007 -0.023336738 0.19791892
0.063598387 -0.024309844 0.19749764
0.06415727 -0.025283918 0.19707581
0.064716712 -0.026258975 0.19665357
0.065276727 -0.027235016 0.19623092
0.065837309 -0.02821207 0.1958079
0.066398472 -0.029190063 0.19538435
0.066960201 -0.030169085 0.19496047
0.067522481 -0.031149104 0.19453609
0.068085328 -0.032130092 0.19411129
0.06864877 -0.033112079 0.1936861
0.069212765 -0.034095064 0.1932604
0.069777332 -0.035079047 0.19283432
0.070342474 -0.036064059 0.19240785
0.070908196 -0.037050053 0.19198087
0.071474507 -0.038037032 0.19155347
0.072041355 -0.039025038 0.19112569
0.072608806 -0.040014043 0.19069743
0.073176861 -0.041004032 0.19026875
0.073745459 -0.041995034 0.1898396
0.074314639 -0.042987078 0.18940997
0.074884437 -0.043980092 0.18897998
0.075454772 -0.044974163 0.18854955
0.076025732 -0.045969203 0.18811861
0.076597244 -0.046965286 0.18768731
0.077169366 -0.047962368 0.18725547
0.077742055 -0.048960492 0.18682331
0.078315333 -0.04995963 0.18639064
0.078889199 -0.050959796 0.18595752
0.079463623 -0.05196096 0.18552405
0.080038682 -0.052963197 0.18509001
0.080614276 -0.053966433 0.18465561
0.081190526 -0.054970697 0.18422076
0.081767343 -0.055975989 0.18378541
0.082344726 -0.056982324 0.18334967
0.082922742 -0.057989672 0.18291336
0.083501332 -0.058998093 0.18247673
0.084080532 -0.060007527 0.18203962
0.084660284 -0.06101802 0.18160206
0.085240692 -0.062029511 0.18116403
0.085821636 -0.063042089 0.18072557
0.086403228 -0.064055666 0.18028671
0.086985409 -0.065070316 0.17984727
0.087876379 -0.065936133 0.17906708
0.089020319 -0.066684023 0.17800832
0.09016975 -0.067435488 0.17694446
0.091324657 -0.068190575 0.17587551
0.092485167 -0.068949282 0.17480147
0.093651205 -0.06971164 0.17372221
0.093673818 -0.071006775 0.17390218
0.093673728 -0.072308719 0.17410645
0.093673691 -0.073606983 0.17431015
0.093673639 -0.074901566 0.17451325
0.093673602 -0.076192483 0.17471582
0.09367352 -0.077479765 0.17491782
0.093673453 -0.078763396 0.17511928
0.093673415 -0.080043435 0.17532012
0.093673326 -0.081319869 0.17552039
0.093673266 -0.082592726 0.17572016
0.093673229 -0.083861992 0.17591929
0.093673155 -0.085127711 0.1761179
0.09367308 -0.086389899 0.17631596
0.093673036 -0.087648556 0.17651349
0.093672983 -0.08890371 0.1767104
0.093672931 -0.090155348 0.17690679
0.093672857 -0.091403559 0.17710271
0.093672782 -0.092648253 0.17729804
0.09367276 -0.093889505 0.17749277
0.093672685 -0.095127329 0.17768702
0.093761481 -0.096328199 0.17778412
0.094092607 -0.097435907 0.1776174
0.094423585 -0.098542929 0.17745081
0.094754308 -0.099649325 0.17728433
0.095084853 -0.10075508 0.17711794
0.095415182 -0.10186014 0.17695171
0.095745325 -0.10296457 0.17678553
0.096075267 -0.10406835 0.17661947
0.096405074 -0.10517143 0.17645341
0.096734613 -0.1062739 0.17628756
0.097063974 -0.1073757 0.1761218
0.09739314 -0.10847682 0.1759561
0.097722113 -0.10957734 0.17579052
0.098050892 -0.1106772 0.17562503
0.098379508 -0.11177635 0.17545962
0.098707892 -0.11287491 0.17529431
0.09903612 -0.1139728 0.17512909
0.099364132 -0.11507003 0.17496395
0.099691972 -0.11616661 0.17479891
0.10001963 -0.11726253 0.17463398
0.10034703 -0.11835785 0.17446917
0.10067427 -0.11945251 0.17430446
0.10100131 -0.12054649 0.17413983
0.10148977 -0.12159343 0.17380187
0.10198696 -0.1226384 0.17345461
0.10248445 -0.12368387 0.17310718
0.10298216 -0.12472987 0.17275959
0.10348012 -0.1257764 0.1724118
0.10397828 -0.12682347 0.17206386
0.10447672 -0.12787104 0.17171574
0.1049754 -0.12891914 0.17136744
0.10547438 -0.12996773 0.17101893
0.10597359 -0.13101687 0.1706703
0.106473 -0.13206653 0.17032146
0.10697268 -0.13311669 0.16997257
0.10747261 -0.13416742 0.16962337
0.10797285 -0.13521864 0.16927397
0.10847327 -0.13627037 0.16892448
0.10897394 -0.13732266 0.16857481
0.10947488 -0.13837548 0.16822496
0.10997605 -0.13942878 0.16787487
0.11047751 -0.14048263 0.16752461
0.11097919 -0.14153701 0.16717425
0.11148112 -0.14259192 0.16682369
0.11198331 -0.14364734 0.166473
0.11248574 -0.1447033 0.16612211
0.11298847 -0.14575978 0.16577095
0.11349139 -0.14681679 0.16541964
0.11399457 -0.14787436 0.16506824
0.11449803 -0.14893243 0.16471666
0.11500171 -0.14999099 0.16436481
0.11550564 -0.15105014 0.16401294
0.11600986 -0.15210982 0.16366073
0.11651427 -0.15317002 0.16330847
0.11701897 -0.15423074 0.16295603
0.11752391 -0.155292 0.16260335
0.11802909 -0.1563538 0.16225049
0.11853457 -0.15741609 0.16189742
0.11904027 -0.15847895 0.16154429
0.11954622 -0.15954231 0.1611909
0.12005247 -0.16060625 0.16083735
0.1205589 -0.16167073 0.16048366
0.12106564 -0.16273567 0.16012973
0.12157258 -0.16380119 0.15977567
0.12207985 -0.16486724 0.15942141
0.12258732 -0.16593385 0.159067
0.12309508 -0.16700098 0.1587123
0.12360309 -0.16806863 0.15835756
0.12411131 -0.16913681 0.15800259
0.12461981 -0.17020555 0.15764743
0.12512857 -0.17127484 0.15729213
0.12563759 -0.17234465 0.15693659
0.12614688 -0.17341499 0.15658092
0.12665641 -0.17448586 0.15622503
0.12716621 -0.17555729 0.15586904
0.12767625 -0.17662928 0.15551278
0.12818651 -0.17770177 0.1551564
0.12869708 -0.17877482 0.15479979
0.12920789 -0.17984839 0.15444303
0.12982431 -0.18091305 0.15397632
0.13046652 -0.18197675 0.15348294
0.13110957 -0.18304183 0.15298885
0.13175344 -0.18410823 0.15249419
0.13239813 -0.185176 0.15199891
0.13304359 -0.18624511 0.15150303
0.13368991 -0.18731564 0.15100646
0.13433704 -0.18838747 0.15050921
0.084093034 0.069187149 0.15986791
0.08092811 0.064489529 0.16388205
0.077840447 0.059906557 0.16779819
0.074827164 0.055433996 0.17162004
0.071885675 0.051067948 0.17535076
0.06901367 0.046804905 0.17899343
0.066208437 0.042640999 0.18255135
0.063467696 0.038572773 0.18602759
0.06078925 0.034597054 0.18942466
0.058559254 0.031059429 0.1922892
0.058571562 0.029553562 0.19251549
0.058583766 0.028052419 0.19274107
0.058596 0.026556075 0.19296589
0.058608189 0.025064439 0.19319004
0.058620289 0.023577467 0.19341356
0.058632404 0.022095233 0.1936363
0.058644474 0.020617619 0.1938583
0.058656454 0.019144639 0.1940797
0.05866842 0.017676279 0.19430032
0.058680393 0.016212538 0.19452026
0.058692269 0.014753312 0.19473958
0.058704138 0.01329869 0.19495818
0.058715947 0.011848554 0.19517609
0.058727704 0.010402918 0.19539341
0.058739468 0.0089617968 0.19560996
0.058751158 0.0075251162 0.1958259
0.058762819 0.0060928911 0.19604117
0.058774471 0.0046651214 0.19625571
0.058786072 0.0032417178 0.1964696
0.058797628 0.00182271 0.19668287
0.058809146 0.0004080683 0.19689548
0.058820605 -0.0010022521 0.19710743
0.058832094 -0.0024081916 0.19731867
0.058843516 -0.0038098842 0.19752935
0.0588549 -0.0052072853 0.19773936
0.058866248 -0.0066003948 0.19794875
0.058877543 -0.0079893172 0.19815752
0.05888886 -0.009373948 0.19836554
0.058900103 -0.010754392 0.19857305
0.058911301 -0.012130663 0.19877985
0.058922477 -0.013502762 0.19898608
0.058933616 -0.014870733 0.19919172
0.058944739 -0.016234532 0.19939655
0.058955818 -0.017594233 0.19960093
0.058966868 -0.018949866 0.19980463
0.059429266 -0.019982263 0.19949099
0.059983872 -0.020950377 0.19907179
0.060539037 -0.021919474 0.19865227
0.061094768 -0.02288954 0.19823229
0.061651081 -0.023860559 0.19781181
0.06220793 -0.024832591 0.197391
0.062765338 -0.025805593 0.19696978
0.063323312 -0.026779592 0.19654801
0.063881859 -0.027754545 0.19612595
0.064440958 -0.028730497 0.19570339
0.065000623 -0.029707447 0.19528046
0.065560862 -0.03068538 0.19485706
0.066121697 -0.031664282 0.19443324
0.066683061 -0.032644197 0.19400895
0.067244984 -0.033625096 0.19358432
0.067807481 -0.034606993 0.1931591
0.068370596 -0.035589859 0.19273362
0.068934247 -0.036573753 0.19230762
0.069498442 -0.03755866 0.19188118
0.070063241 -0.038544536 0.19145438
0.070628628 -0.039531425 0.19102705
0.071194582 -0.040519327 0.19059938
0.071761124 -0.041508168 0.19017121
0.072328202 -0.042498097 0.18974262
0.072895899 -0.043488979 0.18931362
0.073464178 -0.044480905 0.18888411
0.074033007 -0.045473829 0.18845421
0.074602433 -0.046467736 0.18802384
0.075172417 -0.047462717 0.1875931
0.075742997 -0.048458681 0.18716189
0.076314166 -0.049455643 0.18673024
0.076885946 -0.050453633 0.1862981
0.077458262 -0.051452681 0.18586558
0.078031182 -0.052452713 0.18543255
0.078604713 -0.053453773 0.18499911
0.07917878 -0.054455891 0.18456528
0.079753458 -0.055459008 0.18413094
0.08032871 -0.056463152 0.18369624
0.080904596 -0.057468325 0.18326098
0.081481025 -0.058474541 0.18282536
0.08205808 -0.059481755 0.18238917
0.082635731 -0.060490042 0.18195269
0.083213933 -0.061499357 0.18151566
0.083792791 -0.062509686 0.18107823
0.084372185 -0.063521072 0.18064031
0.08495222 -0.064533502 0.18020195
0.085532807 -0.065546989 0.17976323
0.086643003 -0.066303834 0.17873675
0.087783284 -0.067052096 0.17767784
0.088928983 -0.067803964 0.17661396
0.090080172 -0.068559423 0.17554489
0.091236874 -0.069318503 0.17447075
0.092399172 -0.070081249 0.17339137
0.093567058 -0.07084766 0.17230695
0.093674123 -0.072104976 0.17239586
0.093674079 -0.073408008 0.17260268
0.093673989 -0.074707329 0.172809
0.093673959 -0.076002926 0.17301464
0.093673877 -0.077294886 0.1732198
0.093673788 -0.078583196 0.17342427
0.093673758 -0.07986784 0.17362818
0.093673699 -0.081148878 0.17383158
0.093673617 -0.082426324 0.17403436
0.093673579 -0.08370012 0.17423654
0.093673497 -0.08497037 0.17443821
0.093673445 -0.086237073 0.17463928
0.093673393 -0.087500215 0.17483982
0.093673319 -0.088759825 0.1750398
0.093673274 -0.090015903 0.17523915
0.093673222 -0.09126848 0.17543802
0.09367314 -0.092517555 0.17563635
0.093673125 -0.093763173 0.17583403
0.093673036 -0.095005319 0.17603123
0.093673006 -0.096244007 0.17622787
0.093672931 -0.097479299 0.176424
0.093672842 -0.098711148 0.17661953
0.093672805 -0.099939615 0.17681459
0.093672745 -0.10116467 0.17700905
0.093962014 -0.10228287 0.17688772
0.094292119 -0.1033856 0.17672184
0.094622038 -0.10448769 0.17655602
0.094951749 -0.10558911 0.17639032
0.095281258 -0.10668987 0.17622468
0.095610626 -0.10778996 0.1760591
0.095939755 -0.10888942 0.1758936
0.096268699 -0.10998824 0.17572835
0.096597441 -0.1110864 0.1755631
0.096925989 -0.11218391 0.17539793
0.097254381 -0.11328077 0.17523286
0.097582534 -0.11437699 0.17506787
0.097910538 -0.11547254 0.17490304
0.098238304 -0.11656748 0.17473835
0.098565906 -0.11766173 0.1745736
0.0988933 -0.11875537 0.17440909
0.099220522 -0.11984837 0.17424458
0.099600017 -0.1209254 0.17402357
0.10009601 -0.12196866 0.17367685
0.10059226 -0.12301245 0.17333004
0.10108881 -0.12405676 0.17298299
0.10158553 -0.12510158 0.17263576
0.10208252 -0.12614694 0.17228836
0.10257976 -0.12719278 0.1719408
0.10307726 -0.12823915 0.1715931
0.10357502 -0.12928605 0.17124516
0.104073 -0.13033348 0.17089713
0.10457121 -0.13138144 0.17054883
0.1050697 -0.1324299 0.17020044
0.10556841 -0.13347889 0.16985184
0.10606742 -0.13452837 0.16950309
0.10656664 -0.13557842 0.16915411
0.10706609 -0.13662896 0.168805
0.10756582 -0.13768004 0.16845572
0.10806577 -0.13873164 0.16810629
0.10856603 -0.13978377 0.16775659
0.1090665 -0.1408364 0.1674068
0.10956722 -0.14188959 0.1670568
0.11006819 -0.14294328 0.16670665
0.11056937 -0.14399751 0.16635627
0.11107089 -0.14505228 0.16600573
0.11157259 -0.14610752 0.16565508
0.11207457 -0.14716335 0.16530418
0.11257678 -0.14821966 0.16495314
0.11307926 -0.14927652 0.16460198
0.11358198 -0.1503339 0.16425058
0.11408493 -0.15139183 0.16389903
0.11458814 -0.15245028 0.16354734
0.11509165 -0.15350926 0.16319543
0.11559536 -0.15456876 0.16284326
0.11609931 -0.15562879 0.16249108
0.11660351 -0.15668935 0.16213867
0.11710799 -0.15775046 0.16178599
0.11761272 -0.15881209 0.16143328
0.1181177 -0.15987422 0.16108024
0.11862295 -0.16093692 0.16072711
0.11912845 -0.16200013 0.16037378
0.11963417 -0.16306393 0.16002032
0.12014018 -0.16412817 0.15966663
0.12064639 -0.16519301 0.15931278
0.12115289 -0.16625838 0.15895879
0.12165965 -0.16732427 0.15860456
0.12216666 -0.16839071 0.15825021
0.12267394 -0.16945766 0.15789565
0.12318146 -0.17052515 0.15754086
0.12368922 -0.17159317 0.157186
