# .PCD v0.7 - Point Cloud Data file format
VERSION 0.7
FIELDS x y z
SIZE 4 4 4
TYPE F F F
COUNT 1 1 1
WIDTH 1343
HEIGHT 1
VIEWPOINT 0 0 0 1 0 0 0
POINTS 1343
DATA ascii
-0.14816427 0.008363422 0.18970698
0.14845096 -0.0057415478 0.1918453
0.14736585 -0.0056266235 0.19190049
0.14628054 -0.0055116843 0.19195557
0.14519499 -0.0053967303 0.19201073
0.1441092 -0.0052817315 0.19206592
0.14302316 -0.0051667173 0.19212112
0.14193693 -0.0050516739 0.19217628
0.14085042 -0.0049366304 0.19223151
0.13976368 -0.0048214975 0.19228679
0.13867675 -0.0047063637 0.19234204
0.13758956 -0.0045912308 0.19239724
0.13650216 -0.0044760681 0.19245249
0.13541451 -0.0043608756 0.19250777
0.13432659 -0.0042456528 0.19256303
0.13323848 -0.0041304305 0.19261831
0.13215014 -0.0040151486 0.19267362
0.13106155 -0.0038998667 0.19272897
0.12997274 -0.0037845699 0.19278431
0.12888367 -0.0036691984 0.19283971
0.1277944 -0.0035538271 0.192895
0.12670487 -0.0034384406 0.1929504
0.12561512 -0.0033230246 0.19300571
0.12452513 -0.0032076086 0.19306111
0.12343491 -0.0030921476 0.19311649
0.12234446 -0.0029766422 0.19317195
0.12125377 -0.0028611517 0.19322738
0.12016283 -0.0027456165 0.19328278
0.11907168 -0.0026300512 0.19333822
0.11798029 -0.0025144117 0.19339368
0.11688866 -0.0023988169 0.1934492
0.11579681 -0.0022831773 0.19350469
0.11470471 -0.0021675229 0.19356012
0.11361236 -0.0020518384 0.19361567
0.11251982 -0.0019361394 0.1936712
0.11142701 -0.0018203956 0.19372672
0.11033398 -0.0017046368 0.19378227
0.1092407 -0.0015888483 0.19383779
0.10814721 -0.0014730598 0.1938934
0.10705345 -0.0013571818 0.19394901
0.10595947 -0.0012413039 0.19400457
0.10486526 -0.0011254259 0.19406021
0.10377083 -0.0010095331 0.19411573
0.10267615 -0.00089358067 0.19417143
0.10158122 -0.00077762821 0.19422701
0.10048607 -0.00066166092 0.19428268
0.099390686 -0.00054563401 0.19433835
0.098295055 -0.00042957728 0.19439402
0.097199202 -0.00031353545 0.19444975
0.096103109 -0.00019741914 0.19450542
0.095006764 -8.1332648e-05 0.19456118
0.093910195 3.4813456e-05 0.19461688
0.092813402 0.00015097446 0.19467261
0.091716364 0.00026716525 0.19472834
0.09061908 0.00038335606 0.19478413
0.089521572 0.00049959152 0.19483984
0.088423818 0.00061588665 0.19489563
0.087325834 0.00073216681 0.19495147
0.086227618 0.00084849173 0.19500729
0.085129172 0.00096480164 0.19506308
0.084030464 0.0010811861 0.19511893
0.082931533 0.0011975557 0.19517478
0.081832364 0.00131397 0.19523063
0.080732957 0.0014303993 0.19528651
0.07963331 0.001546873 0.19534239
0.078533418 0.0016633469 0.19539827
0.07743331 0.0017798804 0.19545421
0.076332957 0.0018964139 0.19551015
0.075232379 0.0020129771 0.19556606
0.074131556 0.0021295701 0.19562197
0.073030479 0.002246178 0.19567791
0.071929157 0.002362801 0.1957339
0.070827626 0.0024794685 0.1957899
0.069725849 0.0025961658 0.19584584
0.068623841 0.002712863 0.19590187
0.06752158 0.002829605 0.19595784
0.066419072 0.0029463917 0.1960139
0.065316357 0.0030631935 0.19606999
0.064213395 0.0031799951 0.19612595
0.063110173 0.0032968414 0.19618201
0.062006731 0.0034136877 0.19623807
0.06090305 0.0035305936 0.19629422
0.059799127 0.0036474995 0.19635031
0.05869497 0.0037644501 0.19640639
0.057590563 0.0038814007 0.19646245
0.056485929 0.0039984258 0.19651869
0.055381052 0.0041154213 0.19657481
0.054275941 0.0042324611 0.19663095
0.053170588 0.0043495307 0.19668713
0.052064996 0.0044666305 0.19674334
0.050959159 0.0045837304 0.19679946
0.04985309 0.0047008744 0.19685575
0.04874678 0.0048180334 0.19691193
0.047640227 0.0049352078 0.19696808
0.046533439 0.0050524562 0.19702441
0.045426417 0.0051697195 0.19708064
0.044319145 0.0052869976 0.19713697
0.043211631 0.0054042768 0.19719318
0.042103887 0.0055215997 0.19724953
0.040995903 0.0056389375 0.1973058
0.039887678 0.0057562902 0.19736212
0.038779221 0.0058736876 0.19741842
0.037670501 0.0059911297 0.19747478
0.036561556 0.0061085722 0.19753116
0.035452373 0.0062260595 0.19758752
0.034342945 0.0063435761 0.19764391
0.033233277 0.0064610778 0.19770026
0.032123376 0.0065786242 0.19775668
0.031013221 0.0066962005 0.19781309
0.02990284 0.0068138065 0.19786957
0.028792202 0.0069314274 0.19792596
0.027681338 0.0070490786 0.1979824
0.026570229 0.0071667447 0.19803888
0.025458872 0.0072844401 0.19809535
0.024347289 0.0074021802 0.1981518
0.023235451 0.0075199353 0.19820833
0.022123385 0.007637735 0.19826487
0.021011068 0.0077555198 0.19832137
0.019898506 0.007873334 0.19837794
0.01878571 0.0079912087 0.1984345
0.017672667 0.0081090676 0.19849104
0.016559385 0.008226987 0.19854757
0.015445873 0.0083449055 0.19860411
0.014332105 0.0084628845 0.19866076
0.013218103 0.0085808784 0.19871736
0.012103857 0.0086988714 0.19877395
0.010989374 0.0088168951 0.19883057
0.0098746447 0.0089349775 0.19888726
0.0087596625 0.0090530459 0.19894391
0.0076444526 0.0091711581 0.19900063
0.0065289931 0.0092892861 0.19905731
0.0054132915 0.0094074588 0.19911402
0.0042973477 0.0095256455 0.19917071
0.0031811735 0.0096438779 0.19922739
0.0020647529 0.0097621093 0.19928414
0.0009480865 0.0098804161 0.19934094
-0.0001733478 0.0099825095 0.19937965
-0.0013246676 0.0099808043 0.19930282
-0.0024772277 0.0099790385 0.19922584
-0.0036310211 0.0099773025 0.1991488
-0.0047860621 0.0099755516 0.19907168
-0.0059423549 0.0099738007 0.19899443
-0.0070998846 0.0099720797 0.19891718
-0.0082586771 0.009970299 0.19883972
-0.0094187139 0.0099685779 0.1987623
-0.010580006 0.009966827 0.19868478
-0.011742565 0.0099650463 0.19860709
-0.012906364 0.0099633252 0.19852939
-0.014071449 0.0099615296 0.19845155
-0.01523777 0.0099597787 0.19837368
-0.016405368 0.0099579981 0.19829574
-0.017574219 0.0099562621 0.19821769
-0.018744355 0.0099544814 0.19813958
-0.019915754 0.0099527147 0.19806129
-0.021088419 0.0099509638 0.19798306
-0.022262378 0.0099491682 0.19790459
-0.023437602 0.0099474164 0.19782618
-0.024614112 0.0099456059 0.19774753
-0.02579188 0.009943855 0.19766888
-0.026970956 0.0099420734 0.19759014
-0.028151322 0.0099402778 0.19751137
-0.029332951 0.0099385129 0.19743243
-0.030515891 0.0099366866 0.19735342
-0.031700104 0.0099349208 0.19727436
-0.032885626 0.0099331392 0.19719517
-0.034072429 0.0099313436 0.19711593
-0.035260532 0.0099295471 0.19703659
-0.036449946 0.0099277506 0.19695714
-0.03764065 0.009925955 0.19687766
-0.038832676 0.0099241585 0.196798
-0.040025979 0.0099223778 0.19671842
-0.041220628 0.0099205365 0.19663858
-0.042416573 0.0099187251 0.19655874
-0.043613818 0.0099169435 0.19647878
-0.044812392 0.0099151181 0.19639868
-0.046012267 0.0099133216 0.19631857
-0.04721348 0.0099114953 0.19623837
-0.048416007 0.0099096838 0.19615811
-0.049619861 0.0099078575 0.1960777
-0.050825045 0.0099060163 0.19599721
-0.052031528 0.0099042198 0.19591665
-0.053239379 0.0099024083 0.19583601
-0.054448534 0.0099005969 0.19575524
-0.055659037 0.0098987408 0.19567436
-0.056870878 0.0098969443 0.19559351
-0.058084056 0.0098950882 0.1955125
-0.059298586 0.009893232 0.19543132
-0.060514439 0.0098914206 0.19535017
-0.061731655 0.0098895952 0.19526893
-0.062950209 0.009887754 0.19518751
-0.064170122 0.0098858969 0.19510603
-0.065391369 0.0098840706 0.19502452
-0.066613995 0.0098822145 0.19494283
-0.067837946 0.0098804031 0.19486114
-0.069063284 0.009878546 0.19477928
-0.070289984 0.0098766601 0.19469735
-0.071518049 0.0098748188 0.19461536
-0.072747469 0.009872932 0.19453329
-0.073978283 0.0098710461 0.19445103
-0.075210445 0.0098692039 0.19436875
-0.07644397 0.0098673627 0.19428638
-0.077678889 0.0098654609 0.19420385
-0.078915171 0.0098635899 0.19412136
-0.080152854 0.0098617179 0.19403869
-0.081391901 0.0098598311 0.1939559
-0.082632355 0.0098579302 0.19387305
-0.083874173 0.0098560583 0.19379017
-0.085117377 0.0098541863 0.19370711
-0.086361989 0.0098523004 0.19362396
-0.087607995 0.0098504135 0.19354075
-0.088855393 0.0098485118 0.19345748
-0.090104178 0.00984661 0.1933741
-0.091354378 0.0098447083 0.19329056
-0.092605993 0.0098427925 0.19320694
-0.093859002 0.0098408917 0.19312325
-0.095113397 0.0098390197 0.19303954
-0.096369222 0.009837118 0.19295558
-0.097626463 0.0098352013 0.19287166
-0.098885112 0.0098332847 0.19278762
-0.10014518 0.0098313829 0.19270343
-0.1014067 0.0098294364 0.19261917
-0.1026696 0.0098275496 0.19253483
-0.10393392 0.0098256469 0.19245046
-0.10519968 0.0098237302 0.19236588
-0.10646689 0.0098217838 0.19228125
-0.10773551 0.009819882 0.19219649
-0.10900556 0.0098179653 0.19211173
-0.11027707 0.009816003 0.19202673
-0.11155003 0.0098140715 0.19194171
-0.11282437 0.0098121697 0.19185668
-0.1141002 0.0098102223 0.19177145
-0.11537749 0.0098082907 0.19168612
-0.1166562 0.0098063434 0.19160074
-0.11793637 0.0098043969 0.19151527
-0.11921801 0.0098024495 0.19142964
-0.12050109 0.009800503 0.19134396
-0.1217856 0.0097985705 0.19125813
-0.1230716 0.0097966241 0.1911723
-0.12435908 0.0097946618 0.19108626
-0.12564804 0.0097926864 0.19100022
-0.12693842 0.0097907688 0.19091398
-0.12823029 0.0097887767 0.19082776
-0.12952368 0.0097868145 0.19074136
-0.13081849 0.0097848382 0.19065481
-0.13211477 0.0097829057 0.19056836
-0.13341257 0.0097809136 0.19048166
-0.13471183 0.0097789513 0.19039482
-0.13601257 0.009776989 0.19030795
-0.13731483 0.0097749969 0.19022101
-0.13861856 0.0097730346 0.19013396
-0.1399238 0.0097710425 0.19004679
-0.14123051 0.0097690951 0.18995953
-0.14253873 0.009767103 0.18987215
-0.14384848 0.0097651109 0.18978462
-0.14515971 0.0097631039 0.18969709
-0.14647245 0.0097611267 0.18960947
-0.14778671 0.0097591197 0.18952164
-0.14910249 0.0097571127 0.18943372
0.14845742 -0.0044591343 0.1916514
0.14737351 -0.0043441798 0.19170648
0.14628938 -0.0042292108 0.19176152
0.14520501 -0.0041142269 0.1918166
0.14412042 -0.0039992426 0.19187173
0.14303559 -0.0038842137 0.19192681
0.14195055 -0.0037691551 0.19198191
0.14086527 -0.0036540669 0.19203705
0.13977975 -0.0035389636 0.19209215
0.13869399 -0.0034238454 0.19214731
0.13760799 -0.0033086974 0.19220254
0.13652176 -0.0031935049 0.19225776
0.13543531 -0.0030782972 0.19231293
0.13434863 -0.0029630749 0.19236806
0.13326174 -0.0028478375 0.19242328
0.13217458 -0.0027325407 0.19247854
0.1310872 -0.0026172434 0.19253376
0.12999958 -0.0025019168 0.19258901
0.12891172 -0.00238659 0.19264427
0.12782365 -0.0022711889 0.19269955
0.12673533 -0.0021557878 0.19275483
0.1256468 -0.0020403715 0.19281015
0.12455799 -0.0019249108 0.19286546
0.123469 -0.00180945 0.1929208
0.12237974 -0.0016939593 0.19297606
0.12129026 -0.0015784241 0.19303146
0.12020054 -0.0014628739 0.19308677
0.11911058 -0.0013473089 0.19314215
0.1180204 -0.0012317139 0.19319749
0.11692999 -0.0011161041 0.19325289
0.11583934 -0.0010004496 0.19330826
0.11474844 -0.00088475045 0.19336376
0.11365733 -0.00076905126 0.19341913
0.11256599 -0.00065332226 0.19347462
0.11147437 -0.00053759327 0.19353005
0.11038257 -0.00042183453 0.19358546
0.10929053 -0.00030603103 0.19364095
0.10819821 -0.00019019778 0.19369647
0.10710569 -7.4364514e-05 0.19375193
0.10601293 4.1498548e-05 0.19380742
0.10491993 0.00015739141 0.19386294
0.10382672 0.00027334387 0.1939185
0.10273323 0.00038928143 0.19397405
0.10163954 0.00050526368 0.1940296
0.10054559 0.00062123098 0.19408518
0.09945143 0.00073725794 0.19414076
0.098357022 0.00085331465 0.19419637
0.097262383 0.00096938631 0.19425195
0.096167512 0.0010854878 0.19430763
0.095072396 0.0012016041 0.19436318
0.093977034 0.0013177353 0.19441882
0.092881456 0.001433956 0.19447452
0.091785647 0.0015501318 0.19453016
0.0906896 0.0016663674 0.19458586
0.089593299 0.0017826029 0.19464159
0.088496774 0.0018988533 0.1946972
0.087400012 0.0020151783 0.19475299
0.086303018 0.0021314882 0.19480866
0.085205778 0.0022478132 0.19486442
0.084108315 0.0023642275 0.19492024
0.083010606 0.0024806119 0.19497591
0.081912674 0.002597041 0.19503173
0.080814481 0.0027134854 0.19508752
0.079716079 0.0028299442 0.19514325
0.078617409 0.0029464329 0.19519907
0.077518538 0.0030629665 0.19525492
0.076419413 0.0031795148 0.19531068
0.075320043 0.0032960782 0.19536656
0.074220441 0.003412701 0.19542244
0.073120609 0.0035292939 0.19547829
0.072020538 0.0036459467 0.1955342
0.070920229 0.0037626142 0.19559011
0.069819689 0.0038793413 0.19564596
0.068718888 0.0039960388 0.1957019
0.067617863 0.004112781 0.19575781
0.066516615 0.0042295377 0.19581375
0.065415114 0.0043463395 0.19586974
0.064313367 0.0044631711 0.19592571
0.063211419 0.004580047 0.19598171
0.062109206 0.0046969233 0.19603765
0.061006758 0.0048138141 0.19609365
0.059904072 0.0049307202 0.19614965
0.058801144 0.0050476706 0.19620568
0.057697978 0.0051646368 0.19626173
0.056594592 0.0052816467 0.19631776
0.055490941 0.0053986716 0.19637385
0.054387074 0.0055157267 0.19642994
0.053282965 0.0056328112 0.19648603
0.052178603 0.0057499106 0.19654214
0.051074017 0.0058670403 0.19659823
0.049969189 0.0059841997 0.19665435
0.048864115 0.0061013587 0.1967105
0.04775881 0.0062185479 0.19676664
0.046653263 0.0063357814 0.19682279
0.045547485 0.0064530447 0.19687897
0.044441454 0.006570308 0.19693509
0.043335188 0.006687602 0.19699132
0.042228699 0.0068049696 0.19704759
0.041121949 0.0069223223 0.19710374
0.040014967 0.007039675 0.19716004
0.038907759 0.0071571027 0.19721624
0.037800293 0.007274515 0.19727254
0.036692597 0.0073919869 0.19732881
0.035584655 0.0075094742 0.19738501
0.034476481 0.007626961 0.19744134
0.033368059 0.0077444781 0.19749764
0.032259408 0.0078620687 0.19755399
0.031150516 0.0079796454 0.19761032
0.03004138 0.0080972519 0.19766667
0.028932001 0.0082148723 0.19772297
0.027822383 0.0083325384 0.19777939
0.026712524 0.0084502036 0.19783577
0.02560243 0.0085679293 0.19789213
0.024492087 0.008685654 0.19794852
0.023381511 0.0088034244 0.19800487
0.022270683 0.0089212097 0.19806135
0.021159641 0.0090390537 0.19811782
0.020048335 0.0091568837 0.19817424
0.018936794 0.0092747426 0.19823077
0.017825013 0.0093926322 0.19828722
0.016712992 0.0095105367 0.19834366
0.015600732 0.009628471 0.19840014
0.014488216 0.0097464202 0.19845667
0.013375475 0.0098644281 0.19851324
0.012262491 0.0099824509 0.19856977
0.011149262 0.010100503 0.19862634
0.010035796 0.010218572 0.19868284
0.008922087 0.010336654 0.19873947
0.0078081251 0.010454767 0.198796
0.0066939322 0.010572909 0.19885263
0.0055794935 0.010691082 0.19890922
0.00446482 0.01080927 0.19896588
0.0033498935 0.010927486 0.1990225
0.0022347397 0.011045733 0.19907916
0.0011193437 0.011164024 0.19913581
3.7054399e-06 0.011282346 0.19919252
-0.0011454948 0.01128368 0.19911826
-0.0022965947 0.011282615 0.19904125
-0.0034489278 0.01128161 0.19896421
-0.0046025012 0.011280544 0.19888705
-0.0057573076 0.011279538 0.19880989
-0.0069133807 0.011278473 0.1987325
-0.0080706868 0.011277437 0.19865516
-0.0092292558 0.011276387 0.1985777
-0.010389058 0.011275336 0.19850016
-0.011550123 0.011274301 0.19842252
-0.012712447 0.011273235 0.19834477
-0.013876019 0.011272214 0.19826701
-0.015040861 0.011271134 0.19818905
-0.01620695 0.011270113 0.19811109
-0.017374314 0.011269018 0.19803298
-0.018542938 0.011267982 0.19795483
-0.019712828 0.011266946 0.19787663
-0.020883996 0.01126588 0.19779831
-0.022056423 0.011264845 0.19771993
-0.023230139 0.011263779 0.19764143
-0.024405118 0.011262728 0.1975629
-0.025581382 0.011261662 0.1974842
-0.026758922 0.011260582 0.19740546
-0.027937746 0.011259531 0.1973266
-0.029117858 0.01125845 0.19724771
-0.030299244 0.011257415 0.19716871
-0.031481922 0.011256333 0.19708964
-0.032665897 0.011255268 0.19701046
-0.033851169 0.011254202 0.19693121
-0.035037722 0.011253121 0.19685185
-0.036225583 0.011252055 0.19677243
-0.037414741 0.011250975 0.19669285
-0.038605187 0.011249923 0.19661331
-0.039796941 0.011248857 0.19653362
-0.04099001 0.011247776 0.19645384
-0.04218439 0.011246695 0.19637394
-0.04338007 0.0112456 0.19629401
-0.044577062 0.011244519 0.19621393
-0.045775369 0.011243438 0.19613382
-0.046974983 0.011242387 0.19605359
-0.048175931 0.011241276 0.19597325
-0.049378194 0.011240195 0.19589287
-0.050581776 0.011239113 0.1958124
-0.05178668 0.011238032 0.19573185
-0.052992914 0.011236952 0.19565117
-0.054200493 0.011235856 0.19557044
-0.055409372 0.011234804 0.19548965
-0.056619603 0.011233708 0.1954087
-0.057831176 0.011232596 0.19532758
-0.059044074 0.0112315 0.19524652
-0.060258336 0.011230374 0.19516531
-0.061473899 0.011229322 0.19508404
-0.062690847 0.011228211 0.19500268
-0.063909106 0.011227145 0.19492128
-0.065128736 0.011226049 0.19483966
-0.066349715 0.011224937 0.19475797
-0.06757205 0.011223811 0.19467625
-0.068795748 0.011222685 0.19459441
-0.070020795 0.011221603 0.19451252
-0.071247205 0.011220477 0.19443047
-0.072474986 0.011219366 0.19434834
-0.073704131 0.011218239 0.1942662
-0.074934624 0.011217113 0.1941838
-0.076166511 0.011216001 0.19410142
-0.077399753 0.011214875 0.19401902
-0.078634381 0.011213733 0.19393641
-0.079870366 0.011212637 0.19385377
-0.081107728 0.011211525 0.193771
-0.082346499 0.011210399 0.19368812
-0.083586641 0.011209257 0.19360521
-0.084828168 0.01120813 0.19352216
-0.086071081 0.011206989 0.19343907
-0.087315388 0.011205862 0.1933558
-0.088561073 0.011204765 0.19327253
-0.089808166 0.011203623 0.19318914
-0.09105666 0.011202483 0.19310567
-0.092306554 0.011201341 0.19302204
-0.093557827 0.011200214 0.19293836
-0.094810545 0.011199072 0.19285461
-0.09606465 0.01119793 0.19277072
-0.097320154 0.011196818 0.19268674
-0.098577075 0.011195648 0.19260266
-0.099835403 0.011194536 0.19251856
-0.10109515 0.011193379 0.19243431
-0.10235635 0.011192222 0.19234991
-0.10361893 0.011191065 0.19226551
-0.10488296 0.011189924 0.1921809
-0.1061484 0.011188752 0.19209635
-0.10741524 0.011187639 0.19201162
-0.10868354 0.011186467 0.19192675
-0.10995328 0.011185341 0.19184187
-0.11122447 0.011184184 0.19175681
-0.11249707 0.011183011 0.19167173
-0.11377111 0.01118187 0.19158652
-0.11504662 0.011180713 0.19150126
-0.11632355 0.011179555 0.19141582
-0.11760192 0.011178384 0.19133034
-0.11888175 0.011177226 0.19124475
-0.12016304 0.011176069 0.19115904
-0.1214458 0.011174882 0.19107324
-0.12273001 0.011173725 0.19098741
-0.12401566 0.011172553 0.19090137
-0.12530278 0.011171411 0.19081533
-0.12659134 0.011170238 0.19072911
-0.12788142 0.011169051 0.19064286
-0.12917295 0.011167864 0.19055644
-0.13046594 0.011166692 0.19046995
-0.13176042 0.011165519 0.1903834
-0.13305637 0.011164347 0.19029671
-0.13435379 0.01116319 0.19021001
-0.13565271 0.011161988 0.19012311
-0.13695312 0.011160815 0.19003615
-0.13825499 0.011159643 0.1899491
-0.13955839 0.01115844 0.18986192
-0.14086324 0.011157283 0.18977466
-0.14216962 0.011156065 0.18968725
-0.14347748 0.011154893 0.18959981
-0.14478682 0.011153705 0.18951228
-0.14609769 0.011152533 0.18942457
-0.14741009 0.011151316 0.18933687
-0.14872399 0.011150113 0.18924892
0.14846385 -0.0031794917 0.19145787
0.14738116 -0.003064567 0.19151288
0.14629821 -0.002949598 0.1915679
0.14521505 -0.0028345988 0.19162288
0.14413166 -0.0027195702 0.1916779
0.14304802 -0.0026045262 0.19173291
0.14196415 -0.0024894529 0.19178796
0.14088006 -0.0023743794 0.19184303
0.13979572 -0.0022592612 0.19189805
0.13871118 -0.0021441132 0.19195318
0.13762639 -0.0020289654 0.19200829
0.13654137 -0.0019137727 0.19206333
0.13545612 -0.0017985501 0.19211844
0.13437063 -0.0016833426 0.19217357
0.13328491 -0.0015680307 0.1922287
0.13219894 -0.0014527636 0.19228387
0.1311128 -0.0013374368 0.192339
0.13002636 -0.0012221249 0.19239411
0.12893972 -0.0011067536 0.19244936
0.12785283 -0.00099136727 0.1925045
0.12676573 -0.00087596592 0.19255969
0.12567838 -0.00076053495 0.19261491
0.1245908 -0.00064508902 0.19267011
0.12350298 -0.00052961323 0.19272536
0.12241494 -0.00041407792 0.19278067
0.12132666 -0.00029852768 0.19283593
0.12023815 -0.00018297747 0.19289118
0.1191494 -6.739745e-05 0.19294646
0.11806042 4.8212376e-05 0.19300178
0.11697123 0.00016382219 0.19305703
0.11588179 0.00027947672 0.1931124
0.11479209 0.00039517591 0.19316766
0.11370219 0.00051087514 0.19322306
0.11261205 0.00062658917 0.19327834
0.11152166 0.00074239273 0.19333377
0.11043106 0.00085816643 0.19338921
0.10934021 0.00097396993 0.19344458
0.10824912 0.0010897883 0.19349998
0.10715782 0.0012056365 0.19355538
0.10606628 0.0013215294 0.19361082
0.10497447 0.0014374373 0.19366622
0.10388246 0.0015533598 0.19372165
0.10279021 0.0016692973 0.19377711
0.10169773 0.0017852797 0.19383261
0.100605 0.0019013216 0.19388813
0.099512056 0.0020173485 0.19394362
0.098418862 0.0021333904 0.19399908
0.097325437 0.0022494919 0.19405466
0.096231766 0.0023655933 0.19411021
0.095137894 0.0024817246 0.19416574
0.094043747 0.0025978556 0.1942212
0.092949368 0.0027140467 0.19427684
0.091854781 0.0028302523 0.19433245
0.09075994 0.0029464881 0.19438797
0.089664876 0.0030627532 0.19444364
0.088569574 0.0031790186 0.19449922
0.087474026 0.0032953138 0.19455492
0.086378261 0.0034116537 0.19461051
0.085282244 0.0035280082 0.19466618
0.08418601 0.0036443779 0.19472185
0.083089501 0.0037607923 0.19477752
0.08199279 0.0038772216 0.19483322
0.080895834 0.0039936956 0.19488895
0.079798654 0.004110184 0.19494465
0.07870122 0.0042266729 0.19500038
0.077603556 0.0043432214 0.19505605
0.076505654 0.0044597699 0.19511187
0.075407512 0.0045763333 0.19516757
0.074309155 0.004692941 0.19522333
0.07321056 0.004809564 0.19527918
0.072111703 0.0049262312 0.19533491
0.071012616 0.0050428994 0.19539073
0.069913298 0.0051596267 0.19544661
0.068813741 0.0052763834 0.19550243
0.067713954 0.0053931256 0.19555825
0.066613927 0.0055098971 0.19561413
0.065513656 0.005626699 0.19567004
0.06441316 0.0057435306 0.19572586
0.063312419 0.0058603771 0.19578177
0.062211443 0.0059772679 0.19583762
0.061110232 0.0060941591 0.19589359
0.060008775 0.0062111393 0.19594955
0.058907092 0.0063280752 0.19600549
0.057805166 0.0064450558 0.19606143
0.056702998 0.0065620509 0.19611743
0.055600595 0.006679106 0.19617337
0.054497961 0.0067961458 0.19622934
0.053395078 0.0069132308 0.19628534
0.052291963 0.0070303301 0.19634134
0.05118861 0.0071474598 0.19639736
0.050085023 0.0072646341 0.19645342
0.048981197 0.0073818527 0.19650948
0.047877133 0.0074990266 0.19656557
0.046772826 0.0076162755 0.19662163
0.045668282 0.0077335387 0.19667777
0.044563495 0.0078508025 0.19673386
0.043458477 0.0079681249 0.19678992
0.042353217 0.0080854641 0.19684607
0.041247722 0.0082028015 0.19690219
0.040141985 0.0083201844 0.19695827
0.039036009 0.0084376419 0.19701448
0.037929796 0.0085550686 0.19707069
0.03682334 0.0086725261 0.19712684
0.035716653 0.0087900124 0.19718301
0.034609728 0.0089075295 0.19723922
0.033502553 0.0090250764 0.19729546
0.032395143 0.0091426531 0.19735169
0.031287491 0.0092602149 0.1974079
0.030179603 0.0093778353 0.1974642
0.029071473 0.0094954567 0.19752046
0.027963113 0.0096131517 0.19757676
0.026854498 0.0097308327 0.19763306
0.025745656 0.0098485723 0.19768935
0.024636567 0.009966298 0.19774571
0.02352724 0.010084068 0.19780201
0.022417678 0.010201868 0.19785839
0.021307869 0.010319668 0.19791472
0.020197818 0.010437513 0.19797102
0.019087534 0.010555387 0.1980274
0.01797701 0.010673306 0.19808385
0.016866244 0.01079124 0.19814029
0.01575524 0.010909189 0.19819668
0.01464399 0.011027138 0.19825307
0.013532499 0.011145132 0.19830951
0.01242076 0.011263154 0.19836596
0.011308796 0.011381208 0.19842246
0.010196577 0.011499275 0.19847894
0.0090841316 0.011617374 0.19853535
0.0079714432 0.011735486 0.19859186
0.0068585137 0.011853688 0.19864842
0.0057453415 0.011971846 0.19870493
0.0046319198 0.012090048 0.19876149
0.0035182638 0.01220828 0.19881806
0.0024043652 0.012326526 0.19887459
0.0012902246 0.012444818 0.19893119
0.00017584921 0.012563124 0.19898772
-0.00096673903 0.012583502 0.19893423
-0.0021163786 0.012583137 0.19885713
-0.0032672589 0.012582801 0.19878009
-0.0044193608 0.012582467 0.19870293
-0.0055727223 0.012582102 0.19862565
-0.006727309 0.012581796 0.19854838
-0.0078831473 0.012581446 0.19847101
-0.00904023 0.012581126 0.19839352
-0.010198564 0.012580761 0.19831592
-0.011358154 0.012580411 0.19823825
-0.012518977 0.01258009 0.19816056
-0.013681074 0.01257974 0.19808272
-0.014844411 0.01257942 0.19800487
-0.01600902 0.01257904 0.19792685
-0.017174881 0.012578689 0.1978488
-0.018342003 0.012578369 0.19777066
-0.0195104 0.012578004 0.19769236
-0.020680051 0.012577668 0.19761404
-0.021850973 0.012577333 0.19753563
-0.023023158 0.012577012 0.19745722
-0.024196632 0.012576647 0.19737861
-0.025371376 0.012576282 0.19729996
-0.026547391 0.012575961 0.19722119
-0.027724693 0.012575611 0.19714233
-0.028903266 0.01257529 0.19706342
-0.030083129 0.012574924 0.19698447
-0.031264268 0.012574574 0.19690529
-0.032446709 0.012574223 0.19682613
-0.033630434 0.012573873 0.19674689
-0.034815446 0.012573522 0.19666755
-0.036001761 0.012573171 0.1965881
-0.037189346 0.012572835 0.19650859
-0.038378254 0.012572485 0.19642892
-0.03956845 0.012572164 0.19634929
-0.040759951 0.012571798 0.19626948
-0.041952766 0.012571433 0.19618958
-0.043146871 0.012571096 0.19610965
-0.044342302 0.01257073 0.1960296
-0.045539021 0.012570395 0.19594952
-0.046737075 0.012570029 0.19586927
-0.047936432 0.012569678 0.19578889
-0.049137112 0.012569327 0.19570854
-0.050339114 0.012568946 0.19562808
-0.05154242 0.012568625 0.19554746
-0.052747063 0.012568245 0.19546679
-0.053953029 0.012567923 0.19538602
-0.055160321 0.012567572 0.19530523
-0.056368936 0.012567221 0.19522426
-0.057578903 0.01256684 0.19514322
-0.058790207 0.012566474 0.19506216
-0.060002808 0.012566153 0.19498095
-0.061216787 0.012565787 0.19489965
-0.062432095 0.012565435 0.19481829
-0.063648775 0.012565039 0.19473675
-0.064866737 0.012564703 0.19465527
-0.066086091 0.012564337 0.19457358
-0.067306817 0.012563956 0.19449183
-0.068528861 0.012563589 0.19441003
-0.069752268 0.012563223 0.19432804
-0.07097704 0.012562842 0.19424596
-0.072203152 0.012562475 0.19416392
-0.073430628 0.012562109 0.19408172
-0.074659489 0.012561773 0.19399938
-0.075889699 0.012561391 0.19391704
-0.077121295 0.012560995 0.19383457
-0.078354254 0.012560628 0.19375193
-0.079588555 0.012560277 0.19366929
-0.080824278 0.01255991 0.19358656
-0.08206135 0.012559514 0.19350371
-0.083299793 0.012559162 0.19342074
-0.084539644 0.012558781 0.19333774
-0.085780866 0.0125584 0.19325462
-0.087023489 0.012558048 0.19317141
-0.088267475 0.012557666 0.19308805
-0.089512892 0.01255727 0.19300467
-0.090759672 0.012556888 0.19292113
-0.092007846 0.012556566 0.19283763
-0.09325742 0.012556154 0.19275388
-0.094508402 0.012555787 0.19267014
-0.095760785 0.012555405 0.1925863
-0.097014584 0.012555009 0.19250229
-0.098269776 0.012554658 0.19241822
-0.099526405 0.012554246 0.19233403
-0.1007844 0.012553894 0.19224986
-0.10204383 0.012553527 0.19216546
-0.10330469 0.012553129 0.19208103
-0.10456696 0.012552777 0.19199648
-0.10583067 0.012552381 0.19191188
-0.10709579 0.012551999 0.19182712
-0.10836234 0.012551602 0.19174227
-0.1096303 0.012551235 0.19165739
-0.1108997 0.012550867 0.19157243
-0.11217055 0.012550486 0.19148734
-0.11344282 0.012550104 0.19140205
-0.11471654 0.012549708 0.19131681
-0.1159917 0.01254934 0.19123137
-0.11726832 0.012548943 0.19114584
-0.11854636 0.01254856 0.1910603
-0.11982585 0.012548193 0.19097462
-0.12110681 0.012547781 0.19088882
-0.12238923 0.012547399 0.19080293
-0.12367307 0.012547016 0.19071698
-0.12495839 0.012546634 0.19063088
-0.12624517 0.012546252 0.19054472
-0.12753342 0.01254584 0.19045845
-0.12882312 0.012545487 0.19037205
-0.13011429 0.012545089 0.19028559
-0.13140696 0.012544692 0.19019902
-0.13270108 0.012544295 0.19011241
-0.13399668 0.012543912 0.19002554
-0.13529377 0.012543514 0.18993872
-0.13659233 0.012543117 0.18985173
-0.13789237 0.012542749 0.18976468
-0.13919388 0.012542352 0.18967751
-0.14049691 0.012541969 0.18959028
-0.14180142 0.012541572 0.18950289
-0.14310741 0.012541174 0.18941548
-0.14441492 0.012540776 0.18932787
-0.14572394 0.012540394 0.18924028
-0.14703445 0.012539995 0.18915245
-0.14834642 0.012539597 0.18906459
0.14847025 -0.0019026654 0.19126487
0.14738877 -0.0017877111 0.1913197
0.14630702 -0.0016727567 0.19137469
0.14522503 -0.0015577577 0.19142959
0.14414284 -0.0014427289 0.19148448
0.1430604 -0.0013276852 0.19153947
0.14197774 -0.0012125968 0.19159442
0.14089483 -0.0010974935 0.19164941
0.13981168 -0.00098234543 0.19170439
0.13872834 -0.00086722721 0.19175935
0.13764474 -0.00075204944 0.19181436
0.13656093 -0.00063684181 0.19186938
0.13547686 -0.0005216343 0.19192436
0.13439254 -0.00040636706 0.19197944
0.13330804 -0.00029111482 0.19203448
0.13222329 -0.00017581781 0.19208959
0.13113831 -6.0476134e-05 0.1921446
0.1300531 5.4865541e-05 0.19219974
0.12896763 0.00017023701 0.19225481
0.12788197 0.00028563829 0.19230992
0.12679604 0.00040105445 0.19236508
0.12570989 0.00051650044 0.19242013
0.12462351 0.00063197617 0.19247529
0.12353691 0.00074743707 0.19253051
0.12245008 0.00086295744 0.19258559
0.12136299 0.00097850768 0.19264078
0.12027568 0.0010940579 0.19269603
0.11918814 0.0012096678 0.19275117
0.11810037 0.0013253074 0.19280639
0.11701237 0.0014409471 0.19286165
0.11592411 0.0015566016 0.1929169
0.11483564 0.001672286 0.19297215
0.11374693 0.001788015 0.19302738
0.11265802 0.001903759 0.19308266
0.11156883 0.0020195178 0.19313791
0.11047943 0.0021353066 0.19319326
0.10938979 0.0022510949 0.19324854
0.10829992 0.0023669878 0.19330391
0.1072098 0.0024828212 0.19335923
0.10611948 0.0025987141 0.19341457
0.10502891 0.002714637 0.19346994
0.10393809 0.0028305894 0.19352528
0.10284705 0.0029465419 0.19358069
0.10175578 0.0030625092 0.19363603
0.10066427 0.0031785362 0.19369143
0.099572532 0.0032945634 0.19374689
0.09848056 0.0034106348 0.19380227
0.097388335 0.0035267514 0.19385773
0.096295893 0.0036428678 0.19391322
0.095203206 0.0037589839 0.19396862
0.094110295 0.0038751601 0.19402415
0.093017153 0.003991351 0.19407964
0.091923758 0.0041075568 0.19413513
0.090830132 0.0042237919 0.19419062
0.08973629 0.0043400577 0.19424614
0.088642202 0.0044563231 0.19430166
0.087547891 0.0045726332 0.19435719
0.086453326 0.0046889875 0.19441283
0.085358538 0.0048053572 0.19446835
0.084263496 0.0049217572 0.19452399
0.083168253 0.0050381864 0.19457954
0.082072742 0.0051545855 0.19463509
0.080977015 0.0052710595 0.19469076
0.079881042 0.0053875335 0.19474638
0.078784838 0.0055040517 0.19480202
0.077688381 0.0056206305 0.19485772
0.076591723 0.0057371641 0.19491333
0.075494826 0.0058537717 0.19496909
0.074397661 0.0059703649 0.19502476
0.07330028 0.0060870177 0.19508049
0.072202645 0.0062036854 0.19513616
0.071104802 0.006320368 0.19519192
0.070006713 0.00643708 0.19524762
0.068908386 0.0065538222 0.19530338
0.06780982 0.0066705793 0.19535905
0.066711023 0.0067873956 0.1954149
0.065611981 0.0069042128 0.19547072
0.064512707 0.0070210588 0.19552648
0.063413203 0.0071378904 0.1955823
0.062313452 0.007254811 0.19563809
0.061213475 0.0073717022 0.19569394
0.060113251 0.0074886675 0.19574985
0.059012804 0.0076056039 0.19580567
0.0579121 0.007722599 0.19586155
0.056811173 0.0078396387 0.1959174
0.055710003 0.0079566501 0.19597337
0.054608606 0.008073749 0.19602922
0.053506956 0.0081908191 0.19608516
0.052405085 0.0083079478 0.19614106
0.051302962 0.0084250784 0.19619706
0.050200604 0.0085422518 0.19625297
0.049098019 0.008659441 0.19630894
0.047995187 0.0087766303 0.19636494
0.046892114 0.0088938931 0.19642091
0.04578881 0.0090111876 0.19647694
0.044685274 0.0091284802 0.19653293
0.043581489 0.0092458036 0.19658896
0.04247747 0.0093631409 0.19664499
0.041373216 0.0094805239 0.19670105
0.040268723 0.0095979068 0.19675711
0.039163984 0.0097153047 0.19681317
0.038059007 0.0098327473 0.19686925
0.036953796 0.0099502187 0.19692534
0.035848357 0.010067736 0.19698146
0.034742661 0.010185237 0.19703758
0.033636734 0.010302799 0.19709373
0.032530569 0.010420376 0.19714993
0.031424165 0.010537967 0.19720605
0.030317524 0.010655588 0.19726223
0.029210648 0.010773239 0.1973184
0.028103525 0.010890905 0.19737458
0.026996167 0.011008585 0.19743082
0.025888568 0.01112634 0.19748706
0.024780732 0.011244096 0.19754329
0.023672655 0.011361865 0.19759953
0.022564333 0.011479666 0.19765583
0.02145578 0.011597481 0.19771206
0.020346982 0.01171534 0.1977683
0.019237945 0.011833199 0.19782457
0.018128665 0.011951104 0.19788095
0.017019155 0.012069038 0.19793722
0.015909404 0.012187001 0.19799361
0.014799409 0.01230498 0.19804993
0.013689168 0.012422988 0.19810629
0.012578697 0.012541027 0.19816267
0.011467979 0.012659079 0.19821903
0.01035702 0.012777163 0.19827542
0.0092458297 0.01289526 0.1983318
0.008134394 0.013013388 0.19838822
0.0070227156 0.013131561 0.19844466
0.0059107952 0.013249733 0.19850111
0.0047986363 0.013367935 0.19855753
0.0036862427 0.013486181 0.19861403
0.002573607 0.013604473 0.19867054
0.0014607293 0.013722764 0.19872701
0.00034760562 0.013841071 0.19878358
-0.00078841171 0.013880209 0.1987505
-0.0019366024 0.013880559 0.19867346
-0.0030860149 0.013880939 0.19859642
-0.0042366679 0.013881289 0.19851923
-0.00538855 0.013881641 0.19844201
-0.0065416843 0.013882006 0.19836465
-0.0076960474 0.0138824 0.19828728
-0.0088516623 0.013882736 0.19820976
-0.010008521 0.013883071 0.19813225
-0.011166625 0.013883436 0.19805452
-0.01232598 0.013883801 0.19797683
-0.013486575 0.013884181 0.19789901
-0.014648441 0.013884531 0.19782111
-0.015811542 0.013884911 0.19774312
-0.016975911 0.013885276 0.19766501
-0.018141549 0.013885612 0.19758683
-0.019308433 0.013885992 0.19750866
-0.020476595 0.013886342 0.19743025
-0.021646004 0.013886722 0.1973519
-0.022816684 0.013887086 0.19727337
-0.023988646 0.013887451 0.19719484
-0.025161877 0.013887831 0.19711614
-0.026336376 0.013888166 0.19703731
-0.027512144 0.01388856 0.19695851
-0.028689196 0.01388891 0.19687957
-0.029867521 0.013889305 0.19680059
-0.031047141 0.013889655 0.19672149
-0.032228045 0.01388999 0.19664231
-0.033410221 0.013890399 0.19656304
-0.034593705 0.013890764 0.19648367
-0.035778455 0.013891143 0.19640419
-0.036964521 0.013891478 0.19632468
-0.038151864 0.013891872 0.19624507
-0.039340515 0.013892252 0.19616538
-0.040530469 0.013892601 0.1960856
-0.04172169 0.013893011 0.19600576
-0.042914256 0.01389336 0.19592571
-0.044108097 0.013893754 0.19584572
-0.045303266 0.013894103 0.19576561
-0.046499737 0.013894469 0.19568533
-0.047697518 0.013894848 0.19560501
-0.048896618 0.013895212 0.19552457
-0.05009703 0.013895606 0.19544414
-0.05129876 0.013895986 0.19536355
-0.052501801 0.013896365 0.19528285
-0.053706177 0.013896714 0.19520214
-0.054911863 0.013897108 0.19512129
-0.056118883 0.013897502 0.1950404
-0.057327248 0.013897896 0.19495931
-0.058536921 0.01389826 0.19487822
-0.059747949 0.013898624 0.19479701
-0.060960308 0.013898988 0.19471571
-0.062174004 0.013899367 0.19463435
-0.063389033 0.013899746 0.19455281
-0.064605422 0.01390008 0.19447127
-0.065823138 0.013900474 0.19438958
-0.067042209 0.013900823 0.19430783
-0.068262622 0.013901247 0.19422597
-0.069484383 0.013901611 0.19414407
-0.070707515 0.013901944 0.19406199
-0.071931988 0.013902338 0.19397989
-0.073157839 0.013902702 0.19389766
-0.074385032 0.01390308 0.19381541
-0.07561361 0.013903445 0.19373295
-0.076843493 0.013903867 0.19365057
-0.078074798 0.013904217 0.19356796
-0.079307459 0.013904596 0.19348532
-0.080541492 0.013904974 0.19340259
-0.081776895 0.013905337 0.19331965
-0.083013684 0.013905701 0.19323674
-0.084251836 0.013906093 0.19315371
-0.085491382 0.013906487 0.19307059
-0.086732313 0.01390688 0.19298732
-0.087974608 0.013907258 0.19290406
-0.089218311 0.013907623 0.19282067
-0.0904634 0.013908001 0.19273713
-0.091709875 0.013908394 0.19265363
-0.092957765 0.013908757 0.19256985
-0.094207041 0.013909136 0.19248611
-0.095457695 0.013909544 0.19240224
-0.096709758 0.013909922 0.19231826
-0.097963244 0.0139103 0.19223425
-0.099218145 0.013910678 0.19215006
-0.10047443 0.013911056 0.19206583
-0.10173214 0.013911449 0.19198146
-0.10299125 0.013911827 0.191897
-0.10425179 0.013912235 0.19181252
-0.10551373 0.013912599 0.19172785
-0.10677711 0.013912962 0.19164315
-0.1080419 0.013913385 0.19155833
-0.10930812 0.013913762 0.19147342
-0.1105758 0.01391411 0.19138834
-0.11184487 0.013914518 0.19130331
-0.11311536 0.013914926 0.19121814
-0.11438732 0.013915333 0.19113278
-0.1156607 0.013915696 0.1910474
-0.11693554 0.013916104 0.19096193
-0.11821181 0.013916481 0.19087633
-0.11948951 0.013916859 0.19079059
-0.1207687 0.013917237 0.19070479
-0.12204929 0.013917659 0.19061899
-0.12333133 0.013918066 0.19053304
-0.12461487 0.01391843 0.19044691
-0.12589984 0.013918822 0.19036072
-0.12718628 0.013919215 0.19027451
-0.12847421 0.013919592 0.19018808
-0.12976354 0.013919999 0.19010168
-0.1310544 0.013920377 0.19001508
-0.13234667 0.013920814 0.18992841
-0.13364045 0.013921206 0.18984172
-0.13493571 0.013921584 0.18975478
-0.13623242 0.013921991 0.18966779
-0.13753065 0.013922368 0.18958071
-0.13883035 0.01392276 0.1894936
-0.14013152 0.013923167 0.18940634
-0.14143415 0.013923574 0.18931904
-0.14273831 0.013923981 0.18923151
-0.14404395 0.013924373 0.18914402
-0.1453511 0.01392478 0.18905628
-0.14665973 0.013925172 0.18896854
-0.14796986 0.013925579 0.18888071
0.1484767 -0.00062865537 0.19107226
0.14739639 -0.0005136861 0.19112709
0.14631581 -0.00039870199 0.1911819
0.14523502 -0.00028370295 0.1912367
0.14415401 -0.0001686741 0.1912916
0.14307274 -5.3615477e-05 0.19134644
0.14199127 6.1472958e-05 0.19140127
0.14090958 0.00017657629 0.19145614
0.13982762 0.00029172431 0.19151109
0.13874544 0.00040687234 0.19156596
0.13766305 0.00052205013 0.19162089
0.13658041 0.00063728757 0.19167584
0.13549754 0.0007525101 0.19173083
0.13441445 0.00086774753 0.19178575
0.13333113 0.00098304451 0.19184077
0.13224758 0.0010983415 0.19189569
0.13116379 0.0012136684 0.19195065
0.13007975 0.0013290249 0.19200569
0.12899549 0.0014443964 0.19206065
0.12791102 0.0015598126 0.19211575
0.1268263 0.0016752585 0.1921708
0.12574136 0.0017906897 0.19222587
0.12465618 0.0019061804 0.19228086
0.12357077 0.0020216859 0.19233599
0.12248511 0.0021372063 0.19239104
0.12139924 0.0022527864 0.19244614
0.12031314 0.002368307 0.19250128
0.11922681 0.0024839318 0.19255638
0.11814023 0.0025995714 0.19261152
0.11705342 0.0027152111 0.19266671
0.11596636 0.0028309103 0.19272184
0.11487909 0.0029466245 0.19277701
0.1137916 0.0030623386 0.19283223
0.11270388 0.0031780675 0.19288737
0.1116159 0.0032938712 0.19294259
0.1105277 0.0034096597 0.19299778
0.10943927 0.0035254783 0.19305298
0.1083506 0.0036413264 0.19310823
0.10726171 0.0037571895 0.19316348
0.10617256 0.0038730826 0.19321877
0.1050832 0.0039890353 0.19327411
0.10399359 0.0041049877 0.1933293
0.10290376 0.0042209555 0.19338462
0.10181371 0.0043369373 0.19343993
0.1007234 0.0044529494 0.19349521
0.099632859 0.0045690062 0.19355059
0.098542117 0.0046850629 0.19360593
0.097451106 0.0048011797 0.19366127
0.096359864 0.0049172812 0.19371665
0.095268399 0.0050334274 0.19377202
0.09417671 0.0051496481 0.19382745
0.09308476 0.005265824 0.19388285
0.091992587 0.0053820447 0.19393829
0.090900198 0.0054982803 0.19399369
0.089807548 0.0056145457 0.19404915
0.088714689 0.0057308557 0.19410458
0.087621577 0.0058471658 0.19416004
0.086528249 0.0059635057 0.19421548
0.085434653 0.0060798754 0.19427097
0.084340855 0.0061962749 0.19432649
0.083246805 0.006312734 0.19438207
0.082152523 0.0064291633 0.19443756
0.08105801 0.0065456368 0.19449309
0.079963252 0.006662156 0.19454861
0.07886827 0.0067786598 0.19460416
0.077773049 0.0068951934 0.19465974
0.076677591 0.0070117712 0.19471535
0.075581916 0.0071283495 0.19477087
0.07448598 0.007244973 0.19482654
0.073389806 0.0073616402 0.19488218
0.072293416 0.0074783079 0.19493777
0.071196795 0.0075950054 0.1949935
0.070099927 0.0077117323 0.19504911
0.069002822 0.007828474 0.19510478
0.067905486 0.0079452619 0.19516045
0.066807911 0.008062033 0.19521612
0.06571009 0.0081788497 0.19527182
0.064612046 0.0082957121 0.19532752
0.063513763 0.0084126173 0.19538331
0.062415246 0.0085295234 0.19543904
0.061316486 0.0086464146 0.19549474
0.060217503 0.0087633803 0.19555053
0.059118271 0.0088803452 0.19560635
0.058018807 0.0089973258 0.19566211
0.056919113 0.009114367 0.1957179
0.055819172 0.0092313914 0.19577366
0.054718994 0.0093484763 0.19582951
0.053618588 0.0094655901 0.19588539
0.052517936 0.0095827058 0.19594121
0.051417053 0.0096998503 0.19599712
0.050315931 0.0098170387 0.19605294
0.049214579 0.0099342428 0.19610882
0.048112977 0.010051462 0.19616473
0.047011137 0.010168711 0.19622067
0.045909073 0.010285974 0.19627658
0.044806771 0.010403297 0.19633245
0.04370423 0.01052059 0.19638845
0.042601444 0.010637988 0.19644442
0.041498426 0.010755356 0.19650036
0.040395174 0.010872768 0.19655636
0.039291669 0.010990166 0.19661233
0.038187943 0.011107623 0.19666836
0.037083969 0.011225096 0.19672439
0.035979759 0.011342613 0.19678038
0.034875311 0.011460129 0.19683644
0.033770628 0.011577691 0.1968925
0.032665707 0.011695282 0.19694859
0.031560548 0.011812888 0.19700462
0.030455146 0.011930539 0.1970607
0.02934951 0.012048161 0.19711679
0.028243631 0.012165842 0.19717297
0.02713751 0.012283566 0.19722909
0.026031164 0.012401262 0.19728521
0.024924571 0.012519047 0.19734132
0.023817735 0.012636802 0.19739747
0.022710664 0.012754616 0.19745368
0.021603357 0.012872462 0.19750986
0.020495806 0.012990321 0.19756603
0.019388018 0.013108211 0.19762224
0.018279996 0.013226115 0.19767848
0.017171727 0.013344049 0.19773474
0.016063226 0.013462013 0.19779098
0.014954483 0.013579976 0.19784719
0.013845495 0.013698 0.19790345
0.012736271 0.013816022 0.19795975
0.01162681 0.013934121 0.19801608
0.01051711 0.014052204 0.19807237
0.0094071636 0.014170301 0.19812867
0.0082969787 0.014288445 0.19818503
0.007186552 0.014406602 0.19824135
0.0060758945 0.014524804 0.19829774
0.0049649877 0.014643006 0.1983541
0.0038538491 0.014761253 0.19841039
0.0027424616 0.014879529 0.1984669
0.0016308429 0.014997821 0.19852325
0.00051898207 0.015116188 0.1985797
-0.00061050901 0.015173876 0.19856718
-0.0017572393 0.015174957 0.19849023
-0.0029052028 0.015175993 0.19841316
-0.0040543987 0.015177058 0.19833598
-0.0052048252 0.015178094 0.1982587
-0.0063564912 0.01517916 0.19818139
-0.0075093945 0.015180196 0.19810396
-0.0086635416 0.015181261 0.19802651
-0.0098189255 0.015182327 0.19794893
-0.010975554 0.015183377 0.19787124
-0.012133433 0.015184443 0.19779354
-0.013292558 0.015185523 0.19771567
-0.014452915 0.015186588 0.19763783
-0.01561455 0.015187624 0.19755974
-0.016777433 0.015188704 0.19748169
-0.017941568 0.01518977 0.19740352
-0.019106966 0.015190835 0.19732526
-0.020273605 0.015191915 0.19724694
-0.021441521 0.015192966 0.19716856
-0.022610703 0.015194076 0.19708997
-0.023781149 0.015195126 0.19701141
-0.024952872 0.015196176 0.19693273
-0.026125846 0.015197301 0.19685397
-0.02730011 0.015198337 0.19677514
-0.028475622 0.015199461 0.19669619
-0.029652441 0.015200526 0.19661722
-0.030830525 0.015201607 0.19653812
-0.032009896 0.015202686 0.19645888
-0.033190548 0.015203752 0.19637963
-0.034372475 0.015204846 0.19630027
-0.035555717 0.015205926 0.19622076
-0.03674021 0.015207021 0.19614124
-0.037926018 0.015208101 0.19606164
-0.039113108 0.015209195 0.19598201
-0.040301502 0.015210276 0.19590214
-0.041491192 0.015211355 0.19582227
-0.042682182 0.015212465 0.19574231
-0.043874476 0.015213544 0.19566223
-0.045068067 0.015214653 0.19558209
-0.046262968 0.015215718 0.19550186
-0.04745917 0.015216857 0.19542158
-0.048656698 0.015217951 0.19534117
-0.04985553 0.015219016 0.19526064
-0.051055666 0.015220141 0.19518006
-0.052257132 0.01522125 0.19509941
-0.053459916 0.015222359 0.19501862
-0.054664016 0.015223469 0.19493777
-0.055869445 0.015224563 0.19485688
-0.057076205 0.015225642 0.19477579
-0.058284294 0.015226752 0.19469467
-0.059493709 0.015227861 0.19461343
-0.060704462 0.015228955 0.19453216
-0.061916526 0.015230079 0.19445077
-0.063129947 0.015231173 0.19436923
-0.064344697 0.015232283 0.19428775
-0.065560803 0.015233377 0.19420606
-0.066778243 0.015234471 0.19412434
-0.067997046 0.015235594 0.19404244
-0.069217175 0.015236704 0.19396052
-0.070438653 0.015237798 0.19387847
-0.071661487 0.015238937 0.19379634
-0.072885692 0.015240045 0.19371414
-0.074111216 0.015241154 0.19363192
-0.07533814 0.015242264 0.19354942
-0.076566413 0.015243387 0.19346696
-0.077796049 0.015244481 0.19338435
-0.079027049 0.015245619 0.19330171
-0.080259398 0.015246758 0.19321898
-0.081493139 0.015247881 0.19313619
-0.082728259 0.015249006 0.19305319
-0.083964735 0.015250129 0.19297013
-0.085202597 0.015251268 0.19288704
-0.086441845 0.015252391 0.1928038
-0.087682471 0.015253499 0.1927205
-0.088924453 0.015254668 0.19263712
-0.09016785 0.015255791 0.19255364
-0.091412641 0.015256914 0.19246998
-0.092658825 0.015258038 0.19238633
-0.093906388 0.015259176 0.19230255
-0.095155351 0.015260314 0.19221866
-0.096405715 0.015261452 0.19213471
-0.097657464 0.01526259 0.1920507
-0.098910622 0.015263758 0.19196656
-0.1001652 0.015264881 0.19188228
-0.10142117 0.015266034 0.19179794
-0.10267858 0.015267142 0.19171342
-0.10393737 0.01526831 0.19162893
-0.10519759 0.015269448 0.19154435
-0.10645922 0.015270601 0.1914596
-0.10772226 0.015271784 0.19137481
-0.10898674 0.015272907 0.19128987
-0.11025265 0.01527406 0.19120485
-0.11151996 0.015275198 0.19111976
-0.11278871 0.01527635 0.19103459
-0.11405891 0.015277518 0.1909492
-0.11533052 0.015278671 0.19086385
-0.11660356 0.015279854 0.19077843
-0.11787806 0.015281006 0.19069281
-0.11915401 0.015282159 0.19060716
-0.12043138 0.015283326 0.19052133
-0.12171021 0.015284494 0.19043547
-0.1229905 0.015285631 0.19034943
-0.12427222 0.015286813 0.19026339
-0.12555537 0.01528801 0.19017729
-0.12684003 0.015289163 0.19009098
-0.12812608 0.01529033 0.19000459
-0.12941368 0.015291483 0.18991816
-0.13070269 0.015292665 0.18983158
-0.13199316 0.015293832 0.18974492
-0.13328512 0.015295015 0.18965819
-0.13457856 0.015296197 0.18957132
-0.13587342 0.015297378 0.18948439
-0.13716981 0.01529856 0.18939734
-0.13846768 0.015299728 0.18931013
-0.13976701 0.015300895 0.18922287
-0.14106783 0.015302077 0.18913549
-0.14237013 0.015303289 0.18904808
-0.14367393 0.015304456 0.18896052
-0.14497919 0.015305682 0.18887287
-0.14628597 0.015306879 0.18878511
-0.14759423 0.015308045 0.18869731
-0.14890401 0.015309227 0.18860936
0.1484831 0.0006425532 0.19087997
0.14740396 0.00075753737 0.19093472
0.14632459 0.00087250664 0.19098952
0.14524499 0.00098752067 0.19104421
0.14416516 0.0011025942 0.19109908
0.14308506 0.0012176826 0.19115382
0.1420048 0.0013327711 0.19120863
0.14092427 0.0014478745 0.19126341
0.13984351 0.0015630225 0.19131827
0.13876253 0.0016781854 0.19137302
0.13768132 0.0017933783 0.19142786
0.13659988 0.0019085561 0.19148278
0.13551819 0.0020238233 0.19153759
0.13443629 0.0021390903 0.19159245
0.13335417 0.0022543876 0.19164741
0.1322718 0.0023697293 0.19170225
0.1311892 0.0024850413 0.1917572
0.13010637 0.0026004126 0.19181213
0.12902328 0.0027157993 0.19186702
0.12794001 0.0028312153 0.19192201
0.12685649 0.0029466616 0.19197693
0.12577273 0.0030621074 0.19203192
0.12468876 0.003177583 0.19208688
0.12360454 0.0032931336 0.19214195
0.12252009 0.0034086688 0.19219694
0.12143541 0.0035242341 0.19225195
0.12035049 0.0036397993 0.19230697
0.11926536 0.0037553944 0.19236198
0.11818 0.0038710637 0.19241703
0.11709438 0.0039866883 0.19247213
0.11600854 0.0041023726 0.19252712
0.11492247 0.0042180871 0.19258228
0.11383618 0.0043338314 0.19263732
0.11274965 0.0044495901 0.19269249
0.11166286 0.0045653936 0.19274765
0.11057587 0.0046811826 0.19280276
0.10948863 0.0047970158 0.19285792
0.10840117 0.004912864 0.192913
0.10731347 0.0050287568 0.19296819
0.10622556 0.0051446497 0.19302335
0.10513739 0.0052605877 0.19307855
0.104049 0.0053765252 0.19313377
0.10296036 0.0054925224 0.193189
0.10187151 0.0056085493 0.19324419
0.10078241 0.0057245912 0.19329947
0.099693082 0.0058406335 0.19335473
0.098603532 0.005956735 0.19341004
0.097513735 0.0060728216 0.19346529
0.096423723 0.0061889379 0.19352052
0.095333457 0.006305099 0.19357586
0.094242953 0.006421275 0.19363111
0.09315224 0.0065374807 0.19368646
0.092061266 0.0066537014 0.19374183
0.090970099 0.0067699966 0.19379717
0.089878649 0.006886262 0.19385248
0.088787012 0.0070025725 0.19390789
