ply
format ascii 1.0
comment PCL generated
element vertex 1355
property float x
property float y
property float z
element face 0
element camera 0
property float view_px
property float view_py
property float view_pz
property float x_axisx
property float x_axisy
property float x_axisz
property float y_axisx
property float y_axisy
property float y_axisz
property float z_axisx
property float z_axisy
property float z_axisz
property float focal
property float scalex
property float scaley
property float centerx
property float centery
property int viewportx
property int viewporty
property float k1
property float k2
end_header
-0.1299089 0.017316829 0.18949005
-0.13097437 0.017202727 0.18943617
-0.13203955 0.01708864 0.18938214
-0.1331045 0.0169746 0.18932828
-0.13416924 0.016860588 0.18927437
-0.13523369 0.016746605 0.18922046
-0.13629788 0.016632622 0.18916667
-0.13736188 0.016518669 0.18911275
-0.13842557 0.016404791 0.1890589
-0.13948905 0.016290884 0.18900508
-0.14055227 0.016177036 0.18895134
-0.14161526 0.016063202 0.18889752
-0.14267799 0.015949413 0.18884367
-0.14374045 0.015835609 0.1887899
-0.14480267 0.015721865 0.18873611
-0.14586468 0.015608152 0.18868244
-0.14692643 0.015494439 0.18862864
-0.14798792 0.015380784 0.18857491
-0.14904916 0.015267114 0.18852115
0.14820343 0.032083452 0.1838904
0.14689121 0.032088149 0.18399778
0.14558069 0.032092817 0.18410522
0.14427184 0.032097489 0.18421236
0.1429646 0.032102142 0.18431941
0.14165905 0.032106809 0.18442637
0.14035518 0.032111418 0.18453306
0.13905294 0.032116074 0.18463975
0.13775237 0.032120712 0.18474627
0.13645338 0.032125335 0.1848526
0.13515608 0.032129962 0.18495885
0.13386041 0.032134615 0.185065
0.13256638 0.032139208 0.18517095
0.13127396 0.032143816 0.18527681
0.1299832 0.032148413 0.18538249
0.12869406 0.032153022 0.1854881
0.12740652 0.032157615 0.18559355
0.12612063 0.032162197 0.18569884
0.12483634 0.032166775 0.18580407
0.12355368 0.032171372 0.18590906
0.12227262 0.032175951 0.18601403
0.12099315 0.032180499 0.18611881
0.11971532 0.032185081 0.18622342
0.11843907 0.032189615 0.18632796
0.11716445 0.032194152 0.18643236
0.1158914 0.032198686 0.18653667
0.11461995 0.032203235 0.18664077
0.11335009 0.032207742 0.18674475
0.1120818 0.032212306 0.1868487
0.11081512 0.032216828 0.18695232
0.10955 0.032221314 0.18705601
0.10828648 0.032225836 0.18715945
0.10702452 0.032230355 0.1872628
0.10576414 0.032234833 0.18736604
0.10450533 0.032239322 0.18746907
0.10324809 0.032243814 0.18757206
0.1019924 0.032248288 0.18767497
0.10073829 0.032252766 0.18777761
0.099485725 0.032257255 0.18788022
0.098234706 0.032261718 0.18798271
0.096985236 0.032266177 0.18808505
0.095737338 0.03227064 0.18818721
0.09449099 0.032275055 0.18828931
0.093246177 0.032279488 0.18839118
0.092002891 0.032283932 0.18849304
0.090761155 0.03228835 0.18859476
0.089520946 0.032292813 0.18869632
0.088282272 0.032297228 0.18879777
0.087045133 0.032301646 0.18889913
0.085809506 0.03230603 0.18900031
0.084575422 0.032310463 0.1891014
0.083342865 0.032314852 0.18920231
0.082111813 0.032319207 0.1893031
0.080882274 0.032323595 0.18940383
0.079654247 0.032327984 0.18950441
0.078427717 0.032332368 0.18960485
0.077202708 0.032336757 0.18970516
0.075979203 0.03234113 0.18980542
0.074757203 0.03234547 0.18990546
0.073536694 0.032349844 0.19000545
0.072317675 0.032354187 0.19010529
0.071100168 0.032358497 0.19020498
0.069884144 0.032362841 0.19030452
0.06866961 0.03236717 0.190404
0.067456558 0.032371514 0.19050336
0.066244982 0.032375809 0.19060263
0.065034881 0.032380167 0.19070175
0.06382627 0.032384466 0.19080073
0.06261912 0.032388795 0.19089955
0.061413463 0.03239309 0.19099829
0.060209271 0.032397375 0.1910969
0.05900652 0.032401673 0.1911954
0.057805263 0.032405943 0.19129381
0.056605451 0.032410212 0.19139206
0.055407081 0.032414503 0.19149023
0.054210193 0.032418758 0.19158825
0.053014737 0.032423057 0.19168618
0.051820733 0.032427311 0.19178393
0.050628189 0.032431565 0.1918816
0.04943708 0.032435831 0.1919792
0.048247427 0.032440055 0.19207656
0.047059201 0.032444295 0.1921739
0.045872424 0.032448534 0.19227111
0.044687066 0.032452758 0.19236818
0.043503147 0.032456983 0.1924651
0.042320661 0.032461192 0.19256195
0.04113958 0.032465432 0.19265872
0.039959937 0.032469641 0.19275534
0.038781721 0.032473832 0.19285184
0.037604935 0.032478012 0.19294819
0.036429547 0.032482207 0.19304445
0.035255574 0.032486416 0.1931406
0.034083009 0.032490596 0.19323665
0.032911856 0.032494776 0.19333261
0.031742115 0.032498956 0.1934284
0.03057377 0.032503121 0.19352406
0.029406831 0.032507285 0.19361961
0.028241277 0.032511465 0.1937151
0.027077146 0.032515571 0.1938104
0.025914393 0.03251972 0.19390562
0.02475303 0.03252387 0.19400075
0.023593057 0.032528006 0.19409573
0.022434458 0.032532156 0.19419062
0.021277253 0.032536276 0.19428539
0.020121433 0.032540411 0.19438004
0.018966988 0.032544531 0.19447464
0.017813921 0.032548636 0.19456902
0.016662225 0.032552741 0.19466341
0.015511898 0.032556832 0.19475758
0.014362948 0.032560922 0.19485173
0.013215354 0.032565057 0.19494566
0.012069129 0.032569133 0.19503957
0.010924556 0.032572359 0.19513226
0.0097855115 0.032563429 0.19521004
0.0086477101 0.032554451 0.19528762
0.0075111273 0.032545518 0.19536516
0.0063757855 0.03253657 0.19544265
0.0052416762 0.032527652 0.19551992
0.0041087931 0.032518748 0.19559732
0.0029771239 0.03250983 0.19567442
0.0018466952 0.032500945 0.19575158
0.00071749225 0.032492027 0.19582856
-0.00039822463 0.032442562 0.19585606
-0.0014928257 0.032325212 0.19580066
-0.0025871734 0.03220788 0.19574535
-0.0036812569 0.032090556 0.19569001
-0.0047750869 0.031973295 0.19563466
-0.0058686519 0.031856004 0.19557935
-0.0069619641 0.031738803 0.19552398
-0.0080550043 0.031621601 0.19546869
-0.0091478024 0.031504415 0.19541338
-0.010240343 0.031387288 0.19535813
-0.011332624 0.031270158 0.19530287
-0.012424654 0.031153079 0.19524765
-0.013516421 0.031035995 0.19519237
-0.014607918 0.030918958 0.19513708
-0.015699178 0.030801967 0.19508189
-0.016790176 0.030684972 0.19502673
-0.017880907 0.030568039 0.19497147
-0.018971389 0.030451106 0.19491634
-0.020061621 0.030334203 0.19486117
-0.021151582 0.030217329 0.19480607
-0.0222413 0.030100485 0.19475091
-0.023330757 0.029983686 0.19469574
-0.02441995 0.029866887 0.19464061
-0.025508907 0.029750146 0.19458559
-0.026597572 0.029633394 0.19453046
-0.027686013 0.029516684 0.19447541
-0.028774189 0.029400034 0.19442037
-0.02986211 0.029283352 0.19436529
-0.030949766 0.029166749 0.19431025
-0.03203718 0.029050129 0.19425523
-0.033124335 0.028933583 0.19420025
-0.03421123 0.028817035 0.19414526
-0.035297874 0.028700519 0.19409022
-0.036384258 0.02858405 0.19403532
-0.037470389 0.028467579 0.19398031
-0.038556267 0.028351136 0.19392538
-0.039641876 0.028234724 0.19387046
-0.040727261 0.028118372 0.19381553
-0.041812368 0.028002022 0.19376066
-0.042897213 0.02788567 0.19370571
-0.043981817 0.02776939 0.19365087
-0.045066167 0.027653143 0.19359598
-0.04615026 0.02753688 0.19354114
-0.047234103 0.027420664 0.19348636
-0.048317689 0.027304506 0.19343153
-0.049401015 0.027188331 0.19337672
-0.050484087 0.027072202 0.19332182
-0.05156691 0.026956104 0.19326711
-0.052649483 0.026840037 0.19321236
-0.053731803 0.026723998 0.19315755
-0.054813854 0.026607957 0.19310281
-0.05589566 0.026491962 0.19304812
-0.056977216 0.026375998 0.19299331
-0.058058515 0.026260035 0.1929386
-0.059139557 0.02614416 0.19288397
-0.060220357 0.02602824 0.19282928
-0.061300889 0.025912408 0.19277459
-0.062381178 0.025796548 0.19271988
-0.063461214 0.025680749 0.19266525
-0.064540997 0.025564993 0.19261071
-0.065620527 0.025449222 0.19255605
-0.066699803 0.025333526 0.1925014
-0.067778811 0.025217813 0.19244677
-0.068857603 0.025102148 0.19239223
-0.069936112 0.024986511 0.19233766
-0.071014374 0.024870874 0.19228312
-0.072092384 0.024755297 0.19222856
-0.073170148 0.024639735 0.19217402
-0.074247651 0.024524232 0.19211957
-0.075324908 0.024408685 0.19206503
-0.076401919 0.024293212 0.19201052
-0.077478662 0.024177754 0.19195601
-0.078555152 0.024062326 0.19190156
-0.079631418 0.023946943 0.19184718
-0.080707408 0.023831561 0.19179267
-0.081783161 0.023716222 0.19173825
-0.082858644 0.023600914 0.1916838
-0.083933897 0.023485603 0.19162938
-0.085008882 0.023370354 0.19157499
-0.086083621 0.023255106 0.19152069
-0.087158121 0.023139901 0.1914663
-0.088232353 0.023024712 0.19141191
-0.08930634 0.022909582 0.19135761
-0.09038008 0.022794452 0.19130328
-0.091453567 0.022679308 0.19124895
-0.092526786 0.022564268 0.19119465
-0.093599796 0.022449197 0.19114032
-0.094672523 0.022334214 0.19108605
-0.095744997 0.022219189 0.19103184
-0.096817233 0.022104224 0.19097754
-0.097889222 0.021989288 0.1909233
-0.098960944 0.021874366 0.19086912
-0.10003243 0.02175949 0.19081491
-0.10110366 0.021644598 0.19076064
-0.10217466 0.021529781 0.19070652
-0.10324538 0.021414965 0.19065231
-0.10431587 0.021300163 0.19059813
-0.1053861 0.02118542 0.19054398
-0.10645609 0.021070693 0.1904898
-0.10752581 0.02095601 0.19043577
-0.1085953 0.020841328 0.19038162
-0.10966454 0.020726688 0.19032755
-0.11073352 0.020612065 0.1902734
-0.11180226 0.020497471 0.19021934
-0.11287076 0.020382892 0.19016534
-0.11393901 0.020268343 0.19011122
-0.11500698 0.020153856 0.19005725
-0.11607473 0.020039352 0.19000313
-0.11714223 0.019924877 0.18994915
-0.11820947 0.019810462 0.18989521
-0.11927647 0.019696048 0.18984121
-0.12034321 0.019581694 0.18978721
-0.12140971 0.019467324 0.18973321
-0.12247598 0.019352984 0.18967932
-0.12354197 0.019238703 0.18962541
-0.12460773 0.019124407 0.18957147
-0.12567325 0.019010171 0.1895175
-0.12673849 0.018895952 0.18946362
-0.1278035 0.018781791 0.18940976
-0.12886827 0.018667584 0.18935591
-0.12993279 0.018553453 0.18930203
-0.13099708 0.018439336 0.18924817
-0.13206108 0.018325236 0.18919429
-0.13312487 0.018211193 0.1891405
-0.13418838 0.018097151 0.18908674
-0.13525166 0.017983153 0.18903291
-0.13631471 0.017869171 0.18897912
-0.1373775 0.017755188 0.18892539
-0.13844003 0.017641282 0.18887153
-0.13950233 0.017527374 0.18881777
-0.14056437 0.017413495 0.1887641
-0.14162616 0.017299647 0.18871033
-0.14268774 0.017185828 0.18865663
0.14821009 0.032997083 0.18316114
0.14689732 0.03300117 0.18326914
0.14558622 0.033005271 0.18337703
0.14427681 0.033009376 0.18348467
0.14296906 0.033013448 0.18359223
0.14166294 0.03301752 0.18369973
0.14035851 0.033021592 0.18380693
0.13905571 0.033025652 0.18391412
0.13775457 0.033029724 0.18402112
0.1364551 0.033033781 0.18412796
0.13515723 0.033037826 0.18423474
0.13386105 0.033041839 0.18434131
0.13256647 0.03304591 0.18444785
0.13127352 0.033049952 0.18455416
0.12998222 0.033053998 0.1846604
0.12869254 0.03305804 0.1847665
0.12740445 0.033062067 0.18487242
0.12611803 0.033066083 0.18497822
0.12483321 0.033070095 0.1850839
0.12355001 0.033074096 0.18518946
0.12226844 0.033078078 0.18529484
0.12098844 0.033082105 0.18540013
0.11971007 0.033086091 0.1855053
0.11843331 0.033090089 0.18561026
0.11715814 0.033094056 0.18571514
0.11588458 0.033098057 0.18581992
0.11461259 0.033102054 0.18592456
0.1133422 0.03310601 0.18602905
0.11207341 0.033109993 0.18613341
0.11080621 0.033113949 0.18623766
0.1095406 0.033117887 0.1863417
0.10827654 0.033121813 0.18644568
0.10701407 0.033125766 0.18654954
0.10575317 0.033129737 0.18665332
0.10449384 0.033133645 0.18675685
0.10323609 0.033137601 0.18686029
0.10197989 0.033141524 0.18696365
0.10072525 0.03314545 0.18706685
0.099472187 0.033149373 0.18716991
0.098220684 0.033153255 0.18727288
0.09697073 0.033157147 0.18737569
0.09572231 0.033161089 0.18747839
0.094475463 0.033164952 0.18758094
0.093230128 0.033168849 0.18768334
0.091986343 0.033172742 0.18778563
0.090744123 0.033176638 0.18788779
0.089503415 0.03318052 0.18798986
0.088264242 0.033184413 0.18809181
0.087026618 0.033188231 0.18819353
0.0857905 0.033192094 0.18829522
0.084555924 0.033195961 0.18839675
0.08332286 0.033199813 0.1884982
0.082091317 0.033203661 0.18859956
0.080861293 0.033207498 0.18870071
0.079632774 0.03321135 0.18880171
0.078405775 0.033215169 0.18890265
0.077180289 0.033219036 0.18900347
0.075956285 0.033222843 0.18910417
0.074733816 0.033226646 0.18920469
0.073512822 0.033230484 0.1893051
0.072293334 0.033234291 0.18940541
0.071075335 0.033238079 0.18950561
0.069858834 0.033241902 0.18960565
0.068643831 0.033245694 0.18970561
0.067430288 0.033249497 0.18980542
0.066218242 0.033253275 0.18990508
0.065007672 0.033257082 0.19000465
0.063798599 0.033260815 0.1901041
0.062590986 0.033264603 0.19020349
0.061384838 0.033268366 0.19030264
0.060180165 0.033272158 0.19040173
0.058976967 0.033275906 0.19050074
0.057775229 0.033279669 0.19059959
0.056574944 0.033283427 0.19069827
0.055376124 0.03328716 0.19079694
0.054178767 0.033290908 0.19089538
0.052982867 0.033294626 0.19099367
0.051788408 0.033298358 0.19109195
0.050595406 0.033302102 0.19119012
0.049403846 0.033305805 0.19128811
0.04821372 0.033309538 0.19138601
0.047025036 0.033313271 0.19148374
0.045837793 0.033316974 0.19158143
0.044651993 0.033320691 0.19167897
0.043467619 0.033324379 0.19177642
0.042284675 0.033328082 0.19187373
0.041103173 0.033331767 0.19197083
0.039923087 0.03333544 0.19206792
0.038744409 0.033339128 0.19216487
0.037567157 0.033342831 0.19226176
0.036391333 0.033346489 0.19235843
0.035216909 0.033350192 0.19245502
0.034043904 0.03335385 0.19255155
0.032872308 0.033357508 0.1926479
0.031702127 0.033361152 0.19274414
0.030533349 0.033364795 0.19284028
0.02936597 0.033368424 0.19293627
0.028199986 0.033372112 0.19303218
0.027035404 0.033375725 0.19312799
0.025872212 0.03337938 0.19322369
0.024710417 0.033383008 0.1933192
0.023550007 0.033386637 0.19341466
0.022390988 0.033390265 0.19351
0.021233346 0.033393893 0.19360521
0.020077096 0.033397462 0.19370028
0.01892223 0.033401076 0.19379526
0.01776872 0.033404689 0.19389018
0.016616607 0.033408288 0.1939849
0.015465853 0.033411887 0.19407961
0.01431647 0.03341547 0.19417414
0.013168451 0.033419054 0.19426858
0.01202181 0.033422653 0.19436285
0.010876514 0.033426236 0.19445708
0.0097325929 0.03342982 0.19455117
0.0085900193 0.033433374 0.19464511
0.0074488139 0.033436943 0.19473898
0.0063089449 0.033440515 0.19483277
0.0051704436 0.033444054 0.19492635
0.0040332684 0.033447623 0.19501999
0.0028974679 0.033451162 0.1951133
0.0017629861 0.033454686 0.1952067
0.00062984903 0.03345824 0.19529986
-0.00048909406 0.033419415 0.19534099
-0.0015918092 0.033329546 0.19531953
-0.0026940252 0.0332397 0.19529799
-0.0037957567 0.033149917 0.19527656
-0.0048969821 0.033060148 0.19525507
-0.0059977151 0.03297044 0.19523367
-0.0070979455 0.032880772 0.19521224
-0.0081976959 0.032791156 0.19519076
-0.0092969276 0.032701563 0.1951693
-0.010395679 0.032612 0.19514793
-0.011489598 0.032505784 0.19510609
-0.012580393 0.032388702 0.1950509
-0.01367091 0.032271616 0.19499576
-0.014761172 0.032154538 0.19494063
-0.015851187 0.032037541 0.19488552
-0.016940946 0.031920519 0.19483042
-0.018030448 0.031803589 0.19477528
-0.019119684 0.031686638 0.19472018
-0.020208677 0.031569738 0.19466513
-0.021297405 0.031452831 0.19461006
-0.022385875 0.031335972 0.19455495
-0.023474105 0.031219158 0.19449997
-0.024562063 0.031102331 0.19444492
-0.025649777 0.030985577 0.19438991
-0.02673723 0.030868823 0.19433492
-0.027824432 0.030752126 0.19427994
-0.028911367 0.030635417 0.19422498
-0.029998051 0.030518753 0.19417
-0.031084491 0.030402118 0.1941151
-0.032170672 0.030285496 0.19406012
-0.033256587 0.030168906 0.19400519
-0.034342255 0.03005236 0.19395024
-0.035427678 0.029935846 0.19389537
-0.036512826 0.029819345 0.19384053
-0.037597734 0.029702872 0.19378561
-0.038682383 0.029586401 0.19373077
-0.03976677 0.029469989 0.19367594
-0.040850911 0.029353624 0.1936211
-0.041934799 0.029237228 0.19356626
-0.043018427 0.029120889 0.19351146
-0.044101804 0.029004611 0.19345665
-0.045184925 0.028888289 0.1934019
-0.0462678 0.028772073 0.19334716
-0.047350407 0.028655825 0.19329238
-0.048432779 0.02853965 0.19323766
-0.04951489 0.028423447 0.19318286
-0.05059674 0.028307289 0.19312817
-0.051678341 0.028191207 0.19307348
-0.052759685 0.028075093 0.19301876
-0.05384079 0.027959038 0.19296411
-0.054921627 0.027842999 0.19290945
-0.056002211 0.027726989 0.19285482
-0.057082552 0.027611012 0.19280019
-0.058162622 0.027495032 0.19274557
-0.059242468 0.027379142 0.19269097
-0.060322031 0.027263222 0.19263634
-0.061401363 0.02714736 0.19258171
-0.062480435 0.027031502 0.19252717
-0.063559249 0.026915656 0.19247261
-0.06463781 0.026799886 0.19241807
-0.065716125 0.026684115 0.1923635
-0.066794194 0.026568389 0.19230902
-0.067872003 0.026452662 0.19225448
-0.06894955 0.026336996 0.19219998
-0.070026867 0.026221314 0.19214547
-0.071103908 0.026105663 0.19209096
-0.072180718 0.025990086 0.19203648
-0.073257267 0.025874525 0.19198212
-0.074333571 0.025758978 0.19192767
-0.075409628 0.025643446 0.19187325
-0.076485425 0.025527971 0.19181886
-0.077560976 0.025412498 0.19176441
-0.078636244 0.025297027 0.19171003
-0.079711296 0.025181644 0.19165567
-0.080786087 0.02506623 0.19160131
-0.081860632 0.024950892 0.19154698
-0.082934923 0.024835538 0.19149262
-0.084008954 0.024720229 0.19143829
-0.085082747 0.024604967 0.19138402
-0.086156279 0.024489701 0.19132975
-0.087229595 0.024374481 0.19127542
-0.08830262 0.024259277 0.19122118
-0.089375407 0.024144102 0.19116691
-0.090447932 0.024028959 0.19111267
-0.091520213 0.023913829 0.1910584
-0.092592262 0.023798758 0.19100416
-0.09366405 0.023683673 0.19094998
-0.094735578 0.023568647 0.1908958
-0.095806874 0.023453623 0.19084159
-0.096877903 0.023338657 0.19078743
-0.097948685 0.023223691 0.19073331
-0.099019229 0.023108754 0.1906791
-0.10008951 0.022993846 0.19062501
-0.10115956 0.022878954 0.19057092
-0.10222935 0.022764139 0.19051677
-0.10329888 0.022649292 0.19046271
-0.10436815 0.022534505 0.19040862
-0.1054372 0.022419717 0.1903545
-0.10650601 0.02230496 0.19030046
-0.10757454 0.022190249 0.19024643
-0.10864283 0.02207558 0.1901924
-0.1097109 0.021960927 0.19013843
-0.11077867 0.021846274 0.19008443
-0.11184623 0.02173165 0.19003034
-0.11291352 0.021617088 0.18997639
-0.11398058 0.02150254 0.18992248
-0.11504738 0.021388005 0.18986851
-0.11611394 0.021273501 0.18981457
-0.11718025 0.021159012 0.18976063
-0.1182463 0.021044552 0.18970665
-0.11931213 0.020930139 0.18965277
-0.12037768 0.020815769 0.18959895
-0.121443 0.020701369 0.18954501
-0.12250808 0.020587029 0.18949118
-0.12357289 0.020472718 0.18943733
-0.12463747 0.02035841 0.18938351
-0.1257018 0.020244159 0.18932965
-0.12676586 0.020129923 0.18927577
-0.1278297 0.020015717 0.18922201
-0.12889327 0.01990151 0.18916816
-0.12995663 0.019787364 0.18911442
-0.13101971 0.019673234 0.18906066
-0.13208255 0.019559102 0.18900692
-0.13314515 0.019445045 0.18895316
0.14821672 0.033911493 0.1824314
0.14690343 0.033914983 0.18253991
0.14559177 0.033918519 0.18264821
0.1442818 0.033922058 0.18275648
0.14297351 0.033925518 0.18286449
0.14166684 0.033929024 0.18297243
0.14036186 0.033932529 0.18308023
0.13905852 0.033936024 0.18318787
0.13775682 0.033939499 0.18329537
0.13645679 0.03394299 0.18340281
0.1351584 0.033946455 0.18351004
0.13386166 0.03394993 0.18361714
0.13256657 0.033953391 0.18372408
0.13127305 0.033956852 0.18383098
0.12998122 0.033960346 0.1839377
0.12869099 0.033963788 0.1840443
0.12740238 0.033967249 0.1841507
0.12611544 0.033970669 0.18425703
0.1248301 0.033974115 0.18436313
0.12354636 0.033977564 0.18446919
0.12226422 0.03398101 0.18457517
0.12098371 0.033984456 0.18468088
0.11970481 0.033987891 0.18478653
0.11842752 0.033991322 0.18489209
0.11715182 0.033994753 0.18499744
0.11587773 0.033998173 0.1851027
0.11460525 0.034001559 0.18520781
0.11333435 0.034004964 0.18531278
0.11206502 0.03400838 0.18541765
0.11079732 0.03401177 0.18552235
0.10953115 0.034015171 0.18562695
0.10826658 0.034018576 0.18573141
0.10700359 0.034021933 0.18583578
0.10574218 0.034025334 0.18593991
0.10448235 0.034028739 0.18604398
0.10322408 0.03403211 0.18614802
0.10196739 0.034035455 0.18625173
0.10071225 0.034038797 0.18635547
0.099458672 0.034042187 0.186459
0.098206654 0.034045562 0.18656242
0.096956186 0.034048919 0.18666568
0.095707268 0.034052264 0.18676883
0.094459899 0.03405562 0.18687198
0.093214072 0.034058966 0.18697485
0.091969796 0.034062307 0.18707767
0.090727076 0.034065608 0.18718028
0.089485884 0.034068935 0.1872828
0.088246219 0.034072265 0.1873852
0.087008074 0.034075595 0.18748745
0.085771471 0.034078922 0.18758962
0.084536403 0.034082238 0.18769166
0.083302848 0.034085538 0.18779355
0.082070813 0.034088835 0.18789533
0.080840297 0.034092136 0.18799698
0.079611316 0.034095418 0.18809843
0.078383811 0.034098733 0.18819988
0.07715784 0.034101989 0.18830115
0.075933367 0.034105286 0.18840232
0.074710399 0.034108572 0.18850335
0.073488921 0.034111857 0.18860424
0.072268955 0.03411511 0.18870503
0.071050465 0.034118395 0.18880567
0.069833502 0.034121666 0.18890616
0.068618 0.034124922 0.18900663
0.067404009 0.034128159 0.18910688
0.066191487 0.034131415 0.18920702
0.064980455 0.034134656 0.18930703
0.06377089 0.034137912 0.18940693
0.062562801 0.034141164 0.1895068
0.061356187 0.03414439 0.18960652
0.060151048 0.034147646 0.18970603
0.058947381 0.034150872 0.18980551
0.057745177 0.034154076 0.18990475
0.056544445 0.034157287 0.19000393
0.055345152 0.034160513 0.19010302
0.054147344 0.03416371 0.19020197
0.052950967 0.034166936 0.19030073
0.051756054 0.034170143 0.1903995
0.050562568 0.034173355 0.19049808
0.049370553 0.034176566 0.19059655
0.048179977 0.034179762 0.19069487
0.046990834 0.034182943 0.19079313
0.045803148 0.03418611 0.19089121
0.044616889 0.034189291 0.1909892
0.043432072 0.034192454 0.19108707
0.042248677 0.034195621 0.19118479
0.041066706 0.034198802 0.19128251
0.039886169 0.034201983 0.19137999
0.038707055 0.034205135 0.19147736
0.037529357 0.034208316 0.19157472
0.036353081 0.034211483 0.19167188
0.035178211 0.034214634 0.19176891
0.034004781 0.034217741 0.1918658
0.032832742 0.034220893 0.19196266
0.031662114 0.034224045 0.19205931
0.030492885 0.034227181 0.19215593
0.029325062 0.034230318 0.19225243
0.028158648 0.03423344 0.19234878
0.026993623 0.034236591 0.19244498
0.025830003 0.03423968 0.19254112
0.02466776 0.034242816 0.19263715
0.02350693 0.034245908 0.19273299
0.022347474 0.034249015 0.19282877
0.021189405 0.034252126 0.1929245
0.020032728 0.034255233 0.19301996
0.018877415 0.03425834 0.19311547
0.017723495 0.034261446 0.19321078
0.016570942 0.034264509 0.19330597
0.015419764 0.034267601 0.19340101
0.014269956 0.034270722 0.19349602
0.013121519 0.034273785 0.19359094
0.011974446 0.034276847 0.19368562
0.01082874 0.034279909 0.1937803
0.0096843941 0.034282986 0.19387478
0.0085414033 0.034286063 0.19396922
0.007399762 0.034289125 0.19406357
0.00625948 0.034292188 0.19415772
0.0051205577 0.03429525 0.19425184
0.003982984 0.034298286 0.19434577
0.0028467516 0.034301333 0.19443962
0.001711871 0.034304336 0.19453338
0.00057832786 0.034307383 0.19462699
-0.00053975469 0.034263954 0.19466329
-0.0016429094 0.034173843 0.19464189
-0.0027455611 0.034083776 0.19462055
-0.0038477287 0.033993766 0.19459921
-0.0049493895 0.033903789 0.1945779
-0.0060505513 0.033813842 0.19455656
-0.0071512321 0.033723954 0.19453526
-0.0082513988 0.033634093 0.19451398
-0.0093510933 0.033544268 0.1944927
-0.010450274 0.033454511 0.19447142
-0.011548958 0.033364773 0.1944502
-0.012647147 0.033275079 0.19442895
-0.013744852 0.033185411 0.19440767
-0.014842057 0.033095807 0.19438645
-0.015938766 0.033006232 0.1943652
-0.017034985 0.032916673 0.19434398
-0.018130712 0.032827184 0.19432279
-0.019225938 0.032737732 0.19430158
-0.020320678 0.032648332 0.19428042
-0.021414932 0.032558952 0.19425926
-0.022508683 0.032469615 0.1942381
-0.023601944 0.032380324 0.19421691
-0.02469472 0.032291073 0.19419575
-0.025787007 0.032201845 0.19417462
-0.026876561 0.032101493 0.19413978
-0.027962536 0.031984784 0.19408488
-0.02904824 0.031868044 0.19403002
-0.0301337 0.031751364 0.19397512
-0.031218909 0.031634748 0.19392028
-0.032303859 0.031518094 0.19386542
-0.033388548 0.031401519 0.19381061
-0.034472995 0.031284943 0.19375581
-0.035557173 0.031168398 0.19370097
-0.036641106 0.031051882 0.19364619
-0.037724786 0.030935396 0.1935913
-0.038808208 0.030818939 0.19353655
-0.039891381 0.0307025 0.1934818
-0.040974297 0.030586131 0.19342712
-0.042056955 0.030469719 0.19337234
-0.043139368 0.030353352 0.19331762
-0.04422152 0.030237045 0.19326293
-0.045303419 0.030120725 0.19320819
-0.046385068 0.030004492 0.19315356
-0.047466472 0.029888242 0.1930989
-0.048547614 0.029772025 0.19304422
-0.0496285 0.029655822 0.19298959
-0.050709132 0.029539665 0.19293493
-0.051789511 0.029423552 0.19288033
-0.052869644 0.029307408 0.19282568
-0.053949531 0.029191338 0.19277111
-0.055029154 0.029075298 0.19271651
-0.056108531 0.028959291 0.192662
-0.05718765 0.028843282 0.1926074
-0.058266513 0.028727287 0.1925528
-0.059345122 0.028611353 0.1924983
-0.060423497 0.028495431 0.19244373
-0.061501604 0.028379558 0.19238934
-0.06257946 0.028263668 0.1923348
-0.063657068 0.028147822 0.19228026
-0.064734422 0.028032051 0.19222584
-0.06581153 0.027916266 0.19217145
-0.066888377 0.027800526 0.19211698
-0.067964979 0.027684785 0.19206253
-0.069041334 0.027569087 0.19200817
-0.070117429 0.027453406 0.19195369
-0.071193278 0.027337754 0.1918993
-0.072268873 0.027222134 0.19184494
-0.073344201 0.027106542 0.19179058
-0.074419305 0.026990995 0.19173622
-0.075494155 0.026875447 0.19168189
-0.076568738 0.02675993 0.19162753
-0.077643082 0.026644442 0.19157323
-0.078717172 0.026528984 0.19151887
-0.079791009 0.026413556 0.19146466
-0.080864601 0.026298143 0.19141033
-0.081937939 0.026182804 0.19135612
-0.083011031 0.026067438 0.19130182
-0.084083863 0.025952084 0.19124758
-0.085156463 0.025836835 0.1911934
-0.08622878 0.025721541 0.19113916
-0.087300882 0.025606321 0.19108501
-0.088372707 0.025491059 0.19103077
-0.089444302 0.025375897 0.19097665
-0.090515636 0.025260722 0.19092244
-0.091586724 0.025145592 0.19086826
-0.092657581 0.025030492 0.19081417
-0.093728155 0.024915406 0.19075996
-0.094798498 0.024800368 0.19070593
-0.095868587 0.024685327 0.19065183
-0.096938439 0.024570346 0.19059777
-0.098008022 0.024455365 0.19054365
-0.099077366 0.024340384 0.19048959
-0.10014647 0.024225479 0.19043556
-0.1012153 0.024110602 0.19038153
-0.10228392 0.02399574 0.19032747
-0.10335226 0.023880893 0.19027343
-0.10442036 0.023766061 0.19021946
-0.1054882 0.023651291 0.19016549
-0.1065558 0.023536533 0.19011155
-0.10762316 0.02342179 0.19005755
-0.10869027 0.023307078 0.19000363
-0.10975713 0.023192424 0.18994969
-0.11082374 0.023077756 0.18989572
-0.11189009 0.022963133 0.18984178
-0.11295621 0.022848539 0.18978795
-0.11402208 0.022733945 0.18973404
-0.1150877 0.022619426 0.18968019
-0.11615308 0.022504877 0.18962631
-0.11721819 0.02239039 0.18957248
-0.11828307 0.02227593 0.18951863
-0.11934771 0.022161471 0.18946478
-0.12041207 0.022047071 0.18941104
-0.12147622 0.021932656 0.18935719
-0.12254009 0.021818331 0.18930346
0.14822342 0.034826659 0.181701
0.14690956 0.034829553 0.18181002
0.14559735 0.034832522 0.18191889
0.14428681 0.034835465 0.18202764
0.14297795 0.034838375 0.18213615
0.14167076 0.034841299 0.18224457
0.14036521 0.034844209 0.18235287
0.13906132 0.034847107 0.18246102
0.13775909 0.034850031 0.18256909
0.13645849 0.034852941 0.18267703
0.13515958 0.034855824 0.18278474
0.13386229 0.034858733 0.18289235
0.13256663 0.034861643 0.18299979
0.1312726 0.034864523 0.18310711
0.12998022 0.034867406 0.18321431
0.12868948 0.034870286 0.18332145
0.12740034 0.03487318 0.18342835
0.12611283 0.034876063 0.18353519
0.12482695 0.034878943 0.18364188
0.12354268 0.034881823 0.18374836
0.12226 0.034884706 0.18385482
0.12097897 0.034887571 0.18396109
0.11969956 0.034890454 0.18406725
0.11842175 0.034893274 0.18417323
0.11714552 0.034896139 0.18427908
0.11587091 0.034898978 0.18438488
0.11459788 0.034901842 0.18449041
0.11332645 0.034904696 0.18459594
0.11205661 0.034907531 0.18470123
0.11078836 0.03491037 0.1848065
0.10952171 0.03491322 0.18491152
0.10825663 0.034916069 0.18501651
0.10699313 0.034918878 0.1851213
0.10573121 0.034921683 0.18522602
0.10447086 0.034924507 0.18533057
0.10321208 0.034927327 0.18543497
0.10195487 0.034930147 0.18553931
0.10069922 0.034932952 0.18564343
0.099445127 0.034935776 0.18574747
0.098192587 0.034938581 0.18585145
0.096941628 0.03494139 0.18595526
0.09569221 0.034944169 0.18605882
0.094444349 0.034946974 0.18616238
0.093198024 0.034949768 0.18626571
0.091953263 0.034952529 0.186369
0.090710014 0.034955338 0.18647212
0.089468323 0.034958113 0.18657517
0.088228151 0.034960892 0.18667802
0.086989529 0.034963671 0.18678081
0.085752428 0.034966446 0.18688345
0.084516868 0.034969211 0.186986
0.083282836 0.034971926 0.18708828
0.082050316 0.034974705 0.18719053
0.080819294 0.034977484 0.1872927
0.079589814 0.034980215 0.18739468
0.078361839 0.034982979 0.18749654
0.077135377 0.034985714 0.18759832
0.075910412 0.034988474 0.18769991
0.074686952 0.034991208 0.18780139
0.073465005 0.034993973 0.18790281
0.072244562 0.034996659 0.18800402
0.07102561 0.034999393 0.18810514
0.069808155 0.035002127 0.18820614
0.068592183 0.035004843 0.18830705
0.067377701 0.035007548 0.18840775
0.06616471 0.035010267 0.18850842
0.064953186 0.035012987 0.18860894
0.063743152 0.035015702 0.18870926
0.062534608 0.035018407 0.18880951
0.061327521 0.035021126 0.18890971
0.060121916 0.035023816 0.18900973
0.058917776 0.035026517 0.18910962
0.05771511 0.035029206 0.18920934
0.056513898 0.035031896 0.18930906
0.055314153 0.035034586 0.18940857
0.054115858 0.035037261 0.18950796
0.052919034 0.035039946 0.18960729
0.051723663 0.035042606 0.18970644
0.050529726 0.035045296 0.18980551
0.049337268 0.035047926 0.18990439
0.048146218 0.035050601 0.19000322
0.046956629 0.03505329 0.19010186
0.045768473 0.03505595 0.19020045
0.04458176 0.035058606 0.19029891
0.043396484 0.035061266 0.19039723
0.042212635 0.035063911 0.19049546
0.041030221 0.035066556 0.19059351
0.039849233 0.035069201 0.19069156
0.038669672 0.035071846 0.19078937
0.037491526 0.035074476 0.19088712
0.036314808 0.035077121 0.19098467
0.035139505 0.035079751 0.19108218
0.033965606 0.035082381 0.1911796
0.032793127 0.035085008 0.19127691
0.031622067 0.035087638 0.191374
0.030452389 0.035090268 0.19147113
0.029284131 0.035092853 0.19156802
0.028117277 0.035095483 0.19166481
0.026951823 0.035098083 0.19176149
0.025787767 0.035100684 0.19185802
0.024625096 0.035103269 0.19195443
0.023463815 0.035105884 0.19205084
0.022303924 0.035108499 0.19214711
0.021145422 0.035111085 0.19224319
0.019988313 0.03511367 0.19233915
0.018832572 0.035116255 0.19243503
0.017678224 0.035118841 0.19253078
0.016525257 0.035121392 0.19262639
0.015373647 0.035123963 0.19272199
0.014223415 0.035126552 0.19281736
0.013074543 0.035129152 0.1929127
0.011927049 0.035131708 0.19300795
0.010780918 0.035134293 0.19310302
0.0096361442 0.035136849 0.193198
0.0084927436 0.035139404 0.19329283
0.0073506846 0.035141975 0.19338757
0.0062099891 0.03514453 0.19348222
0.0050706496 0.035147056 0.19357666
0.0039326549 0.035149597 0.19367111
0.002796005 0.035152137 0.19376537
0.0016606998 0.035154667 0.19385958
0.0005267433 0.035157222 0.19395366
-0.0005904563 0.035109177 0.1939849
-0.0016940431 0.035018854 0.19396371
-0.0027971494 0.034928564 0.19394249
-0.0038997454 0.034838319 0.1939213
-0.0050018458 0.034748115 0.19390011
-0.0061034472 0.034657929 0.19387895
-0.0072045601 0.034567803 0.19385782
-0.0083051706 0.034477722 0.19383672
-0.0094052861 0.034387697 0.19381553
-0.010504905 0.034297679 0.1937944
-0.011604021 0.034207713 0.1937733
-0.012702649 0.034117781 0.19375217
-0.013800787 0.034027923 0.19373113
-0.014898425 0.03393808 0.19371
-0.015995568 0.033848263 0.19368893
-0.01709222 0.033758514 0.1936678
-0.018188376 0.033668786 0.19364676
-0.01928404 0.033579104 0.19362572
-0.020379214 0.033489473 0.19360474
-0.021473894 0.03339988 0.19358367
-0.022568082 0.033310305 0.19356263
-0.023661766 0.033220805 0.19354162
-0.024754975 0.03313132 0.19352064
-0.02584769 0.033041876 0.19349962
-0.026939908 0.032952484 0.19347864
-0.028031636 0.032863099 0.1934576
-0.029122878 0.032773823 0.19343668
-0.030213628 0.032684531 0.19341576
-0.031303886 0.032595314 0.19339475
-0.032393664 0.032506082 0.19337386
-0.033482939 0.032416921 0.19335291
-0.034571733 0.032327808 0.19333196
-0.035660043 0.03223874 0.1933111
-0.036747858 0.032149702 0.19329014
-0.037835188 0.032060705 0.19326928
-0.038922023 0.03197173 0.19324839
-0.040008388 0.031882823 0.1932275
-0.041094255 0.031793952 0.19320667
-0.042178851 0.031699426 0.19317883
-0.043260034 0.03158306 0.19312418
-0.044340968 0.031466737 0.19306958
-0.045421649 0.031350415 0.19301501
-0.046502084 0.031234153 0.19296041
-0.047582265 0.03111789 0.19290575
-0.048662189 0.031001674 0.19285119
-0.049741864 0.030885471 0.19279665
-0.050821275 0.030769268 0.19274208
-0.05190045 0.03065314 0.19268754
-0.052979361 0.030536994 0.192633
-0.05405803 0.030420927 0.19257858
-0.055136446 0.030304829 0.19252402
-0.056214593 0.030188804 0.19246951
-0.05729251 0.03007281 0.19241509
-0.058370162 0.029956801 0.19236058
-0.059447572 0.029840853 0.19230619
-0.060524717 0.029724916 0.19225174
-0.061601631 0.029609026 0.19219729
-0.06267827 0.029493136 0.19214287
-0.06375467 0.029377261 0.19208843
-0.06483081 0.029261462 0.19203413
-0.065906711 0.029145647 0.19197968
-0.066982359 0.029029891 0.19192538
-0.068057753 0.028914135 0.19187102
-0.069132887 0.028798437 0.19181672
-0.070207797 0.028682742 0.19176236
-0.071282431 0.028567091 0.19170803
-0.07235682 0.028451454 0.19165379
-0.073430948 0.028335862 0.19159946
-0.074504837 0.02822027 0.19154525
-0.075578496 0.028104722 0.19149098
-0.076651879 0.027989192 0.19143674
-0.077725016 0.027873689 0.19138247
-0.078797899 0.027758202 0.19132826
-0.079870544 0.027642787 0.19127408
-0.080942929 0.027527343 0.19121984
-0.08201506 0.027411977 0.19116572
-0.083086967 0.027296593 0.19111151
-0.084158607 0.02718124 0.19105732
-0.085229993 0.027065946 0.1910032
-0.086301133 0.026950652 0.19094911
-0.08737202 0.026835419 0.19089499
-0.088442668 0.02672017 0.19084084
-0.089513049 0.02660498 0.19078675
-0.090583183 0.026489805 0.19073269
-0.091653079 0.026374631 0.1906786
-0.092722729 0.026259517 0.19062459
-0.093792133 0.026144402 0.19057053
-0.094861284 0.026029361 0.19051647
-0.095930189 0.025914304 0.19046241
-0.096998826 0.025799293 0.19040841
-0.098067224 0.025684299 0.19035447
-0.099135384 0.025569348 0.19030043
-0.1002033 0.025454411 0.19024649
-0.10127094 0.025339505 0.19019258
-0.10233837 0.025224613 0.19013858
-0.10340552 0.025109766 0.19008464
-0.10447242 0.024994951 0.19003078
-0.10553909 0.024880119 0.18997687
-0.10660551 0.024765316 0.18992293
-0.10767169 0.024650604 0.18986911
-0.1087376 0.024535876 0.18981525
-0.10980327 0.024421195 0.18976137
-0.1108687 0.024306526 0.18970755
-0.11193387 0.024191843 0.18965369
-0.1129988 0.02407725 0.18959987
0.14823011 0.035742585 0.18097004
0.14691564 0.035744958 0.18107951
0.14560294 0.035747271 0.18118885
0.14429185 0.035749648 0.18129805
0.14298239 0.035751991 0.18140724
0.14167467 0.035754334 0.18151605
0.14036858 0.035756662 0.18162498
0.13906412 0.035759024 0.18173361
0.13776134 0.035761323 0.18184212
0.13646021 0.035763681 0.18195051
0.13516071 0.035766013 0.18205881
0.1338629 0.035768297 0.18216687
0.13256671 0.03577064 0.18227491
0.13127214 0.035772968 0.18238276
0.12997924 0.03577527 0.18249044
0.12868792 0.035777584 0.18259805
0.12739822 0.035779912 0.18270546
0.12611023 0.035782214 0.18281275
0.12482379 0.035784528 0.18292001
0.12353901 0.035786811 0.18302697
0.12225583 0.035789099 0.18313387
0.12097428 0.035791397 0.18324062
0.11969431 0.035793699 0.18334728
0.11841595 0.035795998 0.18345374
0.11713921 0.035798281 0.18356016
0.11586404 0.035800599 0.18366641
0.11459052 0.035802882 0.18377253
0.11331853 0.035805184 0.18387848
0.11204818 0.035807438 0.18398431
0.11077946 0.035809711 0.18408999
0.10951225 0.035811994 0.18419555
0.10824668 0.035814248 0.18430099
0.10698264 0.035816535 0.18440634
0.10572021 0.035818789 0.18451148
0.10445934 0.035821062 0.18461654
0.10320003 0.035823315 0.18472144
0.10194233 0.035825588 0.18482623
0.10068616 0.035827857 0.18493089
0.099431582 0.035830069 0.18503541
0.098178543 0.035832323 0.18513981
0.096927069 0.035834581 0.18524405
0.095677145 0.03583682 0.18534821
0.09442877 0.035839062 0.18545225
0.093181953 0.03584132 0.18555611
0.09193667 0.035843559 0.18565989
0.090692937 0.035845771 0.18576345
0.089450747 0.035848025 0.18586695
0.088210069 0.035850238 0.18597034
0.08697097 0.035852432 0.18607351
0.085733376 0.035854675 0.18617663
0.084497318 0.035856903 0.18627965
0.083262779 0.035859112 0.1863825
0.082029767 0.035861339 0.18648526
0.080798261 0.035863537 0.18658781
0.079568289 0.035865746 0.1866903
0.07833983 0.035867959 0.18679264
0.077112883 0.035870157 0.18689489
0.075887442 0.035872322 0.18699694
0.074663505 0.035874549 0.18709895
0.073441066 0.035876747 0.18720073
0.072220132 0.035878941 0.18730244
0.07100071 0.035881124 0.1874041
0.069782756 0.035883322 0.1875056
0.068566307 0.035885502 0.18760687
0.067351364 0.035887685 0.18770811
0.066137888 0.035889853 0.1878092
0.064925916 0.035892006 0.18791014
0.063715413 0.035894185 0.18801105
0.06250637 0.035896365 0.18811175
0.061298829 0.035898548 0.18821236
0.060092747 0.035900701 0.18831286
0.058888145 0.035902865 0.18841317
0.057684995 0.035905033 0.18851346
0.056483328 0.035907201 0.18861359
0.055283122 0.03590934 0.18871355
0.054084368 0.035911493 0.18881342
0.052887086 0.035913642 0.1889132
0.051691249 0.035915781 0.1890128
0.050496854 0.035917919 0.18911228
0.049303919 0.035920057 0.1892117
0.048112422 0.035922211 0.18931094
0.046922371 0.035924364 0.18941012
0.045733765 0.035926498 0.18950915
0.044546589 0.035928637 0.18960807
0.043360867 0.03593076 0.1897068
0.042176582 0.035932854 0.18980551
0.040993717 0.035934977 0.18990403
0.039812278 0.035937101 0.19000247
0.038632262 0.035939224 0.19010079
0.037453663 0.035941347 0.19019902
0.036276501 0.035943452 0.19029707
0.035100747 0.035945576 0.19039503
0.033926412 0.035947684 0.19049284
0.03275349 0.035949793 0.19059056
0.031581972 0.035951901 0.19068822
0.030411877 0.03595398 0.19078568
0.029243175 0.035956059 0.19088298
0.028075885 0.035958167 0.19098026
0.026909981 0.035960276 0.19107744
0.025745485 0.035962369 0.19117445
0.024582382 0.035964463 0.19127131
0.023420669 0.035966542 0.1913681
0.022260346 0.035968635 0.19146478
0.021101411 0.035970699 0.19156131
0.019943874 0.035972778 0.19165781
0.018787712 0.035974856 0.1917541
0.017632924 0.03597692 0.1918503
0.016479522 0.035978984 0.19194642
0.01532749 0.035981063 0.19204238
0.01417683 0.035983127 0.1921382
0.013027537 0.035985205 0.19223398
0.011879617 0.035987269 0.19232959
0.010733062 0.035989303 0.19242513
0.0095878709 0.035991356 0.19252053
0.0084440419 0.03599342 0.19261584
0.0073015736 0.035995468 0.19271103
0.0061604497 0.035997532 0.19280609
0.0050206855 0.035999566 0.19290105
0.0038822736 0.036001615 0.19299594
0.0027452214 0.036003619 0.19309056
0.0016094953 0.036005668 0.19318524
0.00047512518 0.036007717 0.19327971
-0.00064118393 0.035955053 0.19330603
-0.0017452177 0.035864525 0.1932849
-0.0028487523 0.035773978 0.19326386
-0.0039517917 0.035683513 0.19324285
-0.0050543281 0.035593085 0.19322178
-0.0061563724 0.035502691 0.19320077
-0.0072579253 0.035412353 0.19317976
-0.0083589675 0.035322018 0.19315878
-0.0094595142 0.035231773 0.19313776
-0.010559574 0.035141539 0.19311678
-0.011659134 0.035051342 0.1930958
-0.012758194 0.034961183 0.19307485
-0.013856764 0.034871086 0.19305387
-0.014954837 0.03478102 0.19303298
-0.016052419 0.034690998 0.19301197
-0.017149499 0.034600988 0.19299108
-0.018246088 0.034511045 0.19297019
-0.01934218 0.034421138 0.19294927
-0.020437792 0.034331266 0.19292831
-0.021532895 0.034241453 0.19290745
-0.022627512 0.034151666 0.19288659
-0.023721637 0.034061927 0.1928657
-0.024815274 0.033972219 0.19284487
-0.025908422 0.033882584 0.19282401
-0.027001068 0.033792976 0.1928032
-0.028093234 0.033703361 0.1927824
-0.029184898 0.033613827 0.19276151
-0.030276071 0.033524316 0.19274074
-0.031366765 0.033434872 0.19271988
-0.032456961 0.033345446 0.19269913
-0.033546675 0.03325608 0.1926783
-0.034635894 0.033166714 0.19265756
-0.035724625 0.033077419 0.19263676
-0.036812868 0.032988146 0.19261599
-0.037900627 0.032898955 0.19259533
-0.038987901 0.032809753 0.19257453
-0.040074676 0.032720625 0.19255379
-0.041160967 0.032631524 0.19253305
-0.042246778 0.032542445 0.19251233
-0.043332092 0.032453433 0.19249168
-0.044416927 0.032364439 0.19247097
-0.045501277 0.032275505 0.19245026
-0.046585146 0.032186601 0.19242966
-0.047668524 0.032097727 0.19240895
-0.048751418 0.032008927 0.1923883
-0.049833819 0.031920124 0.19236764
-0.050915744 0.031831399 0.19234702
-0.051997185 0.031742673 0.19232634
-0.053078152 0.031654008 0.19230577
-0.054158624 0.031565402 0.19228515
-0.055238619 0.031476825 0.19226459
-0.056318127 0.031388264 0.1922439
-0.057397142 0.03129958 0.19222313
-0.058473583 0.031183574 0.19216877
-0.059549782 0.031067608 0.19211441
-0.060625724 0.030951658 0.19206005
-0.061701413 0.030835753 0.19200575
-0.062776856 0.030719848 0.19195139
-0.063852057 0.030604005 0.19189703
-0.064926997 0.030488145 0.19184276
-0.066001676 0.030372329 0.19178849
-0.067076124 0.030256558 0.19173422
-0.068150312 0.030140817 0.19167995
-0.069224253 0.030025076 0.19162571
-0.070297949 0.02990935 0.19157147
-0.071371384 0.029793683 0.1915172
-0.072444573 0.029678047 0.19146299
-0.073517516 0.02956241 0.19140881
-0.074590199 0.02944682 0.19135466
-0.075662635 0.029331258 0.19130048
-0.076734841 0.02921574 0.19124627
-0.077806771 0.029100193 0.19119209
-0.078878455 0.02898469 0.19113797
-0.079949908 0.028869249 0.19108388
-0.081021093 0.028753821 0.19102976
-0.082092032 0.028638421 0.1909757
-0.083162732 0.028523022 0.1909216
-0.084233157 0.028407684 0.19086751
-0.085303359 0.028292347 0.19081345
-0.086373307 0.028177038 0.19075939
-0.087443016 0.028061789 0.19070533
-0.08851245 0.027946524 0.19065133
-0.089581661 0.02783132 0.19059733
-0.090650626 0.027716132 0.19054332
-0.091719307 0.027600942 0.19048935
-0.092787765 0.027485827 0.19043538
-0.093855977 0.027370712 0.19038141
-0.094923921 0.027255626 0.19032741
-0.095991626 0.027140571 0.19027352
-0.097059086 0.027025547 0.19021961
-0.098126307 0.026910536 0.1901657
-0.099193275 0.026795555 0.19011182
-0.10025997 0.026680604 0.19005787
-0.10132647 0.026565667 0.19000396
-0.10239268 0.026450792 0.18995017
0.14823678 0.036659304 0.18023837
0.14692178 0.036661096 0.18034843
0.1456085 0.036662847 0.18045825
0.14429687 0.036664609 0.18056798
0.14298686 0.036666386 0.18067759
0.14167859 0.036668118 0.18078706
0.14037193 0.03666991 0.18089637
0.13906692 0.036671657 0.18100554
0.1377636 0.036673404 0.18111455
0.13646194 0.036675151 0.18122348
0.13516188 0.036676917 0.18133229
0.13386352 0.036678649 0.1814408
0.13256678 0.036680397 0.18154931
0.13127165 0.036682144 0.1816577
0.12997822 0.03668388 0.18176591
0.1286864 0.036685627 0.18187401
0.12739617 0.036687359 0.18198198
0.1261076 0.03668908 0.18208975
0.12482063 0.036690827 0.18219736
0.12353532 0.03669259 0.18230498
0.12225161 0.036694296 0.18241233
0.12096952 0.036696028 0.18251964
0.11968902 0.036697764 0.18262669
0.11841015 0.036699496 0.18273371
0.11713287 0.036701214 0.18284062
0.1158572 0.03670295 0.18294734
0.11458314 0.036704622 0.18305391
0.11331066 0.036706358 0.18316039
0.11203978 0.03670809 0.18326673
0.11077051 0.036709793 0.18337291
0.10950281 0.036711514 0.18347898
0.10823669 0.036713216 0.1835849
0.10697215 0.036714938 0.18369073
0.1057092 0.03671664 0.18379638
0.10444782 0.036718361 0.18390194
0.10318803 0.036720034 0.18400732
0.1019298 0.03672174 0.18411258
0.10067312 0.036723427 0.18421769
0.099418014 0.036725134 0.18432274
0.098164462 0.036726836 0.18442765
0.096912481 0.036728542 0.1845324
0.095662057 0.036730215 0.18463701
0.094413184 0.036731891 0.18474153
0.09316586 0.036733609 0.18484586
0.091920085 0.036735255 0.18495008
0.090675853 0.036736947 0.18505421
0.089433156 0.036738634 0.18515819
0.088191994 0.036740325 0.18526199
0.086952381 0.036741983 0.18536571
0.085714296 0.036743674 0.1854693
0.084477745 0.036745336 0.1855728
0.083242714 0.036747009 0.18567607
0.082009204 0.036748685 0.18577933
0.080777213 0.036750328 0.18588239
0.079546772 0.036751974 0.18598527
0.078317828 0.036753636 0.18608809
0.077090375 0.036755309 0.18619084
0.075864457 0.036756955 0.18629339
0.074640028 0.036758617 0.18639582
0.073417105 0.036760274 0.18649819
0.072195701 0.036761921 0.18660036
0.07097578 0.036763567 0.18670243
0.069757365 0.036765244 0.18680438
0.068540454 0.036766857 0.18690619
0.067325018 0.036768489 0.18700787
0.066111073 0.03677012 0.18710944
0.064898603 0.036771778 0.18721089
0.063687623 0.03677341 0.18731225
0.062478136 0.036775041 0.18741342
0.061270118 0.036776673 0.18751445
0.060063567 0.036778316 0.18761542
0.058858491 0.036779933 0.18771622
0.05765488 0.036781564 0.18781698
0.056452759 0.036783166 0.18791753
0.055252068 0.036784813 0.18801799
0.054052856 0.036786441 0.18811834
0.052855115 0.036788043 0.18821853
0.051658802 0.036789659 0.18831858
0.05046396 0.036791291 0.18841857
0.049270555 0.036792893 0.18851846
0.048078608 0.036794506 0.18861815
0.046888094 0.036796138 0.18871778
0.045699049 0.03679771 0.18881726
0.044511419 0.036799327 0.18891662
0.04332523 0.036800928 0.18901587
0.04214048 0.03680253 0.18911499
0.040957175 0.036804132 0.18921399
0.039775275 0.036805719 0.18931291
0.038594823 0.036807302 0.18941167
0.037415788 0.036808919 0.18951029
0.036238156 0.036810521 0.18960881
0.035061978 0.036812063 0.18970716
0.033887196 0.036813665 0.18980551
0.032713827 0.036815237 0.18990365
0.031541865 0.036816839 0.1900017
0.030371314 0.036818441 0.19009969
0.029202176 0.036820013 0.19019753
0.028034443 0.036821585 0.19029519
0.026868111 0.036823172 0.19039282
0.025703168 0.036824744 0.19049025
0.024539629 0.036826331 0.19058767
0.023377491 0.036827859 0.19068483
0.022216743 0.036829431 0.19078189
0.021057373 0.036831003 0.19087896
0.019899385 0.03683259 0.19097584
0.018742794 0.036834147 0.19107261
0.017587585 0.036835704 0.19116926
0.016433744 0.036837261 0.19126579
0.015281292 0.036838803 0.19136223
0.014130203 0.036840361 0.19145855
0.012980497 0.036841888 0.1915547
0.011832149 0.036843475 0.19165075
0.010685169 0.036845017 0.19174674
0.009539553 0.036846559 0.19184265
0.0083953068 0.036848102 0.19193831
0.0072524101 0.036849659 0.19203404
0.0061108726 0.03685122 0.19212949
0.0049706912 0.036852747 0.19222489
0.0038318625 0.036854289 0.19232014
0.0026943928 0.036855787 0.1924153
0.0015582646 0.036857314 0.19251037
0.00042347354 0.036858857 0.19260529
-0.00069197494 0.036801673 0.19262654
-0.0017964409 0.036710892 0.19260567
-0.0029004151 0.03662014 0.19258472
-0.0040038936 0.036529444 0.19256386
-0.0051068701 0.036438785 0.192543
-0.0062093539 0.036348164 0.19252208
-0.0073113316 0.036257576 0.19250119
-0.0084128138 0.036167048 0.19248033
-0.0095138 0.036076535 0.19245949
-0.010614295 0.035986092 0.19243869
-0.011714291 0.035895664 0.19241786
-0.012813787 0.035805289 0.19239697
-0.013912788 0.03571495 0.19237623
-0.015011298 0.035624661 0.19235539
-0.01610931 0.035534415 0.19233459
-0.017206833 0.035444185 0.19231385
-0.018303849 0.035354011 0.19229302
-0.019400375 0.035263903 0.19227231
-0.020496417 0.035173804 0.19225153
-0.021591958 0.035083752 0.19223073
-0.022687014 0.034993745 0.19221002
-0.023781566 0.034903754 0.19218931
-0.024875628 0.034813832 0.19216856
-0.025969202 0.034723949 0.19214788
-0.027062282 0.034634102 0.19212717
-0.028154869 0.034544285 0.19210652
-0.02924696 0.034454521 0.1920858
-0.030338572 0.034364764 0.19206512
-0.031429689 0.034275118 0.19204444
-0.03252032 0.034185451 0.19202378
-0.033610448 0.034095846 0.19200316
-0.034700103 0.034006272 0.19198257
-0.035789266 0.033916771 0.19196191
